-1.48288855470165,1.866981400673352,0.5083751034538873
-0.3128748344162705,1.742647391726639,0.5254887802626718
-1.415425870872515,1.742647391726639,0.5254887802626717
-1.414305395186806,1.643950971575706,0.5516808177534356
-0.313995310101979,1.643950971575706,0.5516808177534356
-0.2681231555761313,1.739826429964756,0.5208677801090417
-1.454179440018769,1.642233157360582,0.5467647286786953
-0.3127435045534124,1.569279611620286,0.5801249362771119
-1.415557200735373,1.569279611620286,0.5801249362771119
-1.41678919081733,1.508186796427975,0.6053005001701839
-0.3115115144714556,1.508186796427975,0.6053005001701839
-0.2735069670311179,1.566989262333222,0.5747168396234914
-1.456218060211491,1.505265058335888,0.5994087759648662
-0.3102384174259154,1.450165743473717,0.6275931972533624
-1.41806228786287,1.450165743473717,0.6275931972533624
-1.419026491702905,1.391065742318121,0.6475500154823397
-0.3092742135858804,1.391065742318121,0.6475500154823396
-0.2713525804819346,1.44661349280261,0.6215589732850497
-1.456610090159219,1.387054963051442,0.6416301045283299
-0.3093798257197216,1.333092154607458,0.6658792429477898
-1.418920879569064,1.333092154607458,0.6658792429477897
-1.418132756152776,1.278179963620558,0.6832397001427282
-0.3101679491360092,1.278179963620558,0.6832397001427282
-0.2723401517158552,1.329077316284451,0.6598290800010533
-1.455535281503045,1.274533513002073,0.6767509826535757
-0.3101030516835128,1.227993774268812,0.700240739962513
-1.418197653605273,1.227993774268812,0.7002407399625131
-1.419558629340799,1.180582641173223,0.7168300443731871
-0.3087420759479861,1.180582641173223,0.7168300443731872
-0.2726514957334306,1.224641627003103,0.6933790680802614
-1.456353624829918,1.177301659530996,0.7097874360764425
-0.3067344392521662,1.130380068664399,0.7322936244114775
-1.421566266036619,1.130380068664399,0.7322936244114775
-1.4225741622318,1.068222554741676,0.7464426867616238
-0.3057265430569857,1.068222554741676,0.7464426867616238
-0.2708645393677213,1.127095539273862,0.7251410306384178
-1.457516735632411,1.064933449749512,0.7392036964251012
-0.3083617729615724,0.9813495910731104,0.7596136337553784
-1.419938932327213,0.9813495910731104,0.7596136337553785
-1.416344283695982,0.8696966389010148,0.7719371943427166
-0.311956421592803,0.8696966389010148,0.7719371943427165
-0.2742532043119188,0.9780538293054548,0.7523381787580209
-1.449800038032852,0.8663932912940049,0.7646523651629026
-0.31217097872684,0.7554554866202347,0.7829257856869288
-1.416129726561945,0.7554554866202348,0.7829257856869288
-1.417641209904904,0.6669512805414147,0.790734386696388
-0.3106594953838817,0.6669512805414147,0.790734386696388
-0.2791764071600201,0.7521460204710506,0.7756153376483569
-1.450422324393553,0.6636377442246508,0.7833953939127859
-0.2482344506687677,-0.7934851789609757,0.6015423352307359
-1.480066254620018,-0.7934851789609758,0.6015423352307359
-1.496751620264809,-0.8669805225493761,0.5589401701044274
-0.231549085023976,-0.8669805225493762,0.5589401701044274
-0.161014585151723,-0.7978915371686632,0.5938494070865334
-1.592219223933604,-0.8717494769592744,0.5512238113103001
-0.2957757725549882,-0.1020582660231357,0.7884636115219439
-1.432524932733797,-0.1020582660231357,0.7884636115219439
-1.434188892460987,-0.1891790822672381,0.7804396902579451
-0.2941118128277983,-0.1891790822672381,0.7804396902579451
-0.2605386302276299,-0.1054037808857678,0.7812572842775118
-1.469742873398007,-0.1925260267627109,0.773175821733567
-0.2042035353052068,-2.117896327085007,0.3604673536398098
-1.524097169983578,-2.117896327085008,0.3604673536398099
-1.521194993121668,-2.167749615642319,0.3504646265515059
-0.2071057121671174,-2.167749615642318,0.3504646265515058
-0.09127208824966283,-2.090245094756495,0.3554678944690537
-1.634477299842783,-2.137718654787016,0.3456381120551503
-0.1972068224366678,-2.001232253668521,0.3796702447648062
-1.531093882852117,-2.001232253668521,0.3796702447648061
-1.527535311380955,-2.060508666944853,0.3703360874364985
-0.2007653939078297,-2.060508666944853,0.3703360874364985
-0.08344067753995844,-1.993864894498618,0.37462965988496
-1.640533639998457,-2.041080516897487,0.3653110643441989
-0.1847896866636168,-1.747994029461694,0.4133462248997463
-1.543511018625168,-1.747994029461694,0.4133462248997463
-1.540600592842647,-1.811533045129238,0.4071035022740806
-0.1877001124461387,-1.811533045129238,0.4071035022740805
-0.06852884597525565,-1.750786971137084,0.4080697040640346
-1.656279593251524,-1.814325074932712,0.4018706869407479
-0.1907156648781972,-1.876112092828396,0.3989600350550812
-1.537585040410588,-1.876112092828396,0.3989600350550812
-1.534468405081027,-1.93967029480587,0.3893186037106704
-0.1938323002077584,-1.93967029480587,0.3893186037106705
-0.07564262905841324,-1.878902802823253,0.3937842575756858
-1.648913013415206,-1.940428409016283,0.3842103826197279
-0.2070202008339276,-1.069226323681395,0.4741617588414346
-1.521280504454857,-1.069226323681395,0.4741617588414346
-1.523065631202744,-1.17266010875727,0.4611899662931134
-0.2052350740860411,-1.172660108757269,0.4611899662931133
-0.09301605102721029,-1.072685177067188,0.4680730660382336
-1.639080662113019,-1.175831414728561,0.4554493479601883
-0.1968009165045344,-1.266024988075611,0.4538781129734679
-1.531499788784251,-1.266024988075611,0.453878112973468
-1.545798447326561,-1.334257485077169,0.4481703038271005
-0.1825022579622239,-1.334257485077169,0.4481703038271006
-0.07965485691712476,-1.268895498056484,0.4482922843319489
-1.664093325561573,-1.337052782877183,0.4426502767120035
-0.1736231587572913,-1.395622299931258,0.442828011621163
-1.554677546531494,-1.395622299931258,0.442828011621163
-1.555252155489675,-1.458001403515821,0.4373903395790742
-0.1730485497991097,-1.458001403515821,0.4373903395790742
-0.05481139580446712,-1.398417510978645,0.4373453120424412
-1.673861864555924,-1.460796431842626,0.4319456436970536
-0.1752642326082437,-1.518894037417436,0.432174021380519
-1.553036472680542,-1.518894037417437,0.4321740213805191
-1.550791011927967,-1.577163693565395,0.4273277030827331
-0.177509693360818,-1.577163693565395,0.4273277030827331
-0.05709980148189396,-1.52168880264465,0.4267657914813341
-1.668505426626236,-1.57995812919713,0.4219533615733949
-0.1797781028885174,-1.633038114231703,0.4228319431205023
-1.548522602400268,-1.633038114231703,0.4228319431205023
-1.546151426252241,-1.688641403939227,0.4183736785201919
-0.182149279036544,-1.688641403939227,0.4183736785201919
-0.06251718652729076,-1.635832165949373,0.417489046523966
-1.662939087028929,-1.691434984008026,0.4130619734558727
-0.2092767971228488,-2.204647107172826,0.3413926197691586
-1.519023908165937,-2.204647107172827,0.3413926197691586
-1.517729456301649,-2.230768878104946,0.3338982331812394
-0.2105712489871368,-2.230768878104946,0.3338982331812395
-0.09609078963352266,-2.174100125420087,0.3368537612799257
-1.630694693798851,-2.199602072976636,0.3296142293872234
-0.1170103393255994,1.991896625534853,0.485257191863625
-1.611290365963186,1.991896625534853,0.4852571918636249
-0.1578529861645598,1.98281369985378,0.4987445979982965
-1.570447719124226,1.98281369985378,0.4987445979982965
-0.1768370923793397,1.858564668148997,0.499116095139357
-1.551463612909446,1.858564668148997,0.4991160951393571
-0.1295355280291656,1.734604209568066,0.4972565101557629
-1.59876517725962,1.734604209568066,0.4972565101557629
-0.2002711947647583,1.73384913448453,0.5118282879224327
-1.528029510524027,1.73384913448453,0.5118282879224326
-0.2042271748108916,1.635315052549232,0.5371472075731854
-1.524073530477894,1.635315052549232,0.5371472075731854
-0.1174412355964531,1.546605041594466,0.5455486781398971
-1.610859469692332,1.546605041594466,0.5455486781398971
-0.2011679097387984,1.557765403150426,0.5637777198638007
-1.527132795549987,1.557765403150426,0.5637777198638008
-0.1983824521940791,1.493498424799843,0.5871059819290726
-1.529918253094706,1.493498424799843,0.5871059819290725
-0.1110575452749216,1.414378283214642,0.5859649192751938
-1.617243160013864,1.414378283214642,0.5859649192751937
-0.1979860302468755,1.432307613713624,0.6091994422664026
-1.53031467504191,1.432307613713625,0.6091994422664026
-0.2000598406338237,1.370902464662622,0.6301939034324769
-1.528240864654962,1.370902464662622,0.6301939034324768
-0.1182715810840948,1.293100085131633,0.622720507502086
-1.610029124204691,1.293100085131633,0.6227205075020859
-0.2026510487580535,1.312908470972399,0.6482935220432666
-1.525649656530732,1.312908470972399,0.6482935220432666
-0.2051079248155898,1.259848265117878,0.6638519760246956
-1.523192780473195,1.259848265117878,0.6638519760246956
-0.1312530102452028,1.19372119972156,0.6501976726214305
-1.597047695043582,1.19372119972156,0.6501976726214305
-0.2080798437953527,1.211141618723348,0.679372464612641
-1.520220861493432,1.211141618723348,0.6793724646126411
-0.2117163510176559,1.164088254562519,0.6954369928869633
-1.51658435427113,1.164088254562519,0.6954369928869633
-0.1484498872452999,1.096663888035438,0.6782671776065625
-1.579850818043485,1.096663888035438,0.6782671776065625
-0.215667162134207,1.113867846558527,0.7107063717715056
-1.512633543154578,1.113867846558527,0.7107063717715056
-0.2203497287120607,1.051687329842604,0.7247493265274754
-1.507950976576725,1.051687329842604,0.7247493265274754
-0.1676093258481225,0.9474870719604621,0.7030847259881109
-1.560691379440663,0.9474870719604621,0.7030847259881109
-0.2269492382336189,0.9647809007540769,0.7380424967534424
-1.501351467055166,0.9647809007540767,0.7380424967534423
-0.233269934773978,0.8530898125054284,0.7506048140142576
-1.495030770514807,0.8530898125054283,0.7506048140142575
-0.1737029363338983,0.09146166324438303,0.7439092077229528
-1.554597768954887,0.09146166324438303,0.7439092077229529
-0.2250264683228918,0.1090780018588713,0.782418875454811
-1.503274236965894,0.1090780018588713,0.782418875454811
-0.2220533281160149,-0.01413394446746977,0.7754604611556386
-1.506247377172771,-0.01413394446746983,0.7754604611556386
0.02709283251599699,-0.9423659454798969,0.4748967269229788
-1.755393537804782,-0.9423659454798968,0.4748967269229788
-0.01829314579516259,-0.9497958365798748,0.4970462734989706
-1.710007559493623,-0.9497958365798749,0.4970462734989706
-0.0001254701100741329,-1.007567577438884,0.4713925111463569
-1.728175235178711,-1.007567577438884,0.4713925111463569
-0.05918645661086195,-0.6846614257363248,0.6150650680011647
-1.669114248677923,-0.6846614257363248,0.6150650680011647
-0.1070574954534767,-0.6586351968963562,0.6481298224411306
-1.621243209835309,-0.6586351968963562,0.6481298224411306
-0.09715096786756557,-0.7385388272004968,0.6147392672659297
-1.63114973742122,-0.7385388272004967,0.6147392672659297
0.05495753659419145,-2.082080316181635,0.3236698963009706
-1.783258241882977,-2.082080316181635,0.3236698963009706
0.007938581265421681,-2.075824485568352,0.3413980940620723
-1.736239286554207,-2.075824485568352,0.3413980940620723
0.008516654596979489,-2.122621961914678,0.3317134980490119
-1.736817359885765,-2.122621961914678,0.3317134980490119
0.05984868049998294,-2.015098883144463,0.3391957255146723
-1.788149385788769,-2.015098883144463,0.3391957255146723
0.01439996030558839,-1.997271458283169,0.3605204412131429
-1.742700665594374,-1.997271458283169,0.360520441213143
0.009473407053652572,-2.033314957889628,0.3513672469863108
-1.737774112342438,-2.033314957889628,0.3513672469863108
0.0780341597922032,-1.779007573892604,0.3709894566432568
-1.806334865080988,-1.779007573892603,0.3709894566432568
0.03127029685950782,-1.762034906491335,0.3937915260423034
-1.759571002148293,-1.762034906491335,0.3937915260423033
0.02733060416393637,-1.825569337930882,0.3876237035308234
-1.755631309452722,-1.825569337930882,0.3876237035308234
0.06946476448038844,-1.907562808120229,0.357454245503491
-1.797765469769174,-1.907562808120229,0.357454245503491
0.02323298308551623,-1.890141750593346,0.3795780681112738
-1.751533688374302,-1.890141750593346,0.3795780681112738
0.01898719571958598,-1.950096925403681,0.37005259817148
-1.747287901008372,-1.950096925403681,0.37005259817148
0.06893212066079502,-1.096453593911807,0.4259854426404049
-1.79723282594958,-1.096453593911807,0.4259854426404049
0.01146858975583385,-1.086614919899295,0.4519348557896299
-1.739769295044619,-1.086614919899295,0.4519348557896299
0.01858046509374708,-1.188603125956176,0.4404120072340043
-1.746881170382533,-1.188603125956176,0.4404120072340044
0.08945838076031838,-1.29714136124734,0.4084693413919148
-1.817759086049104,-1.29714136124734,0.4084693413919148
0.02836046916879718,-1.280455822062927,0.4337087026389289
-1.756661174457582,-1.280455822062927,0.433708702638929
0.04085123510458252,-1.348310206985783,0.4281992853045331
-1.769151940393368,-1.348310206985783,0.4281992853045331
0.09689123656862939,-1.426663923406981,0.3982802742302665
-1.825191941857415,-1.426663923406981,0.3982802742302665
0.04769888469201047,-1.409674585710838,0.422920717722194
-1.775999589980796,-1.409674585710837,0.422920717722194
0.04717185475851266,-1.472052770709361,0.4175479569141346
-1.775472560047298,-1.472052770709361,0.4175479569141346
0.0916907716850254,-1.549929842852697,0.3884176603879312
-1.819991476973811,-1.549929842852698,0.3884176603879312
0.04416089716804492,-1.532944081937808,0.4123939544334239
-1.772461602456831,-1.532944081937808,0.4123939544334238
0.04111573681679219,-1.591212081119702,0.4076055768889206
-1.769416442105578,-1.591212081119702,0.4076055768889205
0.08519989900827324,-1.664065074122645,0.3797698497834963
-1.813500604297059,-1.664065074122645,0.3797698497834963
0.03804507163316831,-1.64708457174564,0.4031636059452737
-1.766345776921954,-1.64708457174564,0.4031636059452737
0.03483925522099619,-1.702685490346079,0.3987587263717638
-1.763139960509782,-1.702685490346079,0.3987587263717639
0.05750197376430619,-2.20507018530151,0.2894619788695018
-1.785802679053092,-2.20507018530151,0.2894619788695018
0.003556304424206446,-2.201338637016517,0.3113931055483755
-1.731857009712992,-2.201338637016517,0.3113931055483755
-0.008264401658502073,-2.227761384733707,0.3045913172453845
-1.720036303630284,-2.227761384733708,0.3045913172453846
-0.03796659454312008,2.031388028081656,0.422118355483238
-1.690334110745665,2.031388028081656,0.4221183554832379
-0.05081039307311051,2.028259237192075,0.4393373895277452
-1.677490312215675,2.028259237192075,0.4393373895277453
-0.02675221861597125,1.921438229996124,0.4336605768534112
-1.701548486672814,1.921438229996124,0.4336605768534112
0.006138039422337074,1.794471785789883,0.4180004430189724
-1.734438744711122,1.794471785789883,0.4180004430189723
-0.01630038130374787,1.790580827238244,0.4395483094696902
-1.712000323985037,1.790580827238244,0.4395483094696902
-0.003433019140839278,1.655924286144241,0.4587839505473103
-1.724867686147946,1.655924286144241,0.4587839505473104
0.0383101505747028,1.548747543527112,0.4371353052663277
-1.766610855863488,1.548747543527113,0.4371353052663276
0.01146178705183709,1.547711950596292,0.4686401184705485
-1.739762492340622,1.547711950596292,0.4686401184705485
0.01592910746936889,1.472475668425891,0.4807838987983144
-1.744229812758154,1.472475668425891,0.4807838987983144
0.04431306481624416,1.410600347708213,0.4517126599081661
-1.77261377010503,1.410600347708213,0.4517126599081662
0.02774333103135771,1.410095393405187,0.4751143155291693
-1.756044036320143,1.410095393405187,0.4751143155291693
0.03088850532798237,1.34969022048168,0.476371597746607
-1.759189210616768,1.34969022048168,0.4763715977466069
0.04945228369046692,1.292004128867811,0.450767451571291
-1.777752988979253,1.292004128867811,0.4507674515712911
0.01789479071492612,1.291175407597796,0.4976596600433907
-1.746195496003711,1.291175407597796,0.4976596600433907
0.01473029523469658,1.236076152220601,0.5030113915439639
-1.743031000523482,1.236076152220601,0.503011391543964
0.0425233030592534,1.186453396713904,0.4594677388441568
-1.770824008348038,1.186453396713904,0.4594677388441569
0.01436322471372948,1.185766393484396,0.5051710675365585
-1.742663930002515,1.185766393484396,0.5051710675365586
0.01649496652641848,1.138233420658979,0.5053461680469658
-1.744795671815204,1.138233420658979,0.5053461680469658
0.04876640373185968,1.088430040968727,0.4591778102373066
-1.777067109020645,1.088430040968727,0.4591778102373066
0.01848357037610719,1.087867221162131,0.5063290143162436
-1.746784275664892,1.087867221162131,0.5063290143162437
0.01879442425763643,1.025502167801498,0.5071103007829074
-1.747095129546421,1.025502167801498,0.5071103007829073
0.04482737292744621,0.9387934437188523,0.4593651783287965
-1.773128078216232,0.9387934437188523,0.4593651783287964
0.01363683750445159,0.9383418399051546,0.5079602246956476
-1.741937542793237,0.9383418399051545,0.5079602246956475
0.007023216774247426,0.8263712858004646,0.508734799850167
-1.735323922063033,0.8263712858004644,0.508734799850167
0.05029176175725827,0.081203710633729,0.4584381752850609
-1.778592467046044,0.08120371063372903,0.4584381752850609
0.01868916452344568,0.08112768565288271,0.5085603451108933
-1.746989869812231,0.08112768565288271,0.5085603451108933
0.02112107994502554,-0.04548144034849912,0.5072625854796116
-1.749421785233811,-0.04548144034849911,0.5072625854796116
0.05956183140479776,-0.8590928306036605,0.4311386716518428
-1.787862536693583,-0.8590928306036607,0.4311386716518428
0.03523702967008267,-0.8148157199160221,0.4596279442556831
-1.763537734958868,-0.8148157199160221,0.459627944255683
0.03692734696955738,-0.8836372728073205,0.4623154232033768
-1.765228052258343,-0.8836372728073205,0.4623154232033768
0.09540364304759419,-2.058716031157362,0.298520599184487
-1.82370434833638,-2.058716031157361,0.298520599184487
0.08182961621607426,-2.03787743696863,0.3189145783276249
-1.81013032150486,-2.037877436968629,0.318914578327625
0.07347464680837394,-2.07447493334922,0.3157029549778322
-1.801775352097159,-2.074474933349219,0.3157029549778322
0.1176471261979028,-1.793248646826392,0.3151455889749837
-1.845947831486689,-1.793248646826392,0.3151455889749837
0.1017697414584989,-1.790378822142068,0.344905959345596
-1.830070446747284,-1.790378822142068,0.344905959345596
0.09739057081773336,-1.854363857738896,0.3404469873632898
-1.825691276106519,-1.854363857738896,0.3404469873632898
0.1080150794866593,-1.926411993876974,0.3085090848534809
-1.836315784775445,-1.926411993876974,0.3085090848534809
0.09268916686007632,-1.920772778320909,0.3340389523055919
-1.820989872148862,-1.920772778320909,0.3340389523055918
0.08759435888757436,-1.984564374667937,0.3262087520281529
-1.81589506417636,-1.984564374667938,0.3262087520281529
0.01378448769187992,2.01546993959071,0.3383035485895634
-1.742085192980665,2.01546993959071,0.3383035485895633
-0.01666574235686674,2.026978095172531,0.3901494922313404
-1.711634962931919,2.02697809517253,0.3901494922313404
0.01734061954918516,1.92388303856486,0.3833814415125045
-1.745641324837971,1.92388303856486,0.3833814415125045
0.07052213567151244,1.793866625365864,0.3348564727447354
-1.798822840960298,1.793866625365864,0.3348564727447354
0.03581290437532603,1.794599322692422,0.3842385550137473
-1.764113609664111,1.794599322692422,0.3842385550137473
0.05472639404858445,1.658408192551577,0.3916500188959001
-1.78302709933737,1.658408192551577,0.3916500188959001
0.1031182580308837,1.549696198108889,0.3425890665763739
-1.831418963319669,1.549696198108889,0.3425890665763738
0.06707899126011087,1.549337859909864,0.3995019637971922
-1.795379696548896,1.549337859909864,0.3995019637971921
0.07160081991756091,1.473919761016502,0.4054598746167135
-1.799901525206346,1.473919761016503,0.4054598746167135
0.1133050206539803,1.411579420478254,0.3462849164306369
-1.841605725942766,1.411579420478254,0.3462849164306369
0.07467452512473348,1.411217910160026,0.4084187292217698
-1.802975230413519,1.411217910160026,0.4084187292217699
0.07800242743549263,1.350757525474051,0.4086303087240302
-1.806303132724278,1.35075752547405,0.4086303087240301
0.117435628357778,1.292849738488424,0.3450820758035581
-1.845736333646563,1.292849738488424,0.3450820758035581
0.07951373059999942,1.292537725739542,0.4066021603192758
-1.807814435888785,1.292537725739542,0.4066021603192758
0.07939489124816997,1.237392350403436,0.4035950493982939
-1.807695596536955,1.237392350403436,0.4035950493982939
0.1157833398461499,1.187240448949861,0.3420749742358614
-1.844084045134935,1.187240448949861,0.3420749742358614
0.079115825492676,1.186979845592737,0.4031132866378393
-1.807416530781461,1.186979845592737,0.4031132866378392
0.08041508316219387,1.139347832927498,0.4041572066066438
-1.808715788450979,1.139347832927498,0.4041572066066438
0.1209601134483252,1.089148888675892,0.3417742640790917
-1.84926081873711,1.089148888675892,0.3417742640790917
0.08335800341989914,1.088911824804422,0.4041960527238909
-1.811658708708684,1.088911824804422,0.4041960527238909
0.08436767091768289,1.026459059000572,0.4042131903519148
-1.812668376206468,1.026459059000572,0.4042131903519148
0.1165204508476279,0.9393698356714859,0.3417742640790917
-1.844821156136413,0.9393698356714859,0.3417742640790917
0.07914055357465638,0.9391798973756768,0.4042428947467633
-1.807441258863442,0.9391798973756766,0.4042428947467634
0.07212974655509692,0.8270798561493469,0.4042654280607664
-1.800430451843882,0.8270798561493469,0.4042654280607664
0.121464058065307,0.08130064685556307,0.3417742640790917
-1.849764763354093,0.08130064685556306,0.3417742640790917
0.08414177279368626,0.08126873794240429,0.4040111439858294
-1.812442478082472,0.08126873794240429,0.4040111439858294
0.08636032041908789,-0.04725454327804982,0.4036438953576282
-1.814661025707873,-0.04725454327804981,0.4036438953576282
0.1290153278784253,-0.9062822021286449,0.3360530279726651
-1.857316033167211,-0.9062822021286447,0.336053027972665
0.09211568158411795,-0.8946592989725843,0.392325835730501
-1.820416386872904,-0.8946592989725843,0.392325835730501
0.09703651256199974,-0.9807773875246981,0.3922906863859591
-1.825337217850785,-0.9807773875246981,0.3922906863859591
0.1396666602282453,-1.091695905742946,0.3351573812324222
-1.867967365517031,-1.091695905742946,0.3351573812324222
0.1064278752071118,-1.094709312334507,0.3876713028095664
-1.834728580495897,-1.094709312334507,0.3876713028095664
0.1177488262895911,-1.212044888536975,0.379208747417596
-1.846049531578377,-1.212044888536975,0.379208747417596
0.1447826281350461,-1.310214109259057,0.328033297827882
-1.873083333423831,-1.310214109259057,0.328033297827882
0.1240855398838986,-1.307852183100988,0.372796647883008
-1.852386245172684,-1.307852183100988,0.3727966478830081
0.1246258289330702,-1.376694094816085,0.3685582031131167
-1.852926534221856,-1.376694094816086,0.3685582031131167
0.1394358362121591,-1.440945329980235,0.3242489333952652
-1.867736541500945,-1.440945329980235,0.3242489333952652
0.1224478112749992,-1.438055928643065,0.3649294739354483
-1.850748516563785,-1.438055928643065,0.3649294739354483
0.119380984077344,-1.500430185610122,0.3612360567190812
-1.847681689366129,-1.500430185610122,0.3612360567190812
0.1324355142283462,-1.564200311763551,0.3209590160250558
-1.860736219517132,-1.564200311763551,0.3209590160250557
0.1160062238375279,-1.561316562812848,0.3576930833746462
-1.844306929126313,-1.561316562812849,0.3576930833746462
0.1126174705334873,-1.619578903861648,0.3544015083346827
-1.840918175822273,-1.619578903861648,0.3544015083346827
0.125368601577048,-1.678322689565279,0.3180743830874805
-1.853669306865834,-1.678322689565279,0.3180743830874806
0.1092217276236711,-1.675445198881736,0.3513481085536389
-1.837522432912457,-1.675445198881736,0.3513481085536389
0.1056924894941267,-1.731038880159414,0.3483202643378615
-1.833993194782912,-1.731038880159414,0.3483202643378615
0.0851374570138905,-2.227477082897688,0.2250164889881647
-1.813438162302676,-2.227477082897688,0.2250164889881647
0.08017234789629744,-2.217173537846655,0.2579320798572157
-1.808473053185083,-2.217173537846656,0.2579320798572157
0.06415520642248067,-2.257873600032012,0.2517018713114275
-1.792455911711266,-2.257873600032013,0.2517018713114275
0.1030714778136917,-2.076572013676486,0.2304062614311144
-1.831372183102478,-2.076572013676486,0.2304062614311144
0.1016901574930666,-2.071940140622776,0.2678086229959794
-1.829990862781852,-2.071940140622776,0.2678086229959794
0.09252089103741717,-2.131581803948544,0.268242795725069
-1.820821596326203,-2.131581803948543,0.268242795725069
0.1276041819400959,-1.793276617590385,0.2328129157495428
-1.855904887228882,-1.793276617590385,0.2328129157495428
0.1256067412719403,-1.793270597596682,0.2755430846965172
-1.853907446560726,-1.793270597596682,0.2755430846965171
0.1209066033995424,-1.858174394015067,0.2747186014353713
-1.849207308688328,-1.858174394015067,0.2747186014353712
0.1175442151979063,-1.928749421211523,0.2317153970967065
-1.845844920486692,-1.928749421211523,0.2317153970967064
0.1156342441980631,-1.928281622709656,0.2724597540276784
-1.843934949486848,-1.928281622709656,0.2724597540276784
0.1094499665100436,-2.0010856268391,0.2694164078163493
-1.837750671798829,-2.0010856268391,0.2694164078163493
0.04073864198150894,2.00811463492689,0.2326126428447882
-1.769039347270294,2.008114634926889,0.2326126428447881
0.03534242622044422,2.007674262518714,0.2800512391699139
-1.763643131509229,2.007674262518714,0.2800512391699139
0.07272198608377845,1.915347837239532,0.2793271488899911
-1.801022691372564,1.915347837239531,0.2793271488899911
0.099171116531108,1.793358305007565,0.2327794468479458
-1.827471821819893,1.793358305007565,0.2327794468479458
0.0934353166549492,1.79328536108781,0.2794584882933633
-1.821736021943734,1.793285361087809,0.2794584882933633
0.1136169609209968,1.65889352716626,0.2802402134621265
-1.841917666209782,1.65889352716626,0.2802402134621265
0.1337963217714751,1.549850010054554,0.2328129157495428
-1.86209702706026,1.549850010054554,0.2328129157495428
0.1276545830257205,1.549818768859359,0.2810317802167952
-1.855955288314506,1.549818768859359,0.2810317802167952
0.1349252706882983,1.474405121100652,0.2815303820622321
-1.863225975977084,1.474405121100652,0.281530382062232
0.1464258357463711,1.411723444608034,0.2328129157495428
-1.874726541035156,1.411723444608033,0.2328129157495428
0.1397955352032863,1.411694220372751,0.2817709501876478
-1.868096240492072,1.411694220372751,0.2817709501876478
0.1433392254407125,1.351207979803726,0.2817709501876478
-1.871639930729498,1.351207979803726,0.2817709501876478
0.1498206368753728,1.292973762967594,0.2328129157495428
-1.878121342164158,1.292973762967594,0.2328129157495428
0.1433375278460765,1.292948589167106,0.281530382062232
-1.871638233134862,1.292948589167106,0.281530382062232
0.1407888117783054,1.23775876498877,0.2811695298741084
-1.869089517067091,1.23775876498877,0.2811695298741084
0.1459475051247811,1.187342482042755,0.2328129157495428
-1.874248210413567,1.187342482042755,0.2328129157495428
0.1399086295097535,1.187321750546955,0.2809289617486926
-1.868209334798539,1.187321750546955,0.2809289617486927
0.1419154840084794,1.139676903341382,0.2808688197173387
-1.870216189297265,1.139676903341382,0.2808688197173387
0.1510560552832266,1.089237753236457,0.2328129157495428
-1.879356760572012,1.089237753236457,0.2328129157495428
0.1450308289382455,1.089219695093256,0.2808688197173387
-1.873331534227031,1.089219695093256,0.2808688197173388
0.146075888504274,1.026740867029314,0.2808688197173388
-1.874376593793059,1.026740867029314,0.2808688197173388
0.1464669142529292,0.9394408634109002,0.2328129157495429
-1.874767619541714,0.9394408634109002,0.2328129157495428
0.1404716574532465,0.939426429881822,0.2808688197173388
-1.868772362742032,0.939426429881822,0.2808688197173388
0.1329640383477769,0.8272879487363408,0.2808688197173388
-1.861264743636562,0.8272879487363408,0.2808688197173388
0.1515219601966813,0.08131253874386538,0.2328129157495428
-1.879822665485467,0.08131253874386538,0.2328129157495428
0.1455045187681214,0.08131012219598142,0.2808688197173388
-1.873805224056907,0.08131012219598144,0.2808688197173388
0.1478016572204016,-0.04750676162608239,0.2805649223065123
-1.876102362509187,-0.04750676162608238,0.2805649223065124
0.1586752176025181,-0.9049819350837089,0.2277534793775082
-1.886975922891303,-0.9049819350837088,0.2277534793775082
0.1527372730997813,-0.9052418449543322,0.2759870084176608
-1.881037978388567,-0.9052418449543322,0.2759870084176608
0.1567217927083387,-0.9830257161161689,0.2776257309002579
-1.885022497997124,-0.9830257161161687,0.2776257309002579
0.1645647503030473,-1.088527391810553,0.2319880772096089
-1.892865455591833,-1.088527391810553,0.2319880772096088
0.1595791030864407,-1.089160908926132,0.2789361090896952
-1.887879808375226,-1.089160908926132,0.2789361090896952
0.158224546928318,-1.209788395627496,0.278869785307229
-1.886525252217104,-1.209788395627496,0.278869785307229
0.1570207088868149,-1.309626023888041,0.2328129157495428
-1.8853214141756,-1.30962602388804,0.2328129157495428
0.1545670536745312,-1.309743385510944,0.2781206264670968
-1.882867758963317,-1.309743385510945,0.2781206264670968
0.1512763804495234,-1.379620248862944,0.2776937044449853
-1.879577085738309,-1.379620248862944,0.2776937044449853
0.1500483006650314,-1.440987407157919,0.2328129157495428
-1.878349005953817,-1.440987407157919,0.2328129157495428
0.1479197708000992,-1.440978690767033,0.2773637535805735
-1.876220476088885,-1.440978690767033,0.2773637535805735
0.1443530617561488,-1.503348638720994,0.2770279216981336
-1.872653767044934,-1.503348638720994,0.2770279216981336
0.1427995195439549,-1.564238156143891,0.2328129157495428
-1.87110022483274,-1.564238156143891,0.2328129157495428
0.1407206838306482,-1.564230242636856,0.2767057701065316
-1.869021389119434,-1.564230242636856,0.2767057701065315
0.1370970510182355,-1.622487641900783,0.2764064782121756
-1.865397756307021,-1.622487641900783,0.2764064782121756
0.1355235908787221,-1.678356015907484,0.2328129157495428
-1.863824296167508,-1.678356015907484,0.2328129157495428
0.1334865607952109,-1.678348965373072,0.2761288435190166
-1.861787266083996,-1.678348965373072,0.2761288435190165
0.1297504392877573,-1.733937281356572,0.27585353331989
-1.858051144576543,-1.733937281356572,0.2758535333198901
0.08432037002870105,-2.235924701306097,0.1910821336746955
-1.812621075317486,-2.235924701306098,0.1910821336746955
0.08457546948156669,-2.233299248429485,0.204989996095381
-1.812876174770352,-2.233299248429485,0.204989996095381
0.06771336410939839,-2.284877433679657,0.2044570409760019
-1.796014069398184,-2.284877433679656,0.2044570409760018
0.1028624786068031,-2.078083880706678,0.1910821336746955
-1.831163183895589,-2.078083880706678,0.1910821336746955
0.1029134718102113,-2.077672714672938,0.206067950583971
-1.831214177098997,-2.077672714672938,0.206067950583971
0.09483341044678595,-2.139568431353143,0.2059637208529903
-1.823134115735571,-2.139568431353143,0.2059637208529903
0.1276020279061883,-1.793413320819727,0.1910821336746955
-1.855902733194974,-1.793413320819728,0.1910821336746955
0.1276102114598129,-1.793277043431289,0.2065492814476567
-1.855910916748599,-1.793277043431289,0.2065492814476567
0.122879043294255,-1.858272786482961,0.2065053807015432
-1.851179748583041,-1.858272786482961,0.2065053807015432
0.1175389315599648,-1.92888590876782,0.1910821336746955
-1.84583963684875,-1.92888590876782,0.1910821336746955
0.1175483590555001,-1.928749734246481,0.2063297777170894
-1.845849064344286,-1.928749734246481,0.2063297777170894
0.1111766710743423,-2.002976626825208,0.2061018093060119
-1.839477376363128,-2.002976626825208,0.2061018093060119
0.04061273350529022,2.011715408556915,0.1908786645523377
-1.768913438794076,2.011715408556915,0.1908786645523377
0.04074402688464786,2.010026068267829,0.2063122276686175
-1.769044732173433,2.010026068267829,0.2063122276686174
0.07834434376347821,1.916438983321336,0.2063819271188044
-1.806645049052263,1.916438983321336,0.2063819271188044
0.09917802383932527,1.79356342568172,0.1910536830214037
-1.827478729128111,1.79356342568172,0.1910536830214037
0.09917712023534769,1.79353291299898,0.2065158105818862
-1.827477825524133,1.79353291299898,0.2065158105818862
0.1195169607562719,1.658927510888051,0.2065492814476566
-1.847817666045057,1.658927510888051,0.2065492814476567
0.1338156811682215,1.549714609367478,0.1910821336746955
-1.862116386457007,1.549714609367479,0.1910821336746955
0.1338024477691113,1.549850488860616,0.2065492814476567
-1.862103153057897,1.549850488860616,0.2065492814476567
0.1413656201625262,1.474435845083315,0.2065492814476567
-1.869666325451312,1.474435845083315,0.2065492814476567
0.1464442530935896,1.411587885843831,0.1910821336746955
-1.874744958382375,1.411587885843831,0.1910821336746955
0.1464319732709777,1.41172386401736,0.2065492814476567
-1.874732678559763,1.41172386401736,0.2065492814476567
0.1499971106749898,1.351235850925546,0.2065492814476567
-1.878297815963775,1.351235850925546,0.2065492814476567
0.1498381295742309,1.292838075806421,0.1910821336746955
-1.878138834863016,1.292838075806421,0.1910821336746955
0.1498267442011501,1.292974131872248,0.2065492814476566
-1.878127449489935,1.292974131872248,0.2065492814476567
0.1470088258276096,1.237781818278096,0.2065492814476566
-1.875309531116395,1.237781818278096,0.2065492814476567
0.1459640744469452,1.187206686551369,0.1910821336746955
-1.87426477973573,1.187206686551369,0.1910821336746955
0.1459535476840825,1.187342806919976,0.2065492814476567
-1.874254252972868,1.187342806919976,0.2065492814476567
0.1479291844313435,1.139696546664407,0.2065492814476567
-1.876229889720129,1.139696546664407,0.2065492814476567
0.1510719293044135,1.089101863398098,0.1910821336746955
-1.879372634593199,1.089101863398098,0.1910821336746955
0.1510620932612275,1.089238038467545,0.2065492814476567
-1.879362798550013,1.089238038467545,0.2065492814476567
0.1521121758526389,1.026757645149053,0.2065492814476567
-1.880412881141424,1.026757645149053,0.2065492814476567
0.1464815772549594,0.9393048431254765,0.1910821336746955
-1.874782282543745,0.9393048431254765,0.1910821336746955
0.1464728783715516,0.9394410913920956,0.2065492814476567
-1.874773583660337,0.9394410913920956,0.2065492814476567
0.13891875863323,0.8273003036511371,0.2065492814476567
-1.867219463922015,0.8273003036511368,0.2065492814476567
0.1515305779331513,0.08117619544752826,0.1910821336746955
-1.879831283221936,0.08117619544752827,0.1910821336746955
0.1515278211989664,0.08131257691408883,0.2065492814476567
-1.879828526487751,0.08131257691408884,0.2065492814476567
0.1538375384633254,-0.04750588516256102,0.2061919253114527
-1.882138243752111,-0.04750588516256103,0.2061919253114527
0.1586782062794844,-0.905118566439838,0.1855301562805208
-1.88697891156827,-0.9051185664398381,0.1855301562805208
0.1586811841604363,-0.9049820786220726,0.201179860056387
-1.886981889449222,-0.9049820786220726,0.2011798600563871
0.162451984949903,-0.9826837238630375,0.2034854678501561
-1.890752690238688,-0.9826837238630375,0.2034854678501562
0.1645666430466613,-1.088664073974289,0.1901769963054679
-1.892867348335447,-1.088664073974289,0.1901769963054679
0.1645707795046935,-1.088527577481453,0.2056739061340851
-1.892871484793479,-1.088527577481453,0.2056739061340851
0.161803751848534,-1.209165042968358,0.2065492814476567
-1.89010445713732,-1.209165042968358,0.2065492814476567
0.157021326742013,-1.309762733536025,0.1910821336746955
-1.885322032030798,-1.309762733536025,0.1910821336746955
0.1570267479487449,-1.309626279339339,0.2065492814476567
-1.88532745323753,-1.309626279339339,0.2065492814476567
0.1534369094570882,-1.379629545521861,0.2065492814476566
-1.881737614745874,-1.379629545521861,0.2065492814476566
0.1500481659642103,-1.441124123024886,0.1910821336746955
-1.878348871252995,-1.441124123024886,0.1910821336746955
0.1500543376393891,-1.440987708113268,0.2065492814476566
-1.878355042928174,-1.440987708113268,0.2065492814476567
0.1464619647824678,-1.503357296083453,0.2065492814476567
-1.874762670071253,-1.503357296083453,0.2065492814476567
0.1427986785236177,-1.564374872353792,0.1910821336746955
-1.871099383812403,-1.564374872353792,0.1910821336746955
0.1428055541941399,-1.564238500774857,0.2065492814476567
-1.871106259482925,-1.564238500774857,0.2065492814476567
0.1391600591916953,-1.622495488626394,0.2065492814476567
-1.867460764480481,-1.622495488626394,0.2065492814476567
0.1355220957211699,-1.678492727996479,0.1910821336746955
-1.863822801009955,-1.678492727996479,0.1910821336746955
0.1355296231018984,-1.678356401173454,0.2065492814476567
-1.863830328390684,-1.678356401173454,0.2065492814476567
0.1317743313500151,-1.733944275338544,0.2065492814476567
-1.860075036638801,-1.733944275338545,0.2065492814476567
0.04820039951326748,-2.185884828699829,-0.1993346302439636
-1.776501104802053,-2.185884828699829,-0.1993346302439636
0.04507405313040095,-2.217675842240914,-0.1993369513347896
-1.773374758419186,-2.217675842240914,-0.1993369513347896
0.02811826972738811,-2.222122759592157,-0.2354486727949899
-1.756418975016173,-2.222122759592157,-0.2354486727949899
0.08987246552358004,-2.179076450522039,0.1554771768847365
-1.818173170812365,-2.17907645052204,0.1554771768847365
0.0872103570178854,-2.205125430820861,0.1554771768847365
-1.815511062306671,-2.205125430820861,0.1554771768847365
0.08593330619016817,-2.208390800073207,0.08885957847914494
-1.814234011478954,-2.208390800073207,0.08885957847914494
0.06122488383138929,-2.079698908118995,-0.1992859722628087
-1.789525589120175,-2.079698908118995,-0.1992859722628088
0.0532884880793948,-2.143405499877468,-0.1993207036990081
-1.78158919336818,-2.143405499877468,-0.1993207036990081
0.03586985528605927,-2.144583190169051,-0.2354403834855973
-1.764170560574845,-2.144583190169051,-0.2354403834855973
0.1028165117966506,-2.078627843845186,0.1554771768847365
-1.831117217085436,-2.078627843845186,0.1554771768847365
0.0946974671964332,-2.140900727573603,0.1554771768847365
-1.822998172485219,-2.140900727573603,0.1554771768847365
0.09364613046369333,-2.142032026925239,0.08885957847914494
-1.821946835752479,-2.142032026925239,0.08885957847914493
0.04902900136366729,-1.929039717804863,-0.3060220529212366
-1.777329706652453,-1.929039717804863,-0.3060220529212366
0.02598590639473686,-1.994647748042818,-0.3049022240187839
-1.754286611683523,-1.994647748042819,-0.3049022240187839
-0.007357483880323442,-1.976616791201752,-0.3710836168649528
-1.720943221408462,-1.976616791201752,-0.3710836168649527
0.07524805896877218,-1.930514455568887,-0.1992040526983474
-1.803548764257557,-1.930514455568887,-0.1992040526983474
0.06918057488075219,-2.004785281575956,-0.1992350597789244
-1.797481280169538,-2.004785281575956,-0.1992350597789244
0.05119425584634304,-2.004131637153103,-0.2415920346667363
-1.779494961135129,-2.004131637153103,-0.2415920346667363
0.1174970777202301,-1.92943029381822,0.1554771768847365
-1.845797783009016,-1.92943029381822,0.1554771768847364
0.1111146102890652,-2.003711945777188,0.1554771768847365
-1.839415315577851,-2.003711945777188,0.1554771768847365
0.110095762913628,-2.004422428528897,0.08885957847914494
-1.838396468202414,-2.004422428528897,0.08885957847914493
0.05824914421712956,-1.794963619870515,-0.3185839446562168
-1.786549849505915,-1.794963619870515,-0.3185839446562168
0.0540435915888098,-1.859576462360848,-0.3128260225257272
-1.782344296877595,-1.859576462360848,-0.3128260225257272
0.02017635162869403,-1.857983945174855,-0.4172818722393393
-1.748477056917479,-1.857983945174855,-0.4172818722393392
0.08438139910254948,-1.795092762267685,-0.1991986850670767
-1.812682104391335,-1.795092762267685,-0.1991986850670767
0.08015126981610936,-1.860078037749125,-0.1991997585933308
-1.808451975104894,-1.860078037749125,-0.1991997585933308
0.06879067111090537,-1.860035465977597,-0.2388280449480029
-1.797091376399691,-1.860035465977597,-0.2388280449480029
0.1275632641719731,-1.793958004532579,0.1554771768847364
-1.855863969460758,-1.793958004532579,0.1554771768847365
0.1228301481963983,-1.858953568825041,0.1554771768847365
-1.851130853485184,-1.858953568825041,0.1554771768847364
0.1217738496827987,-1.859664499396766,0.08885957847914491
-1.850074554971584,-1.859664499396766,0.08885957847914491
0.06050676872446154,1.470956273246449,-0.3032289326932726
-1.788807474013247,1.470956273246449,-0.3032289326932726
0.03169433352413006,1.465619252626594,-0.3942822909595855
-1.759995038812916,1.465619252626594,-0.3942822909595856
0.01134454763902298,1.510076165682358,-0.3738504063292455
-1.739645252927809,1.510076165682358,-0.3738504063292456
0.073835073697274,1.349421056200765,-0.3176544963972148
-1.802135778986059,1.349421056200765,-0.3176544963972148
0.04176064404425043,1.349421056200765,-0.4331975371563624
-1.770061349333036,1.349421056200765,-0.4331975371563624
0.03596931204189975,1.408508977828999,-0.415549061640585
-1.764270017330685,1.408508977829,-0.4155490616405851
0.07525892011016709,1.235966215372653,-0.323907282380816
-1.803559625398953,1.235966215372653,-0.323907282380816
0.04120336369805634,1.235966215372652,-0.4530901037018461
-1.769504068986842,1.235966215372653,-0.4530901037018461
0.04373626676549666,1.291158913538539,-0.4459192594972123
-1.772036972054282,1.291158913538539,-0.4459192594972123
0.0665662218146095,1.137776864821514,-0.3232575887909485
-1.794866927103395,1.137776864821514,-0.3232575887909485
0.03720955167747929,1.137552129314536,-0.4510224735466987
-1.765510256966264,1.137552129314536,-0.4510224735466987
0.03810836459245068,1.185526866967117,-0.4547702778573919
-1.766409069881236,1.185526866967117,-0.4547702778573919
0.07594990906351226,1.026534542871762,-0.3162377453673729
-1.804250614352298,1.026534542871762,-0.316237745367373
0.04399151034709511,1.026301540177938,-0.427675009300164
-1.772292215635881,1.026301540177938,-0.4276750093001641
0.04007705966022015,1.085780619136106,-0.441911865848336
-1.768377764949005,1.085780619136106,-0.4419118658483361
0.05227713236281706,0.8676106548443345,-0.3084077235500544
-1.780577837651602,0.8676106548443346,-0.3084077235500545
0.01757253064268785,0.8967191400529178,-0.3853054432672782
-1.745873235931473,0.896719140052918,-0.3853054432672783
0.04194401264386991,0.9575546832110561,-0.4087198378993329
-1.770244717932655,0.9575546832110563,-0.4087198378993329
0.08168593223903953,-1.382395964625282,-0.3056748922860257
-1.809986637527825,-1.382395964625282,-0.3056748922860256
0.04666152414143582,-1.386339563863056,-0.3917257286672093
-1.774962229430221,-1.386339563863056,-0.3917257286672091
0.02868096918199153,-1.343377530595152,-0.3736557919104648
-1.756981674470777,-1.343377530595152,-0.3736557919104646
0.07559433561919035,-1.505174881961108,-0.3169791319993649
-1.803895040907976,-1.505174881961108,-0.3169791319993648
0.04104108692583947,-1.505174881961107,-0.431049724514841
-1.769341792214625,-1.505174881961108,-0.4310497245148409
0.04413643202412565,-1.443783996376456,-0.4123716800347754
-1.772437137312911,-1.443783996376456,-0.4123716800347753
0.06879296044435429,-1.624312352294053,-0.3237464114702204
-1.79709366573314,-1.624312352294053,-0.3237464114702204
0.03449100148860894,-1.624312352294053,-0.4525784975577701
-1.762791706777394,-1.624312352294053,-0.45257849755777
0.03776106469282038,-1.566055725881841,-0.4449393890552653
-1.766061769981606,-1.566055725881841,-0.4449393890552652
0.0619567639153949,-1.735734577363024,-0.3224736814644318
-1.79025746920418,-1.735734577363024,-0.3224736814644318
0.02789249603898453,-1.735678461397842,-0.448529469664596
-1.75619320132777,-1.735678461397842,-0.4485294696645958
0.03123459379404322,-1.680172904243703,-0.4538631708779404
-1.759535299082829,-1.680172904243704,-0.4538631708779403
0.07354346365904808,1.919316616124171,0.01318766114313349
-1.801844168947834,1.919316616124171,0.01318766114313351
0.0702475433020841,1.912905304516493,-0.05309270462158175
-1.798548248590869,1.912905304516493,-0.05309270462158175
0.03209849477606405,2.008626354097451,-0.04090721462916806
-1.760399200064849,2.00862635409745,-0.04090721462916805
0.1147599639232959,1.657175698414839,0.005752602113545228
-1.843060669212081,1.657175698414839,0.005752602113545252
0.1088401916775693,1.655877113547466,-0.06721886038696484
-1.837140896966355,1.655877113547466,-0.06721886038696484
0.09083846170257398,1.789396085669772,-0.06272672824792308
-1.819139166991359,1.789396085669772,-0.06272672824792308
0.1306186497689223,1.472682471124884,0.004722892829738238
-1.858919355057707,1.472682471124884,0.004722892829738234
0.1192173017058527,1.472622006105958,-0.06983829956877269
-1.847518006994638,1.472622006105958,-0.06983829956877269
0.1176319078003868,1.547789651364722,-0.0690762726438105
-1.845932613089172,1.547789651364722,-0.06907627264381049
0.1424719429606371,1.349481552638043,0.004722892829738276
-1.870772648249422,1.349481552638043,0.004722892829738238
0.133443882238074,1.349421056200765,-0.07013597342952346
-1.861744587526859,1.349421056200765,-0.07013597342952348
0.1242245820903031,1.409909528524872,-0.07007643865737331
-1.852525287379088,1.409909528524872,-0.07007643865737331
0.142096131367594,1.236026738350943,0.004722892829738251
-1.870396836656379,1.236026738350944,0.004722892829738236
0.1350271433177828,1.235966215372652,-0.07013597342952349
-1.863327848606568,1.235966215372653,-0.07013597342952349
0.1378272600215022,1.291158913538539,-0.07013597342952348
-1.866127965310287,1.291158913538539,-0.07013597342952349
0.1370890453647274,1.137940847744982,0.004722892829738215
-1.865389750653513,1.137940847744982,0.004722892829738225
0.1256199151304785,1.137880303769794,-0.07013597342952352
-1.853920620419264,1.137880303769794,-0.07013597342952352
0.1293963300089693,1.185526866967117,-0.07013597342952352
-1.857697035297755,1.185526866967117,-0.07013597342952352
0.1445301471536201,1.025001313564002,0.004722892829738229
-1.872830852442406,1.025001313564002,0.004722892829738231
0.1354752045759078,1.024940748156822,-0.0701359734295235
-1.863775909864693,1.024940748156821,-0.07013597342952349
0.1287152908710906,1.087421491412396,-0.07013597342952352
-1.857015996159876,1.087421491412396,-0.07013597342952352
0.1330960515841188,0.8255431350004414,0.004722892829738227
-1.861396756872904,0.8255431350004414,0.004722892829738267
0.1254056620483647,0.8254825413218375,-0.07013597342952346
-1.85370636733715,0.8254825413218375,-0.07013597342952345
0.1344677587463548,0.9376237448951551,-0.07013597342952346
-1.86276846403514,0.9376237448951551,-0.07013597342952346
0.1258774709687803,0.6221519893157348,0.004722892829738246
-1.854178176257565,0.6221519893157349,0.004722892829738253
0.1128186138354688,0.6220913857432249,-0.07013597342952345
-1.841119319124254,0.6220913857432249,-0.07013597342952346
0.1169651559279955,0.7108530605099435,-0.07013597342952346
-1.845265861216781,0.7108530605099435,-0.07013597342952346
0.1375697506063136,-0.3013036392871915,-0.002752731662899074
-1.865870455895099,-0.3013036392871915,-0.002752731662899065
0.1231144147456572,-0.3013642675658294,-0.07884598728895841
-1.851415120034443,-0.3013642675658294,-0.07884598728895841
0.1247560576328218,-0.1755203119409985,-0.07369285669915716
-1.853056762921607,-0.1755203119409985,-0.07369285669915715
0.1572845779221291,-1.210923442418522,0.004722892829738269
-1.885585283210915,-1.210923442418522,0.004722892829738265
0.1506039025540844,-1.210984074969336,-0.07013597342952345
-1.87890460784287,-1.210984074969336,-0.07013597342952346
0.1505792477058526,-1.090346958233993,-0.07194459305025931
-1.878879952994638,-1.090346958233993,-0.07194459305025933
0.1489398883904296,-1.381387203764214,0.004722892829738272
-1.877240593679215,-1.381387203764214,0.004722892829738269
0.1423121595159087,-1.381447810260038,-0.07013597342952345
-1.870612864804694,-1.381447810260038,-0.07013597342952345
0.1458695394336775,-1.311444880986977,-0.07013597342952345
-1.874170244722463,-1.311444880986978,-0.07013597342952344
0.141984761585168,-1.505114298456847,0.004722892829738271
-1.870285466873953,-1.505114298456847,0.004722892829738265
0.1354012089188869,-1.505174881961108,-0.07013597342952344
-1.863701914207672,-1.505174881961108,-0.07013597342952344
0.1389605199133656,-1.442805645655853,-0.07013597342952344
