-1.518936177255626,-0.109817055617488,1.035662365980472
-1.523270176313359,-0.05886826849662719,0.8186913876584195
-1.41749997706641,-0.05831740545062047,0.8208334150409777
-1.071915469135409,-0.1094817196940249,1.042783688335436
-1.071260192669278,-0.05846034009373387,0.8248779745655026
-0.9545197285805025,-0.0583974384901715,0.8230980752055247
-1.512829565418741,-0.06605751504983835,1.306591458083284
-1.51562673122317,-0.05123710168280737,1.235579489677068
-1.411915516680517,-0.05089468623505371,1.238268967216441
-1.072838754759423,-0.06588869581524409,1.314285749615461
-1.072415838902942,-0.050983534144104,1.243356384737635
-0.9579479131249784,-0.0509444346239968,1.241117552267745
-1.507947180878063,-0.2115354915888935,1.253771830369455
-1.510130633781222,-0.1272564169296153,1.299275955085264
-1.407899953269072,-0.127131128287314,1.301760134795924
-1.073576944049597,-0.2115087867545873,1.260366603191776
-1.073246818158184,-0.1271636374336248,1.306505657081355
-0.9604129843177478,-0.1271493310528283,1.304417283297416
-1.508725417794919,-0.3886676413171346,1.146388367168092
-1.507527741905278,-0.2993199863501492,1.199779099422612
-1.405998226181553,-0.2993720847410498,1.201758664311187
-1.073477431482034,-0.3882450943341171,1.154340380063713
-1.073640360881068,-0.2993585665626349,1.205635705947204
-0.9615804151810194,-0.2993645155410002,1.203929526600675
-1.510420818642412,-0.6001650521996084,1.021388027269593
-1.509997875215078,-0.4952686893748766,1.082080827965858
-1.407134918955445,-0.4929110986992452,1.089209740570101
-1.072924740892302,-0.5993819557257774,1.052493388536065
-1.073357653063963,-0.4927981822372302,1.100768336972972
-0.9606064686223659,-0.4923833983960488,1.095958909110431
-1.386927183415688,-0.6657237777143938,1.015672191716873
-1.460818295268399,-0.6710373142152399,1.008587183849432
-1.492968394154455,-0.6517731000491247,1.000957183559755
-0.962981566448933,-0.670361194008373,1.020969198527711
-1.046231111517173,-0.6829935433066512,1.024438360592555
-1.064089485680015,-0.6590475171293954,1.02919838126267
-1.218367172240658,-0.7187215058348994,1.019338868783257
-1.210898652025811,-0.7854340009602595,1.009380139211721
-1.290386877613719,-0.7845028370113012,1.005947232659995
-1.050353001336213,-0.7854340009602596,1.009380139211721
-1.042884481121368,-0.7187215058348992,1.019338868783257
-0.9660015501838611,-0.7126527683726949,1.016646658945697
-1.208147144117553,-0.9036262017684219,0.9961882423049843
-1.205752680362873,-1.059804807382658,0.9849231956157444
-1.278862741697723,-1.057516007262118,0.981964779112261
-1.055498972999151,-1.059804807382658,0.9849231956157445
-1.053104509244471,-0.9036262017684219,0.9961882423049843
-0.9772945530949768,-0.9015778443397248,0.9930916220521482
-1.204111085456254,-1.181465995270552,0.9784428143396506
-1.203025264236808,-1.243945311685804,0.9755673881235326
-1.27348112736585,-1.243212730450734,0.9726249133478057
-1.058226389125216,-1.243945311685804,0.9755673881235325
-1.05714056790577,-1.181465995270552,0.9784428143396508
-0.9856280326007993,-1.179821698894457,0.9754973312033719
-1.395465552381416,-1.345867056690088,0.9585819423149169
-1.399680698379118,-1.292082847947813,0.962143540188381
-1.335354116444414,-1.292182753971006,0.9672540298521144
-1.060321510763238,-1.345867056689995,0.9693586103741743
-1.059192068217047,-1.292463693383093,0.9729202082476186
-0.9896759603708732,-1.292317177136114,0.9699777334718913
-1.383427428423421,-1.455722140263821,0.9510836721093735
-1.390047557575929,-1.400902987534578,0.9548805507512026
-1.327956466313196,-1.400902987534552,0.959991040414945
-1.063547109445205,-1.455722140263722,0.9618603401686338
-1.061773254985549,-1.400902987534493,0.9656572188104688
-0.9947690415381599,-1.400902987534525,0.9627147440347315
-1.368557494256684,-1.563590928816927,0.9409741571651799
-1.376198267811646,-1.509878237644068,0.9465052953064027
-1.317321077260427,-1.509878237644036,0.9516157849701432
-1.067530460467185,-1.563590928816838,0.9517508252244487
-1.065484153042897,-1.509878237643966,0.9572819633656629
-1.002091218003744,-1.509878237644003,0.9543394885899277
-1.351118090974322,-1.674457226651146,0.9277728565475848
-1.360306841902935,-1.617745789299369,0.9348337424145126
-1.305132176312517,-1.61774578929934,0.9399442320782561
-1.072194284304536,-1.674457226651029,0.9385495246068453
-1.069737102194489,-1.617745789299276,0.9456104104737824
-1.010482945209895,-1.61774578929931,0.9426679356980436
-1.32931700860821,-1.804780422726356,0.9078359701323974
-1.340533067774282,-1.737068480474792,0.9188256258219566
-1.289958930343151,-1.737068480474749,0.9239361154856949
-1.078042086446017,-1.804780422726209,0.9186126381916493
-1.075031348480358,-1.737068480474654,0.9296022938812097
-1.020929312897261,-1.737068480474704,0.9266598191054769
-1.923390730441782,1.856774244294794,1.193189889811816
-1.845566775845525,1.858902744615619,1.189919233187977
-1.849675381012917,1.888985911437698,1.196316826922514
-1.97513702276207,1.848450366062491,1.222855987553187
-2.004931620754275,1.849961195956244,1.214941213472525
-2.008363029209875,1.880726142885481,1.222397672861124
-1.656322696880571,1.849441177444553,1.234300396185949
-1.741366097378161,1.847252104885429,1.233449330443968
-1.741498851062826,1.878164041254466,1.241244769503056
-1.309374937256291,-1.936738205348726,0.8830562239608333
-1.318870576409709,-1.873229446492337,0.895723066677377
-1.273298563098363,-1.873229446492289,0.900833556341115
-0.3450670778634049,1.847256036325502,1.228585793138649
-0.427091352581774,1.846610717504711,1.231812790729879
-0.4261837193623441,1.877346132194015,1.23954859487996
-0.2827340087625839,1.854550276619881,1.19869708952257
-0.2553506593426281,1.852059530476903,1.206400007468406
-0.2517062469841937,1.882781624320593,1.213691935262426
-0.5962589631059312,1.865466611678938,1.185588643985706
-0.506915142045118,1.861937099676025,1.187620101547682
-0.5009689056305577,1.892286617915807,1.192171930321973
-1.083389372138174,-1.936738205348564,0.8938328920200848
-1.080844480857241,-1.873229446492184,0.9064997347366292
-1.032399523186936,-1.87322944649224,0.9035572599608968
-1.351933412250559,1.884828856176455,1.189788172438115
-1.210466484450405,1.887181989631003,1.192352767440634
-1.206776324935313,1.917519605742249,1.19638457567879
-1.282215873876846,-2.08460289361295,0.8410778638442122
-1.298760844002427,-2.000965218315719,0.8671544665014866
-1.257853975086044,-2.000965218315661,0.8722649561652232
-0.9049755994802797,1.86681147075687,1.238084832599071
-1.047478079070547,1.868970442742783,1.238555216965481
-1.047513473388008,1.899952268206613,1.246379803358173
-1.090469484974975,-2.08454345698431,0.8519648220919736
-1.086233403760493,-2.000965218315536,0.8779311345607338
-1.043032702500202,-2.000965218315603,0.8749886597850032
-1.354724444336745,2.071298467423412,1.294258614022017
-1.213198195370106,2.073552195424059,1.294763669115081
-1.213233589687567,2.05149144338418,1.28964686689591
-1.219072727508638,-2.293429302247398,0.7393328362998389
-1.253173676193861,-2.192535332131761,0.7956494271091374
-1.224045799338627,-2.189928967055247,0.8025143012335184
-0.9109009264832242,2.076821193418885,1.243375213297222
-1.051357318559129,2.078630643408097,1.245751871094328
-1.054984714073507,2.057917416286256,1.237346901005938
-1.450088378695724,1.863325758207308,1.237325385649407
-1.506513178355061,1.859691065608358,1.236533482392306
-1.506360724364199,1.89064831016755,1.244349004732287
-1.91306442790551,2.05030972419292,1.284312053237763
-1.831050473028122,2.050048215226021,1.287623845087858
-1.83234070709239,2.028176624326563,1.282530886398409
-1.975397497006331,2.056298334078806,1.254141074670051
-2.002780846426287,2.055102289785059,1.262123904832616
-2.006809129275402,2.033389033023094,1.256624404616801
-1.661949578700569,2.058932666851068,1.239370914346671
-1.751246559211855,2.057291700050976,1.241710754411671
-1.757539150491927,2.035568435456511,1.233604453894996
-1.103054938350892,-2.292706564093025,0.7526939814614722
-1.097068577690727,-2.192119275732562,0.8071981264880263
-1.065231297620992,-2.189928967055145,0.8053488228788079
-0.3409810705133346,2.056901438847686,1.248283447307315
-0.4187989860119794,2.057087746488593,1.244598676444206
-0.4143140134789404,2.035810855092088,1.238448300897052
-0.2892347781930461,2.051573768520859,1.278597319821776
-0.2594401802008415,2.053398835298939,1.270750483191673
-0.2556249012545605,2.031605415251302,1.265388918651706
-0.6079131085722092,2.053269329097959,1.290218015536523
-0.5229541043720505,2.050992246913471,1.289333076986515
-0.5224438284259196,2.028999145721182,1.284234425906976
-1.596229186095318,1.869129776995531,1.184129077301813
-1.548518192488953,1.872628206410353,1.183765984805345
-1.547535972944674,1.899066193981937,1.175362107929206
-1.168661215223235,-2.359635910172744,0.7025294804950537
-1.152661173534299,-2.353505186203977,0.7130105835333747
-1.145845148814373,-2.389449766214326,0.6799631207591663
-1.590617400841886,2.056660577133367,1.290978176156785
-1.545582366028401,2.060335825065803,1.29180187247135
-1.545758385189404,2.038307766442578,1.286697257364881
-0.6677723030718656,1.852750350743931,1.235021316985161
-0.712958240522913,1.856297185115905,1.235794053708164
-0.7131157603495475,1.887247154738751,1.243606634070511
-1.446305587414296,2.073830411142891,1.240646930918443
-1.503175678735045,2.070457089911327,1.238887037992484
-1.504070382361556,2.05311842485319,1.220467388275839
-1.076469478149581,-2.360007017252939,0.6957020557780302
-1.059270216409159,-2.354976622412342,0.691932122656002
-1.053832110514333,-2.39116940599137,0.6466262494773643
-0.8133334536485843,2.067659768993597,1.293443190344636
-0.7572468783861956,2.063868173690565,1.292593494954833
-0.7570907245284598,2.041832170070458,1.287485793004844
-0.8126799218514479,1.880600108915234,1.186655361412251
-0.755433478426178,1.8762346637379,1.184580738706351
-0.7545567330069467,1.902658984086022,1.176196174090587
-0.6679899763401584,2.062542130416998,1.23808072365358
-0.7155806636258824,2.066773201396254,1.23802886656872
-0.7165217797198482,2.049324944243969,1.219562312077263
-1.735856260464159,2.096780494368616,1.288616706146505
-1.736502270764876,2.103448164464322,1.281889134519677
-1.652878115992852,2.106360404917452,1.282610615688453
-1.741214111708529,1.911049763778351,1.249846348051674
-1.740663767737555,1.94379811780884,1.259269953201784
-1.655334969633005,1.946023649422573,1.260139881192459
-1.741135372111091,1.789613693600515,1.184425853902971
-1.740342185634101,1.779411888820268,1.190389351148815
-1.656360740838013,1.780837640264422,1.190628159670254
-1.766548568690909,2.011184683232247,1.224711429737691
-1.775868184545838,1.983554952365989,1.214948007871537
-1.700959069987106,1.983858175788013,1.199968792964227
-0.5221321276891627,1.783351115940276,1.208267314242387
-0.5214861239850892,1.777280184689737,1.198785678700932
-0.6052000412684261,1.778641403921983,1.19915604266429
-1.048071713521883,2.119928488854836,1.294011295640537
-1.048072714460614,2.126676158518182,1.28716743566056
-0.9065797157659806,2.124429962627626,1.286663561025008
-0.5219550487471952,2.003750550465478,1.277283980570497
-0.5212902257393883,1.975287089513246,1.268786761615553
-0.6065997069234471,1.97752611775581,1.269663005394035
-1.047473971567664,1.811354877276842,1.188951807313006
-1.047464855730747,1.800507539713734,1.194909325444353
-0.9049428479096513,1.798272714364094,1.194422993567652
-0.5233794537271455,2.101308854168865,1.264400327329069
-0.5241726999533923,2.10508463337502,1.273385742643019
-0.6080643390799611,2.108006627907726,1.273963833027471
-1.047585994086815,1.932918138478307,1.255016702013733
-1.047699921158687,1.96582791326719,1.26450347122664
-0.9055738353360942,1.963632407318367,1.264019719275648
-1.447818619114157,2.122372212445892,1.277186533086388
-1.503882051711561,2.118557075537935,1.276331004006745
-1.50382717034495,2.11449980316255,1.267151222385565
-0.4927250058968143,1.922938372647637,1.198134129411284
-0.4846558918946954,1.953574985086305,1.205714743826936
-0.5595290975664004,1.954371275680952,1.190750662142386
-1.593524069367991,1.784180599214821,1.191355705749724
-1.548332258391392,1.787781237114177,1.192139341097895
-1.548363117513969,1.798486890685283,1.186151203745713
-2.007573356806816,2.008182011537278,1.24968409142886
-2.008545227809885,1.979756099622053,1.241196787645159
-1.982518262881034,1.98145310166659,1.233183042356854
-0.8111253138958566,1.794777094656984,1.19366213423243
-0.7547022571668702,1.791180388919164,1.192879203321692
-0.7547575575969794,1.801915051804369,1.18689733784964
-1.060686879643209,2.034875913952607,1.228191284767318
-1.066527520088209,2.008286308568609,1.218195574853853
-0.95168023309174,2.007804800898899,1.204645780055804
-0.6707709753415596,2.111381136042661,1.274721073140554
-0.7158022435322825,2.115026346275188,1.275539025075598
-0.7157709685528317,2.110987559268999,1.266363239275552
-0.251728545602533,1.915606844558268,1.22227928935124
-0.2519922752302521,1.948307029502389,1.231690683294492
-0.2780192401591032,1.950104995693617,1.223698766273542
-1.485645406243614,2.032318083774384,1.108934887850914
-1.514552832523602,2.032258480056925,1.113738075906688
-1.514228089645314,2.034695062424717,1.076856415358155
-1.455377286165777,1.951459578395385,1.076995081288244
-1.436622492457382,1.976467059301557,1.078482266351898
-1.422218977630519,1.975741683773147,1.0375929961249
-1.571267938399967,1.92559839369942,1.078422948830801
-1.540327539472729,1.925725611307109,1.083003918104045
-1.541713667223974,1.918319302173044,1.046934290803651
-1.605326737474928,2.005588877812866,1.092477647071243
-1.628987698764311,1.980508957522904,1.077842300006582
-1.669542179187473,1.975330541903813,1.034126880570545
-0.7755911257875328,1.936228945766743,1.080781527071759
-0.7466568858758516,1.928854181343938,1.083384750439049
-0.7525943871581806,1.922050872220448,1.04715186519143
-0.8058113959012397,2.024746600616568,1.098368100886035
-0.8245901777149085,2.004637533877175,1.086677794527444
-0.8380844349240259,2.003893113787334,1.045077790831679
-0.6904536364144184,2.021096007194308,1.106454417249557
-0.7211521872282136,2.0288450474509,1.113315489435193
-0.7142458462671376,2.030355791228143,1.076566609571589
-0.6555108333468926,1.932509028036494,1.07116464981376
-0.6320945456973738,1.952238993448542,1.069626655947436
-0.5925762410088594,1.947579719827015,1.026771671472612
-1.16452545209609,-2.507694145067179,0.4560622602404679
-1.164469156740712,-2.509305235405412,0.4485546657471358
-1.191291884946082,-2.507400371460896,0.4502024737538355
-1.096653062604096,-2.505300772792197,0.4661802415047049
-1.096028536574418,-2.499134427973788,0.4852566585112393
-1.068873087803279,-2.497300835990796,0.4862343245061473
-1.260547124096574,-2.497517443345716,0.4604139875476293
-1.260449050330013,-2.499121536878654,0.4529920375432906
-1.358065336919825,-2.486143919018432,0.4561588025670893
-1.00057711228763,-2.495134465248758,0.4704165457777897
-0.9990842969995641,-2.489134457161701,0.4883779631275319
-0.9014107238024511,-2.476324636918093,0.4911065734102265
-1.443208883479108,-2.472580892091908,0.4655009810919625
-1.443075624060015,-2.474167840954735,0.4581751761920204
-1.501532019407065,-2.46539240415519,0.4592243127568749
-0.8178696398702574,-2.470223383440783,0.4753739646140325
-0.8171104606666331,-2.464588182095406,0.4927700770837001
-0.7592408287786779,-2.455910314702516,0.4936459917999001
-1.538938452980292,-2.457453464192808,0.4674451719757872
-1.538786467370054,-2.459030012469031,0.4601958340539623
-1.581672626539181,-2.447742592312142,0.4639324977417951
-0.722115741389313,-2.455111406243009,0.4772151009905035
-0.7223631691220355,-2.44969265491976,0.4943100607005576
-0.6796638756162161,-2.438419984010476,0.4984511404659943
-1.447231561442706,2.11953391154166,0.7230177374003285
-1.445368826802929,2.116187046012447,0.7620208208094772
-1.552120719374825,2.112932685217454,0.7622379771915625
-0.8416710100692698,2.122234194880766,0.6952464802728604
-0.8409187701961567,2.124434595650409,0.6754472201223969
-0.7341040814328457,2.122537275836773,0.6759428349113174
-1.663241942333623,2.106246710387816,0.7246675950711031
-1.660580114946191,2.102918925007688,0.7632000232850323
-1.765199993369878,2.088752747529886,0.7640484703406598
-0.6259187858504673,2.112308059309241,0.6968422582793936
-0.6259187858504665,2.114291229219411,0.677296266604331
-0.5251434386633981,2.101365008651261,0.6788941540442587
-1.837724169885458,2.081606061592846,0.7258944478533002
-1.835948407052222,2.078314274806032,0.7639289270848557
-1.883057102692279,2.071146144729529,0.763341911141273
-0.4448464441768821,2.087474387681012,0.6988665229238369
-0.4448464441768821,2.089436361324765,0.6795737330904782
-0.3874361597955693,2.080695679261658,0.6795161685564393
-1.92042668015135,2.068301902899011,0.7251175783997256
-1.919293831697732,2.065063934571414,0.7625011867833815
-1.952896380609461,2.056446954287663,0.7633685503535633
-0.3484777530345538,2.072409370341517,0.6983748370645203
-0.3484777530345538,2.074358485551533,0.6792834259681273
-0.3048192624185175,2.064132083480496,0.679667958582453
-2.007277644570411,2.014343112799806,0.742870898593889
-2.00407588499753,2.012754955271744,0.7843647092232146
-2.021648529645079,1.920541148751759,0.8347022716300162
-0.2396191044597378,1.924067188535787,0.8327386919138448
-0.2571757683644859,2.012754955271744,0.7843647092232147
-0.2539740087916048,2.014343112799807,0.742870898593889
-2.032434877022093,1.862313397702445,0.8021529215029893
-2.023658816922133,1.86484050260552,0.8563376587295722
-2.025923278964721,1.803423299115318,0.8605299699242001
-0.2353120302060087,1.800614355836267,0.8602541969056846
-0.2372918645777945,1.86891771834322,0.8562902425189252
-0.2288167763399229,1.862313397702445,0.8021529215029892
-2.040602551510919,1.705878148162604,0.8000981499975719
-2.025873194777729,1.720011881753384,0.8511854453759177
-2.025796251647676,1.613319896814511,0.8386352559409371
-0.2354554017143395,1.613319896814512,0.8386352559409372
-0.2353784585842871,1.720011881753384,0.8511854453759177
-0.2206491018510972,1.705878148162604,0.8000981499975719
-2.052527467392751,1.488563620626734,0.7865521076534832
-2.029792976616565,1.507706024122887,0.8270193821151327
-2.041316280213021,1.433649263285456,0.8237992316588989
-0.2199353731489944,1.433649263285456,0.8237992316588989
-0.2314586767454502,1.507706024122887,0.8270193821151326
-0.2087241859692649,1.488563620626733,0.7865521076534833
-2.06718583419765,1.350142173820787,0.7860069736284734
-2.052056927108724,1.362546198652482,0.8203266652346177
-2.056645631072171,1.293896029236888,0.8194578780810942
-0.2046060222898446,1.293896029236888,0.8194578780810941
-0.2091947262532915,1.362546198652482,0.8203266652346176
-0.1940658191643653,1.350142173820787,0.7860069736284734
-2.072334250735528,1.224244629762275,0.7927049498831627
-2.060028547676572,1.228909137624844,0.8224657700876481
-2.064292633866883,1.166427608553495,0.8282917290998793
-0.1969590194951331,1.166427608553495,0.8282917290998791
-0.2012231056854439,1.228909137624844,0.8224657700876481
-0.1889174026264879,1.224244629762275,0.7927049498831627
-2.08056638586225,1.098865206959214,0.8079960196548829
-2.068665647959806,1.102925228910959,0.8335456309196658
-2.072704320472842,1.036903237699886,0.8373132458373688
-0.1885473328891736,1.036903237699886,0.8373132458373688
-0.1925860054022097,1.102925228910959,0.8335456309196658
-0.1806852674997652,1.098865206959214,0.8079960196548828
-2.088194151745493,0.9649606411050598,0.8167416263602905
-2.076294354124288,0.9688903260374616,0.8411562386318308
-2.079372808218507,0.9006615106432305,0.8455080254195122
-0.1818788451435086,0.9006615106432305,0.8455080254195122
-0.184957299237727,0.9688903260374616,0.8411562386318308
-0.173057501616522,0.9649606411050598,0.8167416263602905
-2.094216510477998,0.8313198854619646,0.8239552879005974
-2.081928098645922,0.8352381338391007,0.8496737736544912
-2.083772248371993,0.7724644360044874,0.8533233276689971
-0.1774794049900232,0.7724644360044874,0.8533233276689971
-0.1793235547160938,0.8352381338391006,0.8496737736544913
-0.1670351428840179,0.8313198854619645,0.8239552879005974
-2.095732417040597,0.7059399501862141,0.8285212934915505
-2.084855311347364,0.7095949589200883,0.8566073117746356
-2.083878930430108,0.6542412496693417,0.8590889039144364
-0.1773727229319077,0.6542412496693418,0.8590889039144364
-0.176396342014652,0.7095949589200884,0.8566073117746356
-0.165519236321419,0.705939950186214,0.8285212934915505
-2.090621935609301,0.6056553087902754,0.8321329606055995
-2.079552258236452,0.6088656753993873,0.8605379270456995
-2.073971304610196,0.5675165056056262,0.8612537981852384
-0.1872803487518192,0.5675165056056262,0.8612537981852382
-0.1816993951255632,0.6088656753993873,0.8605379270456994
-0.1706297177527148,0.6056553087902753,0.8321329606055994
-2.08283460933289,0.5249744156953214,0.834067589322649
-2.068899040387964,0.5231715502156868,0.8611681144364196
-2.061968589941241,0.4422935136143602,0.8597757894518917
-0.1992830634207747,0.4422935136143602,0.8597757894518916
-0.1923526129740516,0.5231715502156868,0.8611681144364196
-0.1784170440291262,0.5249744156953216,0.834067589322649
-2.069471043408965,0.3371191164318113,0.8231375135085999
-2.052913397397908,0.29076961535547,0.8552172472780295
-2.044501324967932,0.07484294985471797,0.8521786550896993
-0.2167503283940837,0.07484294985471796,0.8521786550896993
-0.2083382559641083,0.2907696153554699,0.8552172472780294
-0.1917806099530506,0.3371191164318113,0.8231375135085999
-2.054462371205696,-0.03380455686126241,0.8176880481899551
-2.036860712345881,-0.1290367567323003,0.8664337583882966
-2.029684474396627,-0.265534249149875,0.8934264181944884
-0.2315671789653884,-0.265534249149875,0.8934264181944884
-0.2243909410161346,-0.1290367567323003,0.8664337583882966
-0.2067892821563196,-0.03380455686126248,0.817688048189955
-2.041120023387705,-0.3432867104457665,0.8622184369227736
-2.023823427005177,-0.3486439768207694,0.9046338014946175
-2.020111648632213,-0.3992460990234665,0.893678767594015
-0.2411400047298023,-0.3992460990234664,0.8936787675940151
-0.2374282263568386,-0.3486439768207693,0.9046338014946175
-0.2201316299743104,-0.3432867104457665,0.8622184369227738
-2.038176615888308,-0.453386379934192,0.8422372240250649
-2.019366480314096,-0.4451064848921688,0.8763298681170003
-2.0218278867034,-0.5067042049864801,0.859857969067668
-0.239423766658616,-0.5067042049864799,0.8598579690676679
-0.24188517304792,-0.4451064848921688,0.8763298681170002
-0.2230750374737083,-0.453386379934192,0.8422372240250647
-2.041199528447273,-0.6021464209187832,0.8132327894438467
-2.027158456068917,-0.5972315312914049,0.8430362508298883
-2.034755555705666,-0.7022355399288849,0.8284837798473103
-0.2264960976563497,-0.702235539928885,0.8284837798473105
-0.2340931972930991,-0.5972315312914048,0.8430362508298883
-0.2200521249147427,-0.6021464209187832,0.8132327894438467
-2.050656957046272,-0.7958458734790719,0.7921083529409404
-2.043315541229918,-0.7917275687780042,0.8194425942668441
-2.052911247514598,-0.8748196655335964,0.8134012172890583
-0.2083404058474181,-0.8748196655335963,0.8134012172890586
-0.2179361121320984,-0.7917275687780043,0.8194425942668442
-0.2105946963157439,-0.795845873479072,0.7921083529409405
-2.071991777351917,-0.9982156191537397,0.7774298345278807
-2.067038554143018,-0.9939768370630407,0.8069800921972996
-2.084507000232292,-1.150254777822673,0.8006130535144345
-0.1767446531297233,-1.150254777822673,0.8006130535144345
-0.1942130992189982,-0.9939768370630406,0.8069800921972997
-0.1892598760100985,-0.9982156191537398,0.7774298345278808
-2.097659588086403,-1.275197467628189,0.7588405928114095
-2.095088739077337,-1.271184859862037,0.796856952359628
-2.095990440474356,-1.332721191934932,0.795760754529511
-0.1652612128876589,-1.332721191934933,0.7957607545295111
-0.1661629142846788,-1.271184859862037,0.7968569523596278
-0.1635920652756124,-1.275197467628189,0.7588405928114096
-2.095955640225041,-1.38463631549983,0.7557218748292439
-2.093671140155093,-1.380649312500417,0.7951418728062984
-2.090979739859057,-1.433912261860136,0.7939638204784201
-0.1702719135029595,-1.433912261860136,0.79396382047842
-0.1675805132069221,-1.380649312500417,0.7951418728062984
-0.1652960131369745,-1.38463631549983,0.7557218748292438
-2.09025691026829,-1.492942971585285,0.7528168048191245
-2.088077428506531,-1.488955192176065,0.7920877330030239
-2.085049923631701,-1.543777594543316,0.7895031637253592
-0.1762017297303141,-1.543777594543316,0.7895031637253592
-0.1731742248554847,-1.488955192176065,0.7920877330030238
-0.1709947430937251,-1.492942971585286,0.7528168048191244
-2.083972027142032,-1.601921207776101,0.7486695878096916
-2.081907471382648,-1.597933298990135,0.7863280838787761
-2.078637881753858,-1.651641997019753,0.7823585336830257
-0.1826137716081568,-1.651641997019753,0.7823585336830257
-0.1793441819793674,-1.597933298990135,0.7863280838787762
-0.1772796262199834,-1.601921207776101,0.7486695878096916
-2.07716324334175,-1.709776624636987,0.7412437237105136
-2.075206528586229,-1.705789241610383,0.7770686223442598
-2.071461071635034,-1.762488787722435,0.7699758744752296
-0.1897905817269814,-1.762488787722434,0.7699758744752295
-0.1860451247757868,-1.705789241610382,0.7770686223442598
-0.184088410020266,-1.709776624636987,0.7412437237105137
-2.068957011083398,-1.829068646529413,0.7246855833952245
-2.067131456569932,-1.825082592298512,0.7606412300952845
-2.062191058589885,-1.892770403644362,0.7482576637327216
-0.1990605947721306,-1.892770403644362,0.7482576637327217
-0.1941201967920835,-1.825082592298512,0.7606412300952845
-0.1922946422786182,-1.829068646529413,0.7246855833952245
-2.058652031006145,-1.965173296613684,0.6964023222856777
-2.056928076378796,-1.961189682360597,0.7328530365314733
-2.047142902519949,-2.024666456323769,0.7160357322097577
-0.2141087508420668,-2.024666456323769,0.7160357322097577
-0.2043235769832194,-1.961189682360597,0.7328530365314734
-0.2025996223558713,-1.965173296613684,0.6964023222856777
-2.024619217237229,-2.092835756655489,0.6603886458273374
-2.022967017933643,-2.088855318752508,0.6957485978277913
-1.966611751104277,-2.173692893083723,0.6621980643567212
-0.2946399022577385,-2.173692893083723,0.6621980643567214
-0.2382846354283729,-2.088855318752508,0.6957485978277913
-0.2366324361247866,-2.092835756655489,0.6603886458273374
-1.842938481063976,-2.293331937863856,0.5705920648666834
-1.840966819635459,-2.289082217417687,0.5985541430028849
-1.682111573806753,-2.392069263237619,0.5294717982706919
-0.5791400795552626,-2.392069263237619,0.529471798270692
-0.420284833726557,-2.289082217417687,0.598554143002885
-0.4183131722980397,-2.293331937863856,0.5705920648666835
-1.464576458068772,-2.407334220838969,0.5771973960204136
-1.447395455153897,-2.448490120899629,0.5229660666464655
-1.501481711193542,-2.44024045659844,0.523689283665808
-0.8138561982081191,-2.448490120899629,0.5229660666464655
-0.7966751952932438,-2.407334220838969,0.5771973960204135
-0.7508266562419563,-2.39955218689601,0.5784349581057759
-1.444141192695383,-2.464588182095406,0.4927700770837001
-1.443382013491758,-2.470223383440783,0.4753739646140325
-1.501864058347756,-2.461462932697106,0.4763371298956369
-0.8181760293020006,-2.474167840954736,0.4581751761920205
-0.818042769882908,-2.472580892091908,0.4655009810919625
-0.7595752186724102,-2.463811484538268,0.4665134982838336
-1.442879684921386,-2.475470085845822,0.4486424802798983
-1.442470449380592,-2.47661176026036,0.431132138179639
-1.500876182296936,-2.467827038353515,0.4323164543062077
-0.8187812039814235,-2.476611760260359,0.431132138179639
-0.8183719684406297,-2.475470085845822,0.4486424802798983
-0.759931976213821,-2.466689701467395,0.4497392677652879
-1.44171194521286,-2.47742821347287,0.40232609465743
-1.440578391378992,-2.477557485231517,0.3639859515301642
-1.498825729933083,-2.468769170260937,0.3655059101270023
-0.8206732619830232,-2.477557485231517,0.3639859515301641
-0.8195397081491552,-2.47742821347287,0.40232609465743
-0.7611974737005185,-2.468640389640498,0.4036544030505582
-1.439294427677519,-2.47698596798276,0.3249795865009217
-1.43786935249436,-2.475271416236488,0.2891998703777516
-1.49585254602233,-2.46649669991888,0.2910681287922172
-0.8233823008676555,-2.475271416236488,0.2891998703777515
-0.8219572256844965,-2.47698596798276,0.3249795865009217
-0.7638173746447834,-2.468199824360049,0.3266945255332533
-1.435902174976663,-2.471270795495187,0.2499774516910324
-1.461583313220703,-2.452575027899482,0.2088983142228895
-1.51868352933521,-2.443968653758001,0.2110667039786902
-0.7996683401413123,-2.452575027899482,0.2088983142228895
-0.8253494783853519,-2.471270795495186,0.2499774516910323
-0.7676803950607032,-2.462530931658645,0.2519396422852862
-1.571694594271879,-2.395508992228142,0.1758037770071955
-1.718271923275516,-2.30365754445466,0.1566070076184044
-1.772750073092596,-2.295895465422448,0.1591675898280636
-0.5429797300865,-2.30365754445466,0.1566070076184044
-0.6895570590901361,-2.395508992228143,0.1758037770071955
-0.6339645018565787,-2.387349612036971,0.1782431544661007
-1.796755027771773,-2.204995058334706,0.1490741991716875
-1.81449766905058,-2.121932761565792,0.14697663974147
-1.870784617942149,-2.114673318710643,0.1495813589943443
-0.4467539843114358,-2.121932761565793,0.14697663974147
-0.4644966255902429,-2.204995058334706,0.1490741991716875
-0.4092453031086605,-2.197446865911054,0.1516690051206595
-1.819794723320034,-2.056753065505863,0.1461780320718424
-1.825427799112675,-1.995078745096265,0.1433647923824025
-1.879712706513544,-1.988292924472425,0.1459001639079965
-0.4358238542493409,-1.995078745096265,0.1433647923824025
-0.4414569300419817,-2.056753065505863,0.1461780320718424
-0.3854467491572371,-2.049741257861178,0.1487867433109245
-1.82893140008111,-1.942298184804375,0.1302174904770788
-1.828038262162689,-1.908027435591556,0.1019156299856942
-1.879641323320383,-1.901543381287131,0.1032273932935763
-0.4332133911993266,-1.908027435591556,0.1019156299856942
-0.4323202532809057,-1.942298184804375,0.1302174904770788
-0.379901952912804,-1.93566290979294,0.1322941679575594
-1.825556729754779,-1.87657984342662,0.0693346159967107
-1.823899965207332,-1.835646578332304,0.04114292540393822
-1.875096816020823,-1.82960072408849,0.04099399287790162
-0.4373516881546835,-1.835646578332304,0.04114292540393821
-0.4356949236072371,-1.87657984342662,0.0693346159967107
-0.3843816010831262,-1.870365977204341,0.06990930497407431
-1.822765584388675,-1.786837889623135,0.01556520245441802
-1.822093023489461,-1.732950172774306,-0.007186829311678903
-1.873352225575614,-1.727168579480683,-0.008608304105591014
-0.4391586298725549,-1.732950172774306,-0.0071868293116789
-0.4384860689733405,-1.786837889623135,0.01556520245441803
-0.387213287211718,-1.780876744455345,0.0147285787776729
-1.82206353902267,-1.677965969421668,-0.02491436706105149
-1.823031074932308,-1.623426927512773,-0.0352591984309676
-1.87436880635526,-1.618061442509472,-0.03743904038642255
-0.4382205784297075,-1.623426927512773,-0.0352591984309676
-0.4391881143393456,-1.677965969421668,-0.02491436706105148
-0.3879313805566532,-1.672393275917282,-0.02680458224436395
-1.825522262593404,-1.568433801306874,-0.03570370152926433
-1.829563839122515,-1.512763500140453,-0.026123825461226
-1.881448463408572,-1.507818455286227,-0.02800799494596078
-0.4316878142395005,-1.512763500140453,-0.026123825461226
-0.4357293907686113,-1.568433801306874,-0.03570370152926434
-0.3841831086138651,-1.563277249993131,-0.03788132155484658
-1.834682647377725,-1.456869088427227,-0.008789090329584137
-1.840259224955199,-1.404352272834583,0.01362951091421506
-1.892996889423595,-1.399809673388739,0.01280142880305895
-0.4209924284068161,-1.404352272834583,0.01362951091421506
-0.4265690059842904,-1.456869088427227,-0.008789090329584142
-0.3742558586992603,-1.452136401488811,-0.01020255592933496
-1.845527804189184,-1.361963402283582,0.03805951247001128
-1.850237321883764,-1.331570885052475,0.0635289417109947
-1.903586736372095,-1.327277043659539,0.06410614135928106
-0.4110143314782516,-1.331570885052475,0.06352894171099469
-0.4157238491728316,-1.361963402283582,0.03805951247001127
-0.3627144361713717,-1.357544097461674,0.03792032123684725
-1.854651419312864,-1.310161188776701,0.0911663191837056
-1.856393791544616,-1.272518511062096,0.1177761513560189
-1.910724372378549,-1.268536887369594,0.1197565539765198
-0.4048578618174001,-1.272518511062096,0.1177761513560189
-0.4066002340491514,-1.310161188776701,0.09116631918370559
-0.3529290094809055,-1.306026416988262,0.09242648883074323
-1.849548013719256,-1.16514277474518,0.1339350254584939
-1.837328206704088,-1.010785139635378,0.1376161824769794
-1.89505228837966,-1.007747245695729,0.1402676916840696
-0.4239234466579273,-1.010785139635378,0.1376161824769794
-0.4117036396427596,-1.16514277474518,0.1339350254584939
-0.3556872907775769,-1.161529124078752,0.1364424215996358
-1.829376632999873,-0.8897106452233901,0.1370709930854474
-1.826044648367719,-0.8050726864304112,0.1367641936169125
-1.884261902102248,-0.802816349474364,0.1394199616458347
-0.435207004994297,-0.8050726864304111,0.1367641936169125
-0.4318750203621423,-0.8897106452233898,0.1370709930854474
-0.3735448223745173,-0.8871327458789611,0.1397252275212256
-1.824758746048469,-0.7141519314351161,0.1364984424646679
-1.825483827911151,-0.6007438502745397,0.1362558157346168
-1.883654132345774,-0.5992638135684816,0.1389141249831787
-0.4357678254508651,-0.6007438502745397,0.1362558157346168
-0.4364929073135463,-0.7141519314351161,0.1364984424646679
-0.3783833033855265,-0.7122410269014324,0.1391555388992326
-1.826500062894776,-0.4807736858714425,0.1360883456356802
-1.827170565817347,-0.3684008779974052,0.1360027502481667
-1.885482076163583,-0.3678187659004365,0.1386623244907551
-0.4340810875446683,-0.3684008779974053,0.1360027502481667
-0.434751590467239,-0.4807736858714425,0.1360883456356802
-0.3764962115306741,-0.4797494481136361,0.1387474920141003
-1.829401072530355,-0.263984536449818,0.1359677679579432
-1.833297890080665,-0.1585260085751245,0.1359590223853873
-1.892122351730816,-0.1588779876373418,0.1386188152096795
-0.4279537632813509,-0.1585260085751245,0.1359590223853873
-0.4318505808316608,-0.263984536449818,0.1359677679579432
-0.3733523427593148,-0.2638598946016938,0.1386275170658947
-1.837167896710515,-0.03366887926882294,0.1359590223853873
-1.840427324971463,0.1089692014882162,0.1359576245881689
-1.899848630001571,0.1076768916938675,0.1386174243996056
-0.4208243283905528,0.1089692014882163,0.1359576245881689
-0.4240837566515007,-0.03366887926882294,0.1359590223853874
-0.3649353159100478,-0.0344952241744372,0.1386188152096796
-1.843601761724384,0.2477965186297502,0.135952033399295
-1.847293197110526,0.3700534655081567,0.1359597216457645
-1.907289281263609,0.3678451818913999,0.138619510974676
-0.4139584562514896,0.3700534655081567,0.1359597216457645
-0.4176498916376317,0.2477965186297503,0.1359520333992951
-0.3579628374156035,0.2460375309483238,0.13861186115931
-1.851395038847182,0.4724718569973634,0.1359929202341225
-1.854859163723948,0.5404592890950871,0.136046768744498
-1.915473772631077,0.5376035878845199,0.1387061229525977
-0.406392489638068,0.540459289095087,0.136046768744498
-0.4098566145148343,0.4724718569973633,0.1359929202341225
-0.3495171431054469,0.4698744583422578,0.1386525436138304
-1.858371507688825,0.5811397475810203,0.1361528988632037
-1.863172972672456,0.6213326432737093,0.1363554631568971
-1.924164455037284,0.6181696824210501,0.1390132742996299
-0.3980786806895601,0.6213326432737093,0.1363554631568971
-0.4028801456731909,0.5811397475810203,0.1361528988632037
-0.342030951729001,0.5781294903582599,0.1388117225605329
-1.867317913755434,0.6663275751227575,0.136658597278807
-1.86871030398916,0.7187921250357998,0.1355540949801893
-1.926888034269254,0.7152682741092905,0.1381492395419322
-0.3925413493728561,0.7187921250357998,0.1355540949801893
-0.3939337396065816,0.6663275751227575,0.136658597278807
-0.3335884745186064,0.6629936664122247,0.1393148931502999
-1.867680172510667,0.7667653645407331,0.1267852156756541
-1.864554093689795,0.7969277828930471,0.1051512513662164
-1.919258680806162,0.7931545653977278,0.1067645570436304
-0.3966975596722205,0.7969277828930472,0.1051512513662164
-0.3935714808513481,0.7667653645407331,0.1267852156756541
-0.3378098397967244,0.7631155587534692,0.1290241588846209
-1.859877028621146,0.8242519350034689,0.07597972171077136
-1.854306100199461,0.8630773877527724,0.04559154788747574
-1.908101463228198,0.8589284289058202,0.04568888832788995
-0.4069455531625544,0.8630773877527723,0.04559154788747574
-0.4013746247408695,0.8242519350034689,0.07597972171077135
-0.3471365236222223,0.820264561599986,0.0768913026091386
-1.847663221963746,0.9169918805485849,0.0150895146600081
-1.840577284050309,0.9831171711066236,-0.01228297365850269
-1.893435185198802,0.9785796934472197,-0.01378048531632568
-0.420674369311706,0.9831171711066236,-0.01228297365850269
-0.4135884313982697,0.9169918805485848,0.01508951466000811
-0.3601796984832373,0.9126921217402937,0.0143309463125971
-1.834484153192766,1.052109035450694,-0.03114189320547744
-1.830086097762705,1.119074737119549,-0.03897751886050638
-1.882065725221969,1.114020720069673,-0.04120927275969584
-0.4311655555993111,1.119074737119549,-0.03897751886050638
-0.4267675001692498,1.052109035450694,-0.03114189320547744
-0.3744196878105758,1.047309439127351,-0.0331416770298555
-1.827351787769692,1.183573027166887,-0.03615442424534923
-1.82602998404399,1.246047344320585,-0.02395414514682011
-1.877670052385532,1.240510924157344,-0.02598985824186063
-0.4352216693180262,1.246047344320585,-0.0239541451468201
-0.4338998655923239,1.183573027166887,-0.03615442424534923
-0.3821491419442424,1.17827396375141,-0.03840028989827658
-1.825649538236555,1.307825814982697,-0.004575179516787467
-1.825960366973373,1.367521183549345,0.02028429141257468
-1.877551759141124,1.361550110159607,0.01950065759711215
-0.4352912863886425,1.367521183549345,0.02028429141257468
-0.43560211512546,1.307825814982697,-0.004575179516787464
-0.3839938959507976,1.302054681779822,-0.006111219990543936
-1.82693345185545,1.421030812410723,0.04942640312878673
-1.828416268149914,1.46463914655724,0.08015423448753568
-1.87999669462232,1.458405373943477,0.08103546455673583
-0.4328353852121013,1.46463914655724,0.0801542344875357
-0.4343182015065649,1.421030812410723,0.04942640312878673
-0.3828167397801515,1.414963875885879,0.04950908220408078
-1.830132784790008,1.495017713579518,0.1082718077126752
-1.830467414503692,1.530641787774082,0.1300951177359257
-1.882664112452704,1.524018335267937,0.1322142214929458
-0.4307842388583233,1.530641787774082,0.1300951177359257
-0.4311188685720076,1.495017713579518,0.1082718077126752
-0.3794040297921987,1.48855646510774,0.1098004581720598
-1.826465013813644,1.611790390143349,0.1424521321968746
-1.81883227856164,1.730213926495995,0.1464523946085246
-1.874390759186837,1.722838027158642,0.1490597343963872
-0.4424193748003753,1.730213926495994,0.1464523946085246
-0.4347866395483714,1.61179039014335,0.1424521321968746
-0.3811003355110735,1.604863257408999,0.1449654678535741
-1.811937743908556,1.82913418744694,0.1474870243572942
-1.807626001755375,1.892037577971645,0.1550894163062753
-1.864258058174986,1.884077872429239,0.1576735885642026
-0.45362565160664,1.892037577971644,0.1550894163062753
-0.4493139094534593,1.82913418744694,0.1474870243572942
-0.3926886180037326,1.821382463410784,0.150089192359505
-1.805217700743189,1.942675117406102,0.1829352407952329
-1.804597736869856,1.991328555011772,0.2313602030133432
-1.860757726995963,1.983106544765521,0.233613577351122
-0.4566539164921599,1.991328555011772,0.2313602030133432
-0.4560339526188265,1.942675117406102,0.1829352407952329
-0.3997766010035563,1.934647047847722,0.18546024541491
-1.806215253490002,2.034810369975578,0.2873600429991935
-1.809523644754446,2.069395249016014,0.3440733092753893
-1.866130531449523,2.060685242624111,0.3455449585034023
-0.4517280086075695,2.069395249016014,0.3440733092753894
-0.4550363998720139,2.034810369975578,0.2873600429991935
-0.398749749662282,2.026262766255491,0.2891351900402025
-1.812980555610201,2.090820086383139,0.400781358848554
-1.815542512127768,2.099750639222633,0.4584546188086953
-1.872880575493603,2.090970770441384,0.4595023585286232
-0.4457091412342478,2.099750639222633,0.4584546188086953
-0.4482710977518146,2.090820086383139,0.4007813588485542
-0.3911929705351807,2.082065053994234,0.4020878196164216
-1.816664921501138,2.101781527575793,0.5197525863292047
-1.816634433586069,2.100039269797982,0.5784354880367556
-1.874063907576139,2.091258304431483,0.5788834814815451
-0.4446172197759474,2.100039269797982,0.5784354880367555
-0.4445867318608784,2.101781527575792,0.5197525863292047
-0.3871547055632881,2.092993942903013,0.5204939169696643
-1.816437955528124,2.095878662840342,0.6256951879345593
-1.816405209185134,2.091926199508673,0.658289455015286
-1.873815493566446,2.083176057880088,0.6583382838302597
-0.4448464441768821,2.091926199508674,0.6582894550152861
-0.4448136978338914,2.095878662840341,0.6256951879345593
-0.3874006720798989,2.087113504739631,0.6259069451430201
-1.816405209185134,2.089436361324765,0.6795737330904782
-1.816405209185134,2.087525497701605,0.6988528317126153
-1.873376492493446,2.078831022301913,0.6987184252357339
-0.4448464441768822,2.081568750094647,0.7640566846047748
-0.4448464441768822,2.084812116052673,0.7259631888042193
-0.3874361597955693,2.076089002742112,0.7256737381082528
-1.854572543781611,2.072110414822548,0.8072474104863456
-1.843816852243062,2.070654878393569,0.8523196123354608
-1.868854916343183,2.067258029985827,0.8512287818676025
-0.4452871446673588,2.066920255742163,0.9411626034990208
-0.4304368635137987,2.069357388956468,0.8959648162760799
-0.4032126706246706,2.066012961324995,0.8946222932853891
-1.802349288509352,2.060576425728756,0.9838866005203706
-1.795327433908819,2.047594243928765,1.011339745294379
-1.829094898180923,2.045271390799771,1.010478012896438
-0.4620056518608304,2.008283352465359,1.016519674321405
-0.4660979237065068,2.029246507733747,1.020353385344117
-0.4320197255048799,2.027207290506254,1.01952035568594
-1.805181388846384,1.985465424527547,1.008571184734385
-1.809006367346967,1.961052192205206,1.001345633136388
-1.839817177067447,1.958162125005666,1.000320914263747
-0.4686055273928731,1.906761153824146,0.9924274077205716
-0.4556633767726629,1.935019448402698,0.9957606254561335
-0.4250200152479051,1.931671889402616,0.9948587947608106
-1.770812196720689,1.875685733050132,0.9917876553908324
-1.742329950724486,1.840835019566083,0.9936305332767881
-1.775488941220904,1.835137858702987,0.993241880187834
-0.5805267582870166,1.751494135659146,1.001654240932967
-0.5499607957633679,1.801487205302186,0.9971217043190783
-0.5133485623645349,1.795454236071871,0.9967493666089478
-1.607323008994449,1.691529868984563,1.006021160994687
-1.637794472163126,1.609234597273764,1.007633348877148
-1.705968468563663,1.602104556803684,1.005499227564632
-0.62345718119889,1.609234597273764,1.007633348877148
-0.6539286443675672,1.691529868984562,1.006021160994687
-0.5732238784658402,1.684118333871318,1.004306567032258
-1.695171786490503,1.515506389231796,1.014045646186353
-1.749033575263738,1.422877074304208,1.027001633823947
-1.790361395969856,1.41652530366019,1.021049170612289
-0.512218078098278,1.422877074304208,1.027001633823947
-0.5660798668715125,1.515506389231796,1.014045646186353
-0.5127976341493553,1.508852936950701,1.010402902631527
-1.782248356298714,1.34393020214671,1.041515399317392
-1.793498367226804,1.278599182168022,1.040164597843142
-1.82702181730114,1.272736931618868,1.038300658985118
-0.4677532861352117,1.278599182168022,1.040164597843142
-0.4790032970633021,1.34393020214671,1.041515399317392
-0.4441224559277437,1.33782184093205,1.03398504835787
-1.797279565494871,1.214167283529874,0.9930904522266456
-1.800734176684122,1.145532337060589,0.9133179121803023
-1.834882290258713,1.140188124029855,0.9725038465818436
-0.4605174766778941,1.145532337060589,0.9133179121803023
-0.4639720878671447,1.214167283529874,0.9930904522266456
-0.4301222090001181,1.208559157425929,1.015629231876771
-1.803650694510109,1.075206735255077,0.8567556543034647
-1.805971805645196,1.005650445403008,0.8393348317897087
-1.840572080883133,1.000851148967056,0.9290008011903079
-0.4552798477168195,1.005650445403008,0.8393348317897086
-0.4576009588519068,1.075206735255077,0.8567556543034647
-0.4232010638775299,1.070134461078612,0.9403574328156209
-1.215020541844878,-0.6829935433066512,1.024438360592555
-1.298270086913097,-0.6703611940083729,1.020969198527711
-1.300352935154202,-0.6458429582790114,1.023227746089786
-1.150309635626897,-0.7819924393993014,1.012693462307125
-1.164408638644881,-0.7144010828055163,1.022391814757754
-1.137903561793541,-0.7007089743363055,1.025867897342851
-1.807794389718557,0.9392710095888036,0.8370090744268347
-1.809518777203372,0.8755133613162369,0.8368859562894258
-1.844425260569358,0.8712273357134203,0.9264515999800929
-1.500699926857545,-0.7001246075404917,0.9989883494184316
-1.501366385204017,-0.7702515056095621,0.9858728683536638
-1.560064828468954,-0.7773572136384521,0.9650164093944447
-0.4517328761586433,0.8755133613162369,0.836885956289426
-0.4534572636434587,0.9392710095888036,0.8370090744268346
-0.4186996457124211,0.9347335188369306,0.9266226432150284
-1.096843014717184,-0.7144010828055163,1.022391814757754
-1.110942017735171,-0.7819924393993013,1.012693462307125
-1.130625826681067,-0.7790025654996056,1.014066937337878
-0.8004333580936163,-0.6710373142152399,1.008587183849432
-0.8743244699463303,-0.6657237777143938,1.015672191716873
-0.8630646131475783,-0.6423386797819313,1.014206019804494
-0.7598852681579984,-0.770251505609562,0.9858728683536637
-0.760551726504471,-0.7001246075404917,0.9989883494184316
-0.7081511154027629,-0.696175256416391,0.9828977445139127
-1.811609380570021,0.8115235067768521,0.8373282665469697
-1.81182255109497,0.7551176531905546,0.8369604900426563
-1.846927918009701,0.7513064776725491,0.9264550696515058
-1.149047784899433,-1.061580023668911,0.9871668528818416
-1.14963493462137,-0.9040915585648021,0.9987786685351672
-1.130625826681092,-0.9037377378776352,0.9997188893852916
-0.4494291022670462,0.7551176531905546,0.8369604900426562
-0.4496422727919949,0.8115235067768519,0.8373282665469696
-0.4145553087728965,0.8074898621627611,0.9268537619701006
-1.486951767115036,-0.8957991898653991,0.9702214532414162
-1.475837616989589,-1.055053267147453,0.9580616179811892
-1.543049428046191,-1.060882740472239,0.9357098816145193
-1.807987241694885,0.708874546720172,0.835229439737438
-1.802509932818873,0.6457223324644987,0.8329635684626533
-1.836811346456061,0.6422558249695419,0.9224133234645344
-1.1116167187407,-0.9040915585648021,0.9987786685351672
-1.112203868462639,-1.061580023668911,0.9871668528818417
-1.13062582668109,-1.06215674566064,0.9878237657297888
-0.4587417205431427,0.6457223324644988,0.8329635684626533
-0.4532644116671308,0.708874546720172,0.835229439737438
-0.418490144929726,0.7052457576291517,0.9246996345222232
-0.7854140363724265,-1.055053267147453,0.9580616179811892
-0.7742998862469794,-0.895799189865399,0.9702214532414162
-0.7107060101023378,-0.9020115075253794,0.9482964934012801
-1.797520933991942,0.5164659658967683,0.8308412893290662
-1.790818995814184,0.2304433436138233,0.8347375232389798
-1.824111137209793,0.227408522683426,0.9224577347667019
-1.148378991472541,-1.24451350902546,0.9777200152340609
-1.148645247174175,-1.182741328000609,0.9806126197342927
-1.130625826681013,-1.183155650716044,0.98115530719293
-0.4704326575478315,0.2304433436138233,0.8347375232389798
-0.4637307193700742,0.5164659658967683,0.8308412893290662
-0.4298600032917969,0.5131620729206008,0.9202741402043737
-1.468876430720684,-1.17805244232661,0.9515941700723158
-1.464174453333768,-1.242424475863297,0.9487217522167681
