0.01963663662849071,-0.7889928956882083,0.1409808372971926
0.02548636382319769,-0.6760042055173052,0.1406226340281565
-0.08058453862508069,-0.6758951455573792,0.1406226340281682
0.5773578871382209,-0.6760042055173052,0.1406226340281564
0.583207614332928,-0.7889928956882083,0.1409808372971926
0.6905819020028394,-0.788869195373598,0.1409808372972043
-0.04446739796328295,-1.022507962776643,0.1418326913876922
-0.005895920723722505,-0.9061881771344935,0.1415077412030251
-0.1193039330371899,-0.9060492914018992,0.1415077412030368
0.6087401716851413,-0.9061881771344935,0.1415077412030251
0.6473116489247016,-1.022507962776643,0.1418326913876922
0.7698750526664828,-1.022286497075637,0.1414200020779357
0.05295132671046765,-2.120298173134471,0.1516045797317076
0.04041474702166054,-2.031816306397473,0.14910694068485
-0.05920866379366405,-2.031531568942635,0.1491069406848619
0.5624295039397582,-2.031816306397473,0.14910694068485
0.5498929242509512,-2.120298173134471,0.1516045797317076
0.6454772477534033,-2.120001970763012,0.15160457973172
0.1545864259731767,-2.353849114459487,0.1910674360934202
0.08821991024699946,-2.235333753290551,0.1624011341899692
0.00576655229478522,-2.23502264534145,0.1624011341899842
0.5146243407144193,-2.235333753290551,0.1624011341899692
0.4482578249882421,-2.353849114459487,0.1910674360934202
0.5060347003403422,-2.353522650044897,0.1910674360934407
-0.05396338807180274,-1.857016732408373,0.146573857404207
-0.0645458633726255,-1.81702251578781,0.1447980367608847
-0.1901011399221319,-1.818112069152439,0.1395890534153471
0.6673901143340443,-1.81702251578781,0.1447980367608847
0.6568076390332215,-1.857016732408373,0.146573857404207
0.7798704249879001,-1.857296793490488,0.1447644707350413
-0.3673679164531289,0.7265948472639677,0.1401325226166798
-0.3666637127646555,0.8192171118695781,0.1403004771785764
-0.4648738479891453,0.815999706585221,0.1462111417216996
0.9695079637260693,0.8192171118695782,0.1403004771785764
0.9702121674145426,0.7265948472639678,0.1401325226166798
1.068811256317694,0.7237922707866497,0.1460207579189855
-0.3667391565389948,0.9373050777247773,0.1405518184081338
-0.3682761049929541,1.080547980893756,0.1380789886766609
-0.466544352281499,1.085660447842579,0.1438133295673642
0.9711203559543676,1.080547980893756,0.1380789886766609
0.9695834075004084,0.9373050777247772,0.1405518184081337
1.066091277114193,0.9337853654486572,0.1466139265379861
-0.3296431893730366,-1.9599813508069,0.1484447815311815
-0.3366886989510193,-1.903862893386217,0.1436135043706208
-0.440884417461957,-1.888786475458506,0.1479270617055043
0.939532949912433,-1.903862893386217,0.1436135043706208
0.9324874403344501,-1.9599813508069,0.1484447815311815
1.032674679131853,-1.949201683663457,0.1530346419219273
-0.3364960129661258,1.982746854203664,0.08676605128055506
-0.3373938907067359,2.01380567456487,0.1335249176234149
-0.4276962474395845,1.997495326408198,0.1301927025596362
0.9402381416681498,2.01380567456487,0.1335249176234149
0.9393402639275399,1.982746854203663,0.08676605128055505
1.010646406033471,1.972672915222338,0.07909447187624467
-0.3318234051023279,1.913601093831808,-0.03076358820256117
-0.3333349656139639,1.955084918356397,0.03062712836585817
-0.404415453664227,1.948227132425137,0.02606758006277831
0.936179216575378,1.955084918356397,0.03062712836585814
0.9346676560637418,1.913601093831808,-0.03076358820256122
1.017222848472411,1.906415840678089,-0.03535214080309251
-0.3320791063993442,1.797688276278421,-0.1284684813837021
-0.3322854549158061,1.859839350189275,-0.08638176022243177
-0.4144676702810966,1.851684219989727,-0.09422073268411807
0.9351297058772199,1.859839350189275,-0.08638176022243183
0.9349233573607579,1.79768827627842,-0.1284684813837021
1.016678230403245,1.789534056125627,-0.1381859510614995
-0.3333568788884964,1.661905685468633,-0.1681737665388332
-0.3322143314246273,1.730861440934293,-0.1555703143873965
-0.4137872531084097,1.723041116407252,-0.1661784515696009
0.9350585823860409,1.730861440934292,-0.1555703143873965
0.93620112984991,1.661905685468633,-0.1681737665388332
1.01792861184518,1.654413823347151,-0.1790224192261722
-0.3398034406061104,1.523337633421783,-0.1578647936990812
-0.3358282747129477,1.592201123669877,-0.1687052897476245
-0.4179293138585593,1.58499325464895,-0.1794355684323488
0.9386725256743616,1.592201123669877,-0.1687052897476246
0.9426476915675242,1.523337633421783,-0.1578647936990812
1.02528489021509,1.516400825643136,-0.1682123901696046
-0.3513020324957211,1.394781434328445,-0.09693853548247972
-0.345310694062247,1.457114856703432,-0.1346256458542123
-0.4286513804202308,1.450538289287053,-0.1442241519997522
0.9481549450236607,1.457114856703432,-0.1346256458542123
0.9541462834571348,1.394781434328445,-0.09693853548247974
1.038279310735634,1.38828291410116,-0.1049600125517036
-0.3605988109999614,1.288824477587297,0.02297994610901384
-0.355653133240998,1.337035005944986,-0.04173147366179801
-0.4405056787965247,1.329487484169026,-0.04652702152147099
0.9584973842024117,1.337035005944986,-0.04173147366179801
0.9634430619613752,1.288824477587297,0.02297994610901383
1.036678153206864,1.28322651454787,0.01821227784114682
-0.3556917017801583,-1.128882836309076,0.06389559193430182
-0.3593627774437792,-1.093747004344842,0.1094622445807572
-0.4511834694999009,-1.093249866261191,0.1092771082326031
0.9622070284051927,-1.093747004344842,0.1094622445807572
0.958535952741572,-1.128882836309076,0.06389559193430182
1.03106782845772,-1.124795118497501,0.05663290743334497
-0.3494747537026927,-1.190943264797598,-0.04256243716879349
-0.3522804805601475,-1.155708539222161,0.01089827016820623
-0.4254798461343167,-1.148689060298484,0.006012998693428885
0.9551247315215612,-1.155708539222161,0.01089827016820623
0.9523190046641062,-1.190943264797598,-0.04256243716879347
1.038719637792169,-1.182462921679687,-0.04751146749963814
-0.3687887772493697,1.203785522193639,0.1214660996508123
-0.3661208585809394,1.257603821026703,0.08139714958575456
-0.4394772089396702,1.255490320156573,0.07349250284418596
0.968965109542353,1.257603821026703,0.08139714958575456
0.9716330282107832,1.203785522193639,0.1214660996508124
1.065037672896477,1.209950554824384,0.1196347122494921
-0.3434351284955641,-1.283192016773066,-0.126778258838698
-0.3473623399300727,-1.232822672359919,-0.08971785196425147
-0.4347591354697532,-1.225430350671752,-0.09751241002425481
0.9502065908914863,-1.232822672359919,-0.08971785196425147
0.9462793794569776,-1.283192016773066,-0.1267782588386979
1.034165356214082,-1.275844648778204,-0.1360917986928862
-0.3367654216968166,-1.4269172177236,-0.1740181638350407
-0.3395812517178347,-1.348506574332788,-0.15552420270894
-0.4281132934531413,-1.340841767934464,-0.1658116973226206
0.9424255026792483,-1.348506574332788,-0.15552420270894
0.9396096726582301,-1.4269172177236,-0.1740181638350407
1.028993122297016,-1.418920224700831,-0.1849857290287106
-0.3343798087781912,-1.586647604945247,-0.1612836797731747
-0.3350289303137062,-1.508270416018784,-0.1766045578203196
-0.424902184155271,-1.499941100262475,-0.1876790762245721
0.9378731812751199,-1.508270416018784,-0.1766045578203196
0.9372240597396051,-1.586647604945246,-0.1612836797731746
1.027273734038345,-1.578002217705681,-0.1718124383581884
-0.3355152321370376,-1.725291054272258,-0.0866689469023139
-0.3347928276284505,-1.660365186883517,-0.1297117043070813
-0.4253689251749374,-1.651438142017842,-0.1391620319121091
0.9376370785898643,-1.660365186883516,-0.1297117043070813
0.9383594830984514,-1.725291054272258,-0.08666894690231386
1.02979507080654,-1.716473248657165,-0.0944431393585808
-0.3365678972999851,-1.807719965271943,0.00834197138017694
-0.3350667423108814,-1.774844589608268,-0.04005986390594465
-0.426997628804824,-1.767221723552674,-0.04531010915954564
0.937910993272295,-1.774844589608268,-0.04005986390594464
0.9394121482613986,-1.807719965271943,0.008341971380176947
1.018424908467727,-1.801306294811098,0.003104728535941198
-0.4325548199789894,2.672741506760208,0.2547811584267661
-0.4300253803170046,2.771043179786031,0.2591778415820682
-0.4832648383001097,2.75970303222729,0.2612548760631303
1.032869631278419,2.77104317978603,0.2591778415820681
1.035399070940403,2.672741506760207,0.2547811584267661
1.085937026434428,2.662698124571246,0.2573412942866543
-0.3512881136409779,2.390927465398664,0.2465900091199286
-0.4010117185586246,2.534793718207166,0.2533586115683054
-0.4612589295093473,2.523461673596352,0.2560704298600457
1.003855969520038,2.534793718207166,0.2533586115683054
0.9541323646023916,2.390927465398664,0.2465900091199286
1.035163191358365,2.380020133504141,0.2495182892024526
-0.3352598111930411,2.067713506600136,0.1705903052990611
-0.3314321385870592,2.131615957076259,0.1973555301403949
-0.420160915383327,2.122947450106187,0.2018695653049189
0.9304705032881713,2.276422958643869,0.2330579297920073
0.9303158521956362,2.195371508456985,0.2164266054318131
1.021153234856618,2.186544859826221,0.2202428331194989
-0.3681221291775237,0.5863944574925386,0.1399998776175526
-0.3678682548544945,0.6603182446995825,0.1400445256786892
-0.466540807240879,0.6578468146482789,0.1459347234072809
0.9707125058159083,0.6603182446995825,0.1400445256786892
0.9709663801389374,0.5863944574925387,0.1399998776175526
1.069676208270489,0.5843180792603073,0.1458910710691944
-0.3683149023518217,0.3996138701193308,0.1399659766258942
-0.3682786541349186,0.4928033482910606,0.1399723512738836
-0.4670114644364376,0.4914515591928504,0.1458641586205809
0.9711229050963324,0.4928033482910606,0.1399723512738836
0.9711591533132356,0.3996138701193307,0.1399659766258942
1.069897285850589,0.3992480553047614,0.1458579261398053
-0.3682819501442532,0.2031453299012967,0.1399717714877418
-0.3682885405857669,0.3061886565514481,0.1399706125153723
-0.4670228024909674,0.3064181181453808,0.1458624586384751
0.9711327915471807,0.3061886565514482,0.1399706125153723
0.9711262011056669,0.2031453299012967,0.1399717714877418
1.069859495352829,0.2034399468575168,0.1458635917631426
-0.368240716950176,-0.0402348001852621,0.1399790228091884
-0.3682819501442531,0.08531552527787459,0.1399717714877418
-0.4670152443914154,0.08581341912290574,0.1458635917631426
0.9711262011056669,0.0853155252778746,0.1399717714877418
0.9710849679115898,-0.0402348001852621,0.1399790228091884
1.069812355033471,-0.03920596576809322,0.1458729859522424
-0.3677031505746648,-0.2614478785726242,0.140073562031133
-0.3680757841738676,-0.1542053673299996,0.1400080280949744
-0.4667795427946246,-0.152607086916498,0.1459105627086415
0.9709200351352814,-0.1542053673299996,0.1400080280949745
0.9705474015360784,-0.2614478785726242,0.140073562031133
1.069197329470585,-0.2593137684252385,0.1459901927596823
-0.3660121964797091,-0.5398018634593245,0.1403709689701798
-0.3670372800593957,-0.390966017903822,0.1401906713468369
-0.465590027754522,-0.3881847793991566,0.1461208291818497
0.9698815310208093,-0.390966017903822,0.1401906713468369
0.9688564474411228,-0.5398018634593245,0.1403709689701798
1.067258831080383,-0.5363221661432762,0.1462698895231753
-0.3632087285652292,-0.7856261067182321,0.1409808372972126
-0.3645814836320749,-0.6730358875199076,0.1406226340281765
-0.4627737982402762,-0.6690712521628031,0.1463632558032374
0.9674257345934887,-0.6730358875199076,0.1406226340281765
0.9660529795266428,-0.785626106718232,0.1409808372972126
1.063285704677307,-0.7813911476851763,0.1465198467944232
-0.3625691858547804,-1.017388866338233,0.135494696961957
-0.362867521580175,-0.9024080820388428,0.1415077412030452
-0.457018027102961,-0.8978547496600695,0.147051618021929
0.9657117725415885,-0.9024080820388428,0.1415077412030451
0.965413436816194,-1.017388866338233,0.135494696961957
1.061008756702311,-1.01626638751669,0.1420500209584914
-0.3031129096657541,-2.112492346129705,0.1516481584573163
-0.3229360664618242,-2.024066520753576,0.1491069406848704
-0.4229783871456379,-2.013093818820327,0.1534841136439115
0.9257803174232377,-2.024066520753576,0.1491069406848704
0.9059571606271677,-2.112492346129705,0.1516481584573164
1.000496263640295,-2.10157482465774,0.1560489369943448
-0.07390504589330214,-2.346921647254019,0.1912104624841841
-0.2200635167681429,-2.228658253166343,0.1627061852691076
-0.2968211891751807,-2.219951537004714,0.1675449061024091
0.8229077677295567,-2.228658253166343,0.1627061852691076
0.676749296854716,-2.346921647254019,0.191210462484184
0.7339155952289964,-2.336269293609542,0.1945153718924839
-0.3410729522743862,-1.857699973055415,0.1177203122749512
-0.3402993950093335,-1.829983598398872,0.06494863567822243
-0.4194261756853101,-1.820713580800878,0.05633090852958717
0.9431436459707471,-1.829983598398872,0.06494863567822244
0.9439172032358,-1.857699973055416,0.1177203122749512
1.044548534473694,-1.84180078595499,0.1144054596741224
0.1580800311758532,2.842518912957352,1.022293260299126
0.154623243810089,2.83697197219782,1.069298066171878
0.07648368802026735,2.836862150053966,1.069298066171909
0.4482210071513249,2.83697197219782,1.069298066171878
0.4447642197855606,2.842518912957351,1.022293260299125
0.5244778341721393,2.842416520592462,1.022293260299156
0.158146424549309,2.842418237821629,0.7690906142613636
0.1581331458746178,2.842542371327389,0.9164390973321448
0.07723272993687005,2.842439975922913,0.9164390973321741
0.444711105086796,2.842542371327388,0.9164390973321449
0.4446978264121048,2.842418237821629,0.7690906142613637
0.5258949427376449,2.842315858501584,0.7690906142613913
0.1519679526834128,2.830288140417106,0.2792707163470918
0.16492070739147,2.8437962849102,0.3161020015912976
0.08573488267019641,2.843693727031589,0.3161020015913157
0.4379235435699439,2.843796284910199,0.3161020015912976
0.450876298278001,2.830288140417106,0.2792707163470918
0.5331095171368,2.83017205436991,0.2792707163471088
0.1581341617739663,2.84245994174333,0.5972051232556307
0.158146424549309,2.842369457902918,0.6581077368644325
0.07694930822376896,2.842267084903464,0.6581077368644585
0.4446978264121049,2.842369457902917,0.6581077368644326
0.4447100891874474,2.84245994174333,0.5972051232556306
0.5259119193769655,2.842357557019556,0.597205123255655
0.1625068939125615,2.843780474997207,0.3602618781175259
0.1598685821604533,2.843090490579518,0.4104195940916438
0.07913587999159728,2.84298802415324,0.4104195940916636
0.4429756688009606,2.843090490579518,0.4104195940916438
0.4403373570488524,2.843780474997206,0.3602618781175259
0.520292989577694,2.843677919167144,0.3602618781175448
0.1583289874370153,2.842603046641903,0.4734570389959055
0.1580605851219106,2.842523829064846,0.5410129930352399
0.07683047174852481,2.842421436062959,0.5410129930352624
0.4447836658395031,2.842523829064847,0.5410129930352399
0.4445152635243986,2.842603046641903,0.4734570389959055
0.5256817200231111,2.842500643375506,0.4734570389959265
-0.4039233494799587,2.828993808352275,1.028548182712683
-0.3719246951908182,2.817003204430727,1.072541868194221
-0.4300187760733676,2.790332657476198,1.078125425256251
0.974768946152232,2.817003204430727,1.072541868194221
1.006767600441373,2.828993808352275,1.028548182712683
1.065010652031972,2.802832735274648,1.04010011801708
-0.4294083694750693,2.833092202706261,0.7723008348088246
-0.4224888589917787,2.832376155548388,0.9228264346907579
-0.4838808835626117,2.811142544170095,0.9331774307361866
1.025333109953192,2.832376155548388,0.922826434690758
1.032252620436483,2.833092202706261,0.7723008348088247
1.098056995940475,2.813094732274968,0.7773485977209738
-0.4229687367010167,2.821685640025818,0.2787107877370877
-0.4240560194379178,2.834818184747004,0.3155465705294996
-0.4926474285830923,2.814640127763994,0.3147075392543745
1.026900270399332,2.834818184747004,0.3155465705294996
1.025812987662431,2.821685640025818,0.2787107877370877
1.087007426360791,2.804650265142437,0.2787385519621508
-0.4317161002396096,2.833133759553044,0.5972051232556722
-0.4312308759593377,2.833043594816994,0.6587497809739598
-0.4999353376138105,2.813047728713969,0.6597980572798907
1.034075126920752,2.833043594816994,0.6587497809739598
1.034560351201024,2.833133759553044,0.5972051232556723
1.103992837972545,2.813134917516751,0.5972844747713078
-0.4280871881219633,2.834520194722178,0.3601507919051925
-0.43076811159155,2.833762084667478,0.4104195940916777
-0.5002063138336275,2.813742504439146,0.4110465094932656
1.033612362552964,2.833762084667478,0.4104195940916776
1.030931439083377,2.834520194722178,0.3601507919051925
1.100145984925727,2.814450868757231,0.3604244844103142
-0.4318935134841362,2.833276359771474,0.4734570389959415
-0.4318936861948379,2.833197421566671,0.5410129930352785
-0.5013441944429282,2.81319647833303,0.5412489052323497
1.034737937156252,2.833197421566671,0.5410129930352785
1.03473776444555,2.833276359771474,0.4734570389959414
1.104208638696092,2.813272811141975,0.4739633952624598
-0.3656557797700403,2.466354523393366,0.6924394536418734
-0.3700586025754581,2.331176731971735,0.6780166694461023
-0.4267395336570681,2.292806467712521,0.8946046943636425
0.1416570157485154,0.635786101366011,0.5118645199210204
0.1409293746269847,0.7386245378877587,0.4952758579174644
0.2477626346431772,0.7386828776002293,0.4952758579174488
0.1406749502441854,0.817353203672117,0.4963186938121186
0.1406753320105343,0.9142304500139269,0.4980213383066976
0.24767769748946,0.9143066706581917,0.4980213383066826
0.1497016071635717,-2.016039857068826,0.9583208747895056
0.1484701197541922,-1.932389563536231,0.9815154570659687
0.2502838235561299,-1.932603197702009,0.9815154570659463
0.1766946092083622,2.743877309528025,1.053988254302358
0.200590795833553,2.805015599655087,1.090826137060471
0.2677099622798281,2.805137069010493,1.090826137060445
0.1531546353274522,2.650600696214842,0.6435603836457928
0.1582082679015123,2.701257197083786,0.876250107535069
0.2535396969118171,2.70150097257374,0.8762501075350488
0.1505225482226848,2.168737788884158,0.5034143627396078
0.1511822519638479,2.247626775135604,0.5038101124420298
0.2511906036610262,2.247838767796043,0.5038101124420121
0.1488208251258933,2.030474580645153,0.5025324568893659
0.1497224657339209,2.097757174470059,0.5030178114467765
0.2507025355993046,2.097953906778074,0.5030178114467603
0.1470897042514284,1.900426686931292,0.5004848616868186
0.1479267535900425,1.96551637705037,0.5016277798164248
0.2501021533464068,1.965699644044774,0.5016277798164089
0.1453578041799187,1.764730402360671,0.499783879461061
0.1462370074827366,1.833421321445647,0.4998269672135882
0.2495372000056456,1.833591137966485,0.4998269672135728
0.1437221139557541,1.629533993525907,0.4999085038601872
0.1445030457621925,1.696598362053114,0.4998918998448521
0.2489574635218402,1.696754246685356,0.4998918998448368
0.1425381222351363,1.49395044552066,0.499747394580109
0.1430628207937783,1.562310450408157,0.4998123410819036
0.2484759356142833,1.562452661281014,0.4998123410818882
0.1417363119142148,1.327668559303159,0.5003992074006732
0.1421261181643962,1.4237262508759,0.5000229809201803
0.2481627564464302,1.423854350523289,0.5000229809201645
0.1408637347698769,1.034072709914217,0.49961177906877
0.1412637207674185,1.182728941063233,0.5003577252563163
0.2478744206494843,1.182832501351971,0.5003577252563012
0.1436476636807464,0.4471153902212336,1.098117952143041
0.1427200673184635,0.520476167611507,0.6835620166777487
0.2483613386815848,0.520512294540348,0.6835620166777283
0.1447212125308921,0.2955455341813313,1.543643888038889
0.1442984260177977,0.3854002868924987,1.448557310366996
0.2488890505172582,0.3854226598276311,1.448557310366963
0.1450116262597588,0.05891831092395818,1.549612069763297
0.1449702010315645,0.1817258903467993,1.549217926041953
0.2491136532174074,0.1817275242991258,1.549217926041922
0.1441067957687155,-0.1442337390562937,1.537647123537895
0.1447237798838272,-0.04709805127614861,1.547651369093911
0.2490312642419,-0.04711971713897649,1.547651369093878
0.1423879389088302,-0.4360701651013256,1.450057960113156
0.143282649975963,-0.2740889908330654,1.505396882212456
0.2485494337749449,-0.2741337698670756,1.505396882212421
0.1409587464578646,-0.7153776710952451,1.312291952360928
0.1415738793122986,-0.5873897404342097,1.38414743811391
0.2479781197231724,-0.587466421066897,1.384147438113879
0.1405791666980061,-0.9517792272500274,1.153602013048127
0.1406278741435389,-0.8374813870383516,1.231227694272716
0.2476618303243347,-0.8375835330532713,1.231227694272687
0.1409934704210775,-1.09281021722537,1.096946722593119
0.1407230989806241,-1.036980439749351,1.10797341566636
0.2476936680007773,-1.037102899596025,1.107973415666334
0.1417519457892162,-1.192605232100191,1.096008300288624
0.1413474050193776,-1.140009697037109,1.097173067780608
0.2479023998219226,-1.140142647755645,1.097173067780583
0.1426343306438609,-1.334973490912541,1.083872188023417
0.142184054757966,-1.257908390886846,1.091512984284554
0.2481821270914923,-1.258053346545749,1.09151298428453
0.1436024197812594,-1.491201007959961,1.066957969474016
0.1431070088559962,-1.414597598735983,1.075395483847863
0.2484907095458603,-1.41475850914837,1.075395483847839
0.1446706496376825,-1.62902166279467,1.048226324778568
0.1441169887843306,-1.562827239231349,1.058000267991473
0.2488283884031438,-1.563003243008527,1.05800026799145
0.1460377006120985,-1.750427254296176,1.025669860416459
0.1453068445215807,-1.690831498492105,1.037603407502371
0.2492262073245054,-1.691020536200778,1.037603407502347
0.1476089342147831,-1.868847567515682,0.9980920812497521
0.1468275602150068,-1.810421072744518,1.012196728998316
0.2497346466738457,-1.810622287566106,1.012196728998293
0.1570538634237219,-2.202098654262801,0.9042809530307223
0.1515158750820985,-2.109544812217014,0.9303414920791057
0.2513021479305445,-2.109776485074539,0.9303414920790827
0.5660855767116076,0.6357230519927867,0.5118645199210423
0.567290971373838,0.7385476961250338,0.495275857917485
0.6756423454633416,0.7384734674608611,0.4952758579175027
0.567712445344856,0.8172658030516333,0.4963186938121387
0.5677118129189174,0.9141300565012867,0.4980213383067174
0.676224960321913,0.9140330769933914,0.4980213383067345
0.5527590792603173,-2.015747251321849,0.9583208747895357
0.5547991348673277,-1.932108176721288,0.9815154570659984
0.6521983551925314,-1.931836358810713,0.9815154570660241
0.5080430515103734,2.743626414345201,1.05398825430239
0.4684571417076467,2.80485560710471,1.090826137060506
0.1343871092537681,2.80485560710471,1.090826137060506
0.548426960653032,2.804701055297581,1.090826137060536
-0.04332593789202512,2.649945488688972,0.6435603836458355
0.5470388669274622,2.650267425817236,0.6435603836458157
-0.03080343379570509,2.700625941532897,0.8762501075351187
0.5386671276876132,2.700936109824972,0.8762501075350957
0.06417712327380512,2.700936109824973,0.8762501075350957
0.6336476847571186,2.700625941532898,0.8762501075351188
-0.05079735480004009,2.168209635750253,0.5034143627396497
0.5513991259242841,2.168469144526481,0.5034143627396303
-0.04928440706226583,2.247077821080888,0.5038101124420732
0.5503062748680127,2.247347550418459,0.5038101124420531
0.05253797609340609,2.247347550418459,0.5038101124420531
0.6521286580236796,2.247077821080888,0.5038101124420732
-0.05470004315689211,2.029982883830211,0.5025324568894052
0.5542181638768828,2.030224479743458,0.502532456889387
-0.05263224357795423,2.097247737030315,0.5030178114468167
0.5527245254004314,2.09749804982421,0.503017811446798
0.05011972556098746,2.09749804982421,0.503017811446798
0.6554764945393681,2.097247737030315,0.5030178114468167
-0.05867015162742768,1.899969280276074,0.5004848616868567
0.5570859015569165,1.900194027671694,0.500484861686839
-0.05675048401870837,1.965041807980546,0.5016277798164636
0.5556992635908455,1.96527498815243,0.5016277798164456
0.04714498737057322,1.96527498815243,0.5016277798164456
0.6595947349801221,1.965041807980546,0.5016277798164636
-0.06264204708859644,1.764308775195139,0.4997838794610985
0.5599549300380482,1.764515942288785,0.4997838794610811
-0.06062570465328331,1.832981582317516,0.4998269672136257
0.5584984607197631,1.833197648749152,0.4998269672136083
0.04434579024165567,1.833197648749152,0.4998269672136083
0.663469955614697,1.832981582317516,0.4998269672136257
-0.0663932973391806,1.629148014046171,0.4999085038602247
0.5626645793513287,1.629337665599868,0.4999085038602074
-0.06460232824777622,1.696194699488762,0.4998918998448895
0.5613709044844294,1.696393039650656,0.4998918998448721
0.04147334647698947,1.696393039650656,0.4998918998448722
0.6674465792091903,1.696194699488761,0.4998918998448895
-0.06910863375988052,1.493600215804991,0.4997473945801478
0.5646259546198887,1.493772301662439,0.4997473945801298
-0.06790530346511645,1.561942195983131,0.4998123410819418
0.5637567502509322,1.562123138306567,0.4998123410819242
0.03908750071048674,1.562123138306567,0.4998123410819241
0.6707495544265305,1.561942195983131,0.4998123410819419
-0.07094748510400602,1.327362173684268,0.5003992074007112
0.5659542163856982,1.327512716683841,0.5003992074006937
-0.07005351338975971,1.423394537406686,0.500022980920219
0.5653084717193107,1.423557525280708,0.500022980920201
0.0375357792421081,1.423557525280709,0.5000229809202011
0.6728977643511737,1.423394537406686,0.5000229809202191
-0.07294863127642567,1.033843737687291,0.4996117790688065
0.5673997089520838,1.033956243509154,0.4996117790687896
-0.07203131358916351,1.182460772154494,0.5003577252563533
0.5667371007347399,1.182592537320431,0.500357725256336
0.03610715022667886,1.182592537320431,0.500357725256336
0.6748755645505774,1.182460772154494,0.5003577252563533
-0.06297640105337725,0.4470411829787463,1.098117952143109
0.562787912078741,0.447077644810456,1.098117952143077
-0.06756382197021096,0.5203826170893766,0.6835620166777986
0.5643245483005204,0.5204285832684168,0.6835620166777755
0.03851970266089839,0.5204285832684167,0.6835620166777755
0.6704080729316247,0.5203826170893766,0.6835620166777987
-0.05795175246124253,0.2955112918658011,1.543643888038969
0.5610094940986153,0.2955281168751181,1.543643888038932
-0.05943388007633281,0.3853423522761226,1.448557310367076
0.5617098731605831,0.3853708185303814,1.448557310367039
0.0411343778008356,0.3853708185303814,1.448557310367039
0.6622781310377466,0.3853423522761226,1.448557310367076
-0.05728572502090575,0.05894646089367565,1.549612069763374
0.560528400949457,0.0589326293669404,1.549612069763338
-0.05738072858291793,0.1817216592344897,1.549217926042029
0.5605970250932409,0.1817237381974028,1.549217926041994
0.04224722586817787,0.1817237381974028,1.549217926041994
0.6602249795443317,0.1817216592344896,1.549217926042029
-0.05936084019621101,-0.1441520233113584,1.53764712353798
0.5620273237176376,-0.1441921744561781,1.537647123537941
-0.05794586455948783,-0.0470419476203738,1.547651369093992
0.5610052410768543,-0.04706951422959574,1.547651369093955
0.04183900988456436,-0.04706951422959573,1.547651369093954
0.6607901155209017,-0.0470419476203738,1.547651369093992
-0.06330282268843748,-0.4359114998774201,1.450057960113238
0.5648747450943805,-0.4359894602556551,1.4500579601132
-0.06125091514188694,-0.2739730357229446,1.505396882212542
0.5633925859466243,-0.2740300104274247,1.505396882212502
0.03945166501479442,-0.2740300104274247,1.505396882212502
0.6640951661033008,-0.2739730357229446,1.505396882212541
-0.06658049621158638,-0.7151453599342991,1.312291952361
0.5672423146293042,-0.7152595063460321,1.312291952360967
-0.06516976620889478,-0.5871911762756933,1.384147438113986
0.56622329874722,-0.58728874105089,1.384147438113951
0.03662095221419867,-0.58728874105089,1.384147438113951
0.6680140171703085,-0.5871911762756933,1.384147438113986
-0.06745101475369814,-0.9514845833062284,1.153602013048194
0.5678711183113469,-0.9516293570174295,1.153602013048163
-0.06733931034013546,-0.8372168803853992,1.231227694272785
0.5677904306026413,-0.8373468460968661,1.231227694272753
0.03505382035877727,-0.8373468460968659,1.231227694272753
0.6701835613015491,-0.8372168803853992,1.231227694272785
-0.06650086115980239,-1.092478387172404,1.09694672259318
0.5671847916572377,-1.092641432330015,1.096946722593152
-0.06712092412696358,-1.036663330519095,1.107973415666425
0.5676326831816425,-1.036819142580012,1.107973415666395
0.03521156777977615,-1.036819142580012,1.107973415666395
0.6699651750883773,-1.036663330519095,1.107973415666425
-0.06476139309136336,-1.192247088764461,1.096008300288684
0.5659283176439709,-1.192423062990121,1.096008300288656
-0.06568915657726644,-1.139665421740658,1.097173067780668
0.5665984711993283,-1.139834581885949,1.09717306778064
0.03624577976209054,-1.139834581885949,1.09717306778064
0.6685334075386804,-1.139665421740658,1.097173067780668
-0.06273775416621881,-1.334577808865532,1.083872188023476
0.5644665778352254,-1.33477222778914,1.083872188023449
-0.06377040540105648,-1.257533028850517,1.091512984284614
0.5652124952020821,-1.257717463508642,1.091512984284586
0.03763175575933678,-1.257717463508642,1.091512984284586
0.6666146563624702,-1.257533028850517,1.091512984284614
-0.06051756322443573,-1.490764132885063,1.066957969474074
0.5628628621514163,-1.490978792060163,1.066957969474047
-0.061653726007633,-1.414180921936217,1.075395483847921
0.563683549255612,-1.414385656660765,1.075395483847894
0.03916070170580671,-1.414385656660765,1.075395483847894
0.6644979769690469,-1.414180921936217,1.075395483847921
-0.05806771211119381,-1.628548448090327,1.048226324778626
0.5610932555021126,-1.62878096279285,1.048226324778599
-0.05933746379411768,-1.562371478230346,1.058000267991532
0.5620104381867751,-1.56259541703148,1.058000267991504
0.04083381277464366,-1.56259541703148,1.058000267991504
0.6621817147555316,-1.562371478230346,1.058000267991532
-0.05493255226577826,-1.749922028176615,1.025669860416516
0.5588286282032988,-1.750170271732486,1.02566986041649
-0.05660867898720332,-1.690341986183256,1.037603407502429
0.56003934871414,-1.690582508736399,1.037603407502402
0.04280490224727868,-1.690582508736399,1.037603407502402
0.659452929948617,-1.690341986183257,1.037603407502429
-0.05132912518727547,-1.86831111711913,0.9980920812498075
0.5562257563455227,-1.868574702766888,0.9980920812497818
-0.05312110839360539,-1.809900027855743,1.012196728998372
0.5575201637404135,-1.810156043985848,1.012196728998346
0.04532408722100529,-1.810156043985848,1.012196728998346
0.6559653593550194,-1.809900027855743,1.012196728998372
-0.02966836538180801,-2.20147433444627,0.9042809530307844
0.5405794893648326,-2.201781094855632,0.9042809530307556
-0.04236904662776763,-2.108944896379162,0.9303414920791622
0.5497536019719429,-2.10923966585969,0.930341492079136
0.05309064898947589,-2.10923966585969,0.930341492079136
0.6452132975891813,-2.108944896379162,0.930341492079162
-0.4027194122738498,0.6335160584360329,0.682799089778006
1.005563663235264,0.6335160584360329,0.6827990897780061
1.010060250772461,0.7358633270171296,0.669107623873717
-0.4072159998110474,0.7358633270171295,0.669107623873717
-0.4547132368472251,0.6283939914341437,0.8843312607374037
1.064143565325055,0.728343660897133,0.884657326026191
-0.408263910341455,0.8142125736967392,0.6701504597683702
1.011108161302869,0.8142125736967394,0.6701504597683702
1.011106588902563,0.9106229370079368,0.6718531042629483
-0.4082623379411491,0.9106229370079366,0.6718531042629483
-0.462439370837498,0.805650251640969,0.8857683509162934
1.065268176521077,0.9013875256778617,0.8875450588233785
-0.327553851129195,-2.005880388962416,0.9581547884215648
0.9303981020906088,-2.005880388962416,0.9581547884215647
0.9396274596096672,-1.922278286742687,0.9815154570660422
-0.3367832086482534,-1.922278286742687,0.981515457066042
-0.4298771706760955,-2.000050139879108,0.9545447425310177
1.047830419970111,-1.916314501878682,0.9781391979260825
-0.3198065191518908,2.721583785552217,1.066996536987597
0.9226507701133045,2.721583785552217,1.066996536987596
0.9409778399886627,2.783189712951784,1.09161089778073
-0.338133589027249,2.783189712951784,1.09161089778073
-0.3987857033709964,2.690363935229646,1.081836648921157
1.008693191179369,2.756912254988749,1.091250070592377
-0.3509830890790859,2.590350682134735,0.776831404212271
0.9538273400404997,2.590350682134735,0.776831404212271
0.9308172132525896,2.660831641610293,0.9414311998163998
-0.3279729622911757,2.660831641610293,0.9414311998163998
-0.4155299089585226,2.511935789643845,0.9425544313564649
1.006509561792142,2.607906798360562,1.021657798321141
-0.3743583584793511,2.159084396062108,0.6772461286958653
0.977202609440765,2.159084396062108,0.6772461286958653
0.9749384456651465,2.234177551409881,0.6776418783982894
-0.3720941947037327,2.234177551409881,0.6776418783982894
-0.430701592494942,2.143147520032604,0.8937389979339941
1.031448290598711,2.213534748343922,0.8941803049287995
-0.3807832108469338,2.021487523295272,0.6763642228456201
0.9836274618083475,2.021487523295272,0.67636422284562
0.9801403248250092,2.08844586036745,0.6768495774030316
-0.3772960738635955,2.08844586036745,0.6768495774030318
-0.4373871113625008,2.006290908076184,0.8928976079677874
1.036506532606375,2.072889365751414,0.8933308566761403
-0.3866940461948363,1.892066372774823,0.674316627643071
0.9895382971562501,1.892066372774823,0.674316627643071
0.986880769680085,1.956842374458983,0.6754595457726782
-0.3840365187186712,1.956842374458983,0.6754595457726782
-0.442848078118167,1.877564603789848,0.8909665460822537
1.043492013478856,1.941992849766749,0.8920795946854557
-0.3916949639148278,1.757024052834443,0.6736156454173127
0.9945392148762415,1.757024052834443,0.6736156454173127
0.9920358111613704,1.825383927988167,0.6736587331698399
-0.3891915601999567,1.825383927988167,0.6736587331698399
-0.4461716789668345,1.74324687481763,0.8898380010675151
1.04741963432601,1.81124003140955,0.890159466232373
-0.3963756813022897,1.6224791995658,0.673740269816439
0.9992199322637033,1.6224791995658,0.673740269816439
0.9969445477379265,1.689220363039124,0.6737236658011037
-0.3941002967765128,1.689220363039124,0.6737236658011035
-0.4494132264329417,1.609423304165496,0.8897543178849945
1.05057789210659,1.675806757133576,0.8897604383768919
-0.4005899699439314,1.487549072876541,0.6735791605363625
1.003434220905345,1.487549072876541,0.6735791605363624
1.001405574051065,1.555579628616175,0.6736441070381563
-0.3985613230896512,1.555579628616175,0.6736441070381563
-0.4536232608410209,1.475216027260418,0.8897234154281681
1.054261922637889,1.542882144410127,0.8897164312515924
-0.4038924265302019,1.322068553274052,0.6742309733569256
1.006736677491616,1.322068553274052,0.6742309733569256
1.00513116283972,1.417663311517778,0.6738547468764337
-0.4022869118783057,1.417663311517779,0.6738547468764338
-0.4574200062469206,1.31062310866408,0.890350310443477
1.058419575972134,1.405704823005534,0.890031752657916
-0.4074863539992769,1.029887637991036,0.6734435450250202
1.010330604960691,1.029887637991036,0.6734435450250202
1.008683162470204,1.177827446302505,0.6741894912125672
-0.4058389115087898,1.177827446302505,0.6741894912125673
-0.4615369108088869,1.020011762865843,0.8892426681928778
1.062495246893508,1.167156814100229,0.8901523166222027
-0.3435284937477791,0.4456147314716526,1.170547854624882
0.9463727447091929,0.4456147314716526,1.170547854624882
0.9861890654363961,0.5187174007546048,0.8255246255420464
-0.3833448144749822,0.5187174007546048,0.8255246255420464
-0.396307091300168,0.4435623412886002,1.239037060091889
1.036884248017691,0.5161349534734513,0.9806223348997637
-0.3015649944734106,0.294792939829836,1.543643888038994
0.9044092454348243,0.2947929398298359,1.543643888038994
0.9136800539493939,0.3841530324312326,1.463043290863453
-0.3108358029879803,0.3841530324312326,1.463043290863453
-0.3563647602945888,0.2901280121349106,1.520783572099112
0.9682027916786795,0.3810104618009499,1.458980702733997
-0.3003394139185833,0.05953700471989878,1.5496120697634
0.9031836648799968,0.05953700471989878,1.5496120697634
0.9033584842811055,0.1816328968915441,1.549217926042054
-0.300514233319692,0.1816328968915441,1.549217926042054
-0.3549591011375537,0.05442006424355891,1.525980543604673
0.9580060054496418,0.1762752043913242,1.52578833596432
-0.3041579064518557,-0.1424377504654817,1.537647123538009
0.9070021574132694,-0.1424377504654817,1.537647123538009
0.9043984108993944,-0.04586497770209812,1.547651369094019
-0.3015541599379809,-0.04586497770209812,1.547651369094019
-0.3593010056459414,-0.1474860816785046,1.514389264771587
0.9591842024266251,-0.05086156906249094,1.523988625793195
-0.3114116872983294,-0.4325829432427724,1.450057960113265
0.9142559382597435,-0.4325829432427725,1.450057960113264
0.9104801509016681,-0.2715404727353237,1.50539688221257
-0.3076358999402541,-0.2715404727353237,1.50539688221257
-0.367533732849645,-0.4354016029866159,1.431195395355677
0.9660967637679921,-0.2758620851537346,1.483707394250226
-0.3187181362416143,-0.7102718228285074,1.312291952361024
0.9215623872030281,-0.7102718228285072,1.312291952361024
0.9176913667977561,-0.5830256002850522,1.384147438114011
-0.3148471158363422,-0.5830256002850522,1.384147438114012
-0.3766326398687231,-0.7106274906006652,1.301016666247228
0.9742571874147679,-0.5845200706247654,1.368833096630695
-0.3338862021906107,-0.9453815116235774,1.153602013048216
0.9367304531520244,-0.9453815116235775,1.153602013048216
0.9280590535399429,-0.8316679305086013,1.231227694272808
-0.3252148025785291,-0.8316679305086014,1.231227694272808
-0.4030581003448709,-0.9416660519753175,1.151114778499436
0.990253855880988,-0.8301284325316618,1.224558612006414
-0.3474308933880075,-1.086382306781003,1.0969467225932
0.9502751443494214,-1.086382306781004,1.096946722593201
0.9444847066619371,-1.030401423134458,1.107973415666446
-0.3416404557005234,-1.030401423134458,1.107973415666446
-0.4383025305969235,-1.083239210399372,1.095100939554187
1.024786067280136,-1.026078399963967,1.107091080592271
-0.3562209937864629,-1.186059217158118,1.096008300288704
0.9590652447478766,-1.186059217158118,1.096008300288704
0.9551003061512934,-1.133644589081716,1.097173067780688
-0.3522560551898796,-1.133644589081716,1.097173067780688
-0.459468895187297,-1.184030765239459,1.092745317374471
1.05247656485826,-1.131568486434031,1.094192512432875
-0.3590312439631316,-1.327741356921393,1.083872188023495
0.9618754949245454,-1.327741356921393,1.083872188023495
0.9613815255630009,-1.251047658734757,1.091512984284633
-0.3585372746015872,-1.251047658734757,1.091512984284633
-0.4689863561031404,-1.324947418160536,1.080848697745783
1.068915792750039,-1.248668222090317,1.088336270763688
-0.3563684623322901,-1.483215962636403,1.066957969474093
0.9592127132937041,-1.483215962636403,1.066957969474093
0.960988280064438,-1.406981730213004,1.07539548384794
-0.3581440291030242,-1.406981730213003,1.07539548384794
-0.4672802166156381,-1.479581080849705,1.064051173885726
1.071890526576526,-1.403759300523315,1.072472332226554
-0.3521276344833592,-1.620372414808057,1.048226324778645
0.9549718854447733,-1.620372414808057,1.048226324778645
0.9570933320024653,-1.554497003750248,1.058000267991551
-0.3542490810410514,-1.554497003750249,1.058000267991551
-0.4627337125683834,-1.615994732732913,1.045288020608201
1.067757325164058,-1.550476235408607,1.055083488176946
-0.347962912452791,-1.741192913187768,1.025669860416535
0.950807163414205,-1.741192913187768,1.025669860416535
0.9529873347386084,-1.681884368758213,1.037603407502448
-0.3501430837771945,-1.681884368758214,1.037603407502448
-0.4593317532735893,-1.736159438485749,1.022581188576357
1.063939215960851,-1.677173033619507,1.034603996741817
-0.3416547528384842,-1.85904252031467,0.9980920812498257
0.9444990037998982,-1.85904252031467,0.9980920812498257
0.947977780340177,-1.800897601867945,1.01219672899839
-0.3451335293787631,-1.800897601867946,1.01219672899839
-0.4520833419615086,-1.853379077119658,0.9948467529622969
1.059267575809595,-1.795539508860378,1.009029491208339
-0.2707035437787288,-2.194473705884171,0.9026044016132805
0.8735477947401427,-2.194473705884171,0.9026044016132806
0.9105656669011523,-2.101064393572785,0.9291788875030758
-0.3077214159397385,-2.101064393572785,0.9291788875030758
-0.3309213303298859,-2.195069730687181,0.8992707752466703
0.9970048652282026,-2.097831634713442,0.9252163834507476
-0.4911371898430769,0.6177618710909261,1.017306918880842
1.093981440804491,0.6177618710909261,1.017306918880842
-0.499337352706331,0.7067925378743715,1.030034770742691
1.102181603667745,0.7067925378743714,1.030034770742691
-0.5320170117369103,0.6753504281487226,1.031821505545918
1.134861262698324,0.6753504281487227,1.031821505545918
-0.5002844810222094,0.7810968841528989,1.031443233809396
1.103128731983623,0.7810968841528989,1.031443233809396
-0.5002094153066257,0.8758002871776246,1.033543003908904
1.10305366626804,0.8758002871776247,1.033543003908904
-0.5322365505843948,0.8387154376637862,1.036046676387474
1.135080801545809,0.8387154376637862,1.036046676387474
-0.5011283691762387,-2.017046913964962,0.9392572071629917
1.103972620137653,-2.017046913964962,0.9392572071629917
-0.5216984531040109,-1.931494896339867,0.9634120655536572
1.124542704065425,-1.931494896339866,0.9634120655536572
-0.5536134320359594,-1.966628491027314,0.9298708580427892
1.156457682997373,-1.966628491027314,0.9298708580427892
-0.4583847739891315,2.667385277602723,1.086991578325077
1.061229024950545,2.667385277602723,1.086991578325077
-0.4523731630427109,2.744900737427128,1.086117723808016
1.055217414004125,2.744900737427128,1.086117723808016
-0.4878188981203971,2.752063618687234,1.051542061926892
1.090663149081811,2.752063618687234,1.051542061926892
-0.4624983813419599,2.439416293359138,1.056052987515028
1.065342632303374,2.439416293359138,1.056052987515027
-0.4601042567554362,2.559296765108466,1.073544576097325
1.06294850771685,2.559296765108466,1.073544576097325
-0.4962760308318917,2.528986459958485,1.053235365763238
1.099120281793306,2.528986459958485,1.053235365763238
-0.4706005296470133,2.112960156229702,1.04323050675042
1.073444780608427,2.112960156229702,1.04323050675042
-0.4687008751018967,2.179987181263913,1.043870533170369
1.07154512606331,2.179987181263913,1.043870533170369
-0.5004253834686219,2.140865811534846,1.050780232782376
1.103269634430036,2.140865811534846,1.050780232782376
-0.4771151766242897,1.976617828572479,1.042565845750411
1.079959427585703,1.976617828572479,1.042565845750411
-0.4734260029110463,2.042967554533304,1.042771810442741
1.07627025387246,2.042967554533304,1.042771810442741
-0.5048271779113561,2.00481230004505,1.049393793986621
1.10767142887277,2.00481230004505,1.049393793986621
-0.4821411880086247,1.84836901410419,1.041143098397127
1.084985438970039,1.84836901410419,1.041143098397127
-0.4802797246700885,1.912558355251137,1.042125857099278
1.083123975631502,1.912558355251137,1.042125857099278
-0.5113417793288811,1.874508045085732,1.049546210964545
1.114186030290295,1.874508045085732,1.049546210964545
-0.4838491825218789,1.71454761798636,1.038149538426543
1.086693433483292,1.71454761798636,1.038149538426543
-0.4831541200799325,1.782289862211004,1.039685276794652
1.085998371041346,1.782289862211004,1.039685276794652
-0.5140075263537624,1.744340197800019,1.046617196413399
1.116851777315176,1.744340197800019,1.046617196413399
-0.4863910580100578,1.581215764005304,1.037157224359388
1.089235308971472,1.581215764005304,1.037157224359388
-0.484833145170165,1.647355661180457,1.037262468411488
1.087677396131579,1.647355661180457,1.037262468411487
-0.5154750830781925,1.609505909014732,1.041544846105541
1.118319334039606,1.609505909014732,1.041544846105541
-0.4908425184048225,1.447499438476826,1.037694279823536
1.093686769366236,1.447499438476826,1.037694279823536
-0.4884862511763899,1.514918091134713,1.037373536371361
1.091330502137804,1.514918091134713,1.037373536371361
-0.5201616378978337,1.477162596053123,1.04205063455697
1.123005888859247,1.477162596053123,1.04205063455697
-0.4949206350804567,1.283513368577386,1.038212484184129
1.097764886041871,1.283513368577386,1.038212484184129
-0.4929441170318443,1.378243233174111,1.038145475367053
1.095788367993258,1.378243233174111,1.038145475367053
-0.5248484528296713,1.340584889281063,1.043527883493567
1.127692703791085,1.340584889281063,1.043527883493567
-0.4992785893971264,0.9939838679134525,1.035708079252525
1.102122840358541,0.9939838679134524,1.035708079252525
-0.4972876668887083,1.140580984234638,1.037331791527185
1.100131917850122,1.140580984234638,1.037331791527185
-0.5292660169879954,1.103175328860417,1.041387749960308
1.132110267949409,1.103175328860418,1.041387749960308
-0.4895903723210436,0.4382557112089549,1.216548043291412
1.092434623282457,0.4382557112089549,1.216548043291412
-0.498445517466675,0.5083800351939309,1.092094507911382
1.101289768428089,0.5083800351939309,1.092094507911382
-0.5413003536244203,0.5012470332169088,1.029149694965472
1.144144604585834,0.5012470332169088,1.029149694965472
-0.5197653981567072,0.2476460486610745,1.259068999819655
1.122609649118121,0.2476460486610745,1.259068999819655
-0.5209579131046533,0.3596312220311704,1.240656927385092
1.123802164066067,0.3596312220311704,1.240656927385092
-0.5459543747360153,0.3542328074628185,1.144245867788629
1.148798625697429,0.3542328074628185,1.144245867788629
-0.5183623113629947,-0.006345975705986905,1.256022254445448
1.121206562324409,-0.006345975705986903,1.256022254445448
-0.5185875494467261,0.1199173542689876,1.257988607258304
1.12143180040814,0.1199173542689876,1.257988607258304
-0.5441794092967612,0.1051286148597133,1.152796860735484
1.147023660258175,0.1051286148597133,1.152796860735484
-0.5222937294027961,-0.2190680209611903,1.248425227911024
1.12513798036421,-0.2190680209611903,1.248425227911024
-0.5196082532097064,-0.1163682363802407,1.253696646448137
1.12245250417112,-0.1163682363802407,1.253696646448137
-0.545095077430872,-0.1337780547910865,1.148057910597714
1.147939328392286,-0.1337780547910865,1.148057910597714
-0.5295825897102424,-0.4997408917096346,1.21221408580705
1.132426840671656,-0.4997408917096346,1.21221408580705
-0.5258368794699396,-0.3470582207472768,1.234508183056357
1.128681130431354,-0.3470582207472767,1.234508183056357
-0.550770577557145,-0.3661786748434532,1.134673147174227
1.153614828518559,-0.3661786748434532,1.134673147174227
-0.5352933475175279,-0.765240838941726,1.16313824602625
1.138137598478942,-0.7652408389417259,1.16313824602625
-0.5328024931942388,-0.6433072544920921,1.187779899786678
1.135646744155653,-0.6433072544920921,1.187779899786678
-0.5569478020838421,-0.6595585300141506,1.106339361748249
1.159792053045256,-0.6595585300141504,1.106339361748249
-0.5400702156972763,-0.9722394376670758,1.107306351969944
1.14291446665869,-0.9722394376670757,1.107306351969944
-0.5373770348007736,-0.8743174841088613,1.135917402964204
1.140221285762187,-0.8743174841088612,1.135917402964204
-0.561106215463186,-0.8916454491296183,1.079183766806724
1.1639504664246,-0.8916454491296183,1.079183766806724
-0.5140559237031435,-1.09589783703665,1.087049694072287
1.116900174664557,-1.09589783703665,1.087049694072287
-0.4924753562536312,-1.035223654572619,1.102830456666104
1.095319607215045,-1.035223654572619,1.102830456666104
-0.5538264847858376,-1.063796441652443,1.065722459212005
1.156670735747251,-1.063796441652443,1.065722459212005
-0.5365036045152273,-1.201851763873896,1.078512292208208
1.139347855476641,-1.201851763873896,1.078512292208208
-0.525857572709568,-1.148480770974461,1.081191427110049
1.128701823670982,-1.148480770974461,1.081191427110049
-0.5695538802415697,-1.183371854542587,1.040922634303945
1.172398131202983,-1.183371854542587,1.040922634303945
-0.547873069522578,-1.34222469739688,1.067660331657527
1.150717320483992,-1.34222469739688,1.067660331657526
-0.5440845070496156,-1.266240422341314,1.074479549880352
1.146928758011029,-1.266240422341314,1.074479549880352
-0.5797546079256386,-1.301758776509385,1.03442000723685
1.182598858887052,-1.301758776509385,1.03442000723685
-0.5465468243295701,-1.496257620901979,1.051371826230564
1.149391075290984,-1.496257620901979,1.051371826230564
-0.5483243824243089,-1.420730884474561,1.059721640088232
1.151168633385723,-1.420730884474561,1.059721640088232
-0.5824209829448006,-1.45608762237201,1.022474245507044
1.185265233906214,-1.45608762237201,1.022474245507044
