-0.3972556912199785,2.190571007799413,0.7305687433388768
0.4403548734768869,2.197077879671305,0.6978141969219844
-0.2653291897304824,2.278114255421098,0.3352787449327093
0.3068231543143663,2.278114255421098,0.3352787449327093
0.305440721750707,2.261054915132216,0.2939434735872672
-0.263842870583853,2.258797160769674,0.2909520908088499
-0.3943884642090274,2.266243876952636,0.3350462156345128
0.433802638353504,2.252933391209217,0.2926646276225874
-0.2683447022770462,2.210427008073589,0.6681036967756655
0.3098386668609178,2.210427008073589,0.6681036967756655
0.3098524711479818,2.220436203470453,0.6417826451951966
-0.2683585065641102,2.220436203470453,0.6417826451951966
-0.398860908892996,2.206888218551315,0.668000822670751
0.4403749099846573,2.216600072360676,0.6417963296662079
-0.2679810305891252,2.272520428169014,0.4900938161144404
0.309474995173003,2.272520428169014,0.4900938161144404
0.3083720821948381,2.281915878255718,0.4041477999677259
-0.2668781176109542,2.281915878255718,0.4041477999677259
-0.3983330503685173,2.259832856795138,0.4907792303545971
0.4382070661424108,2.268138488366549,0.4048931089485563
-0.2684413322864942,2.234978854338622,0.6100610107444136
0.3099352968703658,2.234978854338622,0.6100610107444134
0.3099481491125797,2.254491815789174,0.5628213550830276
-0.2684541845287068,2.254491815789174,0.5628213550830276
-0.3990011644473891,2.22935867370387,0.6102151694106279
0.4405137836745611,2.245198360941634,0.5631847070246097
-0.6905036363145103,2.159553374421336,0.7601944308646893
0.7319976008984013,2.159553374421336,0.7601944308646893
0.7483992139736388,2.139692402378371,0.7494243563184404
-0.706905249389748,2.139692402378371,0.7494243563184404
-0.7643504632083628,2.142505845063625,0.7638277808701944
0.8271827648618491,2.122136625354373,0.7539026975006636
-0.7186974573137106,2.128586913527858,0.7301969150964853
0.7601914218976017,2.128586913527858,0.7301969150964853
0.7632187880108763,2.131483334974135,0.7020047905791249
-0.7217248234269853,2.131483334974135,0.7020047905791249
-0.7983910690283487,2.108260023805844,0.736770786317958
0.8432491341303373,2.107071032292057,0.7117096560566072
-0.6984549425571418,2.193876217247607,0.3459172333462188
0.739948907141033,2.193876217247607,0.3459172333462187
0.7369699848169338,2.186180039816939,0.3050273369380736
-0.6954760202330428,2.186180039816939,0.3050273369380736
-0.7637388673797079,2.164267270625021,0.3384837201606615
0.7992743912684948,2.160613141805261,0.2971288326242205
-0.7209063342304064,2.138920177178518,0.6740450391386657
0.7624002988142973,2.138920177178518,0.6740450391386657
0.7600961650027494,2.147511643331734,0.646071268543526
-0.7186022004188585,2.147511643331734,0.6460712685435259
-0.8000427085317401,2.111565454317857,0.6839468379183491
0.836612025946307,2.118825667755305,0.652110374214512
-0.7055044996706271,2.185910493629506,0.4971440771938921
0.7469984642545186,2.185910493629506,0.4971440771938921
0.743408534161712,2.194243629867644,0.414420209307812
-0.7019145695778207,2.194243629867644,0.4144202093078121
-0.7677604663863272,2.154251149508692,0.4941891191185485
0.8052885946880131,2.163785729722545,0.4096918827949136
-0.7148245363685002,2.158919104171876,0.6126836728429944
0.7563185009523913,2.158919104171877,0.6126836728429944
0.7515068285290423,2.172728067299962,0.566558840973671
-0.7100128639451512,2.172728067299962,0.566558840973671
-0.786771746659592,2.128942366070033,0.6141387808560656
0.8177733058967238,2.141255492858242,0.5652604472664444
0.7046513664025931,-1.914139557666763,0.8021397082605183
-0.6631574018187019,-1.914139557666763,0.8021397082605183
-0.6404175855197429,-1.971387753244352,0.7884563171862017
0.6819115501036339,-1.971387753244352,0.7884563171862017
0.8074012080620164,-1.919331941825157,0.7758519484870939
-0.735830647026243,-1.976695709657135,0.7615911907853794
0.7224457572893731,2.168940125294899,0.7727428462178807
-0.680951792705482,2.168940125294899,0.7727428462178807
-0.6807335326365024,2.163658440935063,0.7900553860680482
0.7222274972203935,2.163658440935063,0.7900553860680483
0.7973707038979141,2.150782285447109,0.7749852409491622
-0.7614988639934903,2.144678970380428,0.7913796110786457
0.7163655546781774,-0.778048185908787,1.127748133711168
-0.6748715900942862,-0.778048185908787,1.127748133711168
-0.6870125656066305,-0.841184621152874,1.107630562618845
0.7285065301905215,-0.841184621152874,1.107630562618845
0.7698374507683174,-0.7835019244811752,1.080684096162356
-0.7416951985219396,-0.8463690399632019,1.066231784092169
0.07640086311301454,0.7769094980602584,0.5055642758533416
-0.150147457798692,0.7769094980602713,0.5055642758533436
0.07665433555343695,0.8314141697754075,0.5055084337612146
-0.1509257868234669,0.8314141697754244,0.5055084337612172
0.1924197514073581,0.8314141697754245,0.5055084337612174
-0.0351603709695458,0.8314141697754074,0.5055084337612146
0.07674296381715499,0.8677586927725581,0.5054590194351445
-0.1511979345565782,0.8677586927725745,0.505459019435147
0.07674283082955263,0.911751354903624,0.5065879135309224
-0.1511975261961636,0.9117513549036367,0.506587913530924
0.1926914907800548,0.9117513549036368,0.506587913530924
-0.03524886624566148,0.911751354903624,0.5065879135309224
0.0690644458839369,-2.058117591493068,0.7926213715527642
-0.1276197760608198,-2.058117591493172,0.7926213715528041
0.06996445765865871,-2.012061032370783,0.8063754697054092
-0.1303834109780427,-2.012061032370882,0.8063754697054476
0.1718773755618366,-2.012061032370882,0.8063754697054476
-0.02847049307496203,-2.012061032370783,0.8063754697054092
0.0718309998031906,2.209655587546622,0.8236283299621261
-0.1361984900186711,2.208646315225646,0.8255272322517144
0.07185373472014575,2.226148977697315,0.7849718508126793
-0.1367758814317202,2.223449966983339,0.7881504116482931
0.1775487098310245,2.226571392605526,0.7838172790865665
-0.03035977013644905,2.226148977697315,0.7849718508126793
0.07238170406110769,2.123871092082065,0.9063368077440059
-0.1377958993320497,2.124244551168492,0.9060292194993214
0.07214541407933822,2.172992948872482,0.8682096737843232
-0.1370680769932341,2.173631949177628,0.8677208397156997
0.1786007132616269,2.171865275688642,0.8694693567452017
-0.03065144949564155,2.172992948872482,0.8682096737843232
0.0732005958549207,1.984351369551666,0.9563974007860421
-0.1403205082109235,1.984351369551689,0.9563974007860523
0.07273020884863872,2.059658228918728,0.9355161386066588
-0.1388740939035994,2.059732920736035,0.9354546209577314
0.1803680584873933,2.059732920736035,0.9354546209577314
-0.03123624426494204,2.059658228918728,0.9355161386066588
0.0739411934456877,1.836617039049064,0.9860955286736457
-0.1425946355267437,1.83661703904909,0.9860955286736591
0.07362186080579271,1.908576322575912,0.9727736563441909
-0.1416140718734565,1.908576322575933,0.9727736563442013
0.1831080364572504,1.908576322575933,0.9727736563442012
-0.03212789622209603,1.908576322575912,0.9727736563441911
0.07450839610939306,1.69936988949398,1.002693131623528
-0.144336325058575,1.699369889494015,1.002693131623548
0.07422397753763263,1.766415612491292,0.995471202497452
-0.143462970822441,1.766415612491323,0.9954712024974692
0.184956935406235,1.766415612491323,0.9954712024974695
-0.03273001295393593,1.766415612491292,0.9954712024974521
0.07511170029974704,1.586585876601594,1.026717518035781
-0.1461888702952021,1.586585876601616,1.026717518035794
0.07480543145347307,1.640333469719734,1.012238038944665
-0.1452484211795426,1.640333469719765,1.012238038944683
0.1867423857633365,1.640333469719765,1.012238038944683
-0.03331146686977639,1.640333469719734,1.012238038944665
0.07568148996751895,1.460999699894479,1.070957109216118
-0.1479385036506257,1.460999699894491,1.070957109216127
0.07540945381545947,1.527832557343041,1.046878033153926
-0.1471031716808735,1.527832557343055,1.046878033153935
0.1885971362646673,1.527832557343055,1.046878033153935
-0.03391548923176278,1.527832557343041,1.046878033153926
0.07609393129606853,1.319198421156766,1.071014122719783
-0.1492049729223344,1.319198421156777,1.071014122719791
0.07591115352249821,1.390234232953236,1.094683331799347
-0.1486437235572768,1.390234232953248,1.094683331799355
0.1901376881410707,1.390234232953248,1.094683331799355
-0.03441718893880152,1.390234232953237,1.094683331799347
0.07637324044015911,1.173219443799749,0.6829168360531874
-0.1500626378160221,1.173219443799759,0.68291683605319
0.07623745215299976,1.251069865082638,0.9101357400327843
-0.1496456774359952,1.251069865082648,0.9101357400327901
0.1911396420198255,1.251069865082648,0.9101357400327901
-0.03474348756923016,1.251069865082638,0.9101357400327843
0.07667720107639574,0.9749081986866994,0.5137017830181693
-0.150995999191154,0.9749081986867085,0.5137017830181704
0.0765378666930925,1.070305222085433,0.5506619452130916
-0.1505681499366542,1.070305222085441,0.5506619452130925
0.1920621145205421,1.070305222085441,0.5506619452130925
-0.03504390210920784,1.070305222085433,0.5506619452130916
0.07570742458339562,0.5534813950212046,0.505857691697515
-0.1480181401750478,0.5534813950212094,0.5058576916975162
0.07603055106253176,0.6839086870756731,0.5056768329967205
-0.1490103534388086,0.6839086870756805,0.5056768329967218
0.1905043180226998,0.6839086870756805,0.5056768329967218
-0.03453658647864059,0.683908687075673,0.5056768329967205
0.0753334558247489,0.2841603809323113,0.5060575692463709
-0.1468698072883297,0.2841603809323151,0.5060575692463725
0.07548073272551871,0.413512251479553,0.5060157873774573
-0.1473220453555413,0.4135122514795571,0.5060157873774586
0.1888160099394324,0.4135122514795571,0.5060157873774586
-0.03398676814162756,0.413512251479553,0.5060157873774573
0.07523229073881588,-0.004090992350027439,0.5068512364840447
-0.1465591631703961,-0.004090992350026173,0.5068512364840462
0.07524672114052736,0.1560136469837556,0.5059478819140865
-0.1466034741040521,0.1560136469837584,0.5059478819140881
0.1880974386879433,0.1560136469837584,0.5059478819140881
-0.03375275655663619,0.1560136469837556,0.5059478819140865
0.07554748676876394,-0.5408877937267111,0.5499915367457342
-0.147527024679101,-0.5408877937267127,0.5499915367457369
0.07533256149209694,-0.2530674846411404,0.5111318105532965
-0.1468670610920976,-0.2530674846411405,0.5111318105532974
0.1883610256759887,-0.2530674846411404,0.5111318105532974
-0.03383859690820576,-0.2530674846411404,0.5111318105532964
0.07615197596365791,-0.7354253511799704,0.8926147097454622
-0.1493832086680645,-0.735425351179978,0.8926147097454815
0.07583457643312133,-0.7105818997088929,0.6834701027120934
-0.1484085809465588,-0.7105818997088973,0.6834701027121033
0.18990254553045,-0.7105818997088972,0.6834701027121033
-0.03434061184923016,-0.710581899708893,0.6834701027120933
0.07668035279518502,-0.7284852535843206,1.178558044483483
-0.1510056770649198,-0.7284852535843279,1.178558044483498
0.07645846645304691,-0.7189392652223596,1.079480072781282
-0.150324338375652,-0.7189392652223677,1.079480072781303
0.1918183029595067,-0.7189392652223676,1.079480072781303
-0.0349645018692287,-0.7189392652223596,1.079480072781282
0.0767825316529481,-0.97334469564083,1.096530057833035
-0.1513194341369078,-0.9733446956408398,1.096530057833047
0.0767887542082849,-0.9034286521231429,1.132504422377985
-0.1513385415215956,-0.9034286521231543,1.132504422378
0.1928325061053895,-0.9034286521231543,1.132504422378
-0.03529478962458821,-0.9034286521231429,1.132504422377985
0.07664471431179329,-1.105398800324694,1.026101709950003
-0.1508962432110647,-1.105398800324703,1.026101709950011
0.07674231117527561,-1.044353297211226,1.059576895758365
-0.151195930512172,-1.044353297211235,1.059576895758374
0.1926898950959659,-1.044353297211235,1.059576895758374
-0.03524834659157892,-1.044353297211226,1.059576895758365
0.07636779440859344,-1.228429544034724,0.9528850882861444
-0.1500459148762008,-1.22842954403474,0.9528850882861562
0.07651125672039487,-1.165611349791307,0.9898164101010808
-0.1504864396174716,-1.165611349791318,0.9898164101010907
0.1919804042012655,-1.165611349791318,0.9898164101010907
-0.03501729213669819,-1.165611349791307,0.9898164101010807
0.07606041727461826,-1.336987040718437,0.9189640556833816
-0.1491020625799659,-1.336987040718451,0.9189640556833909
0.07621727004761861,-1.285789166747404,0.9285728275290452
-0.1495837049456571,-1.28578916674742,0.9285728275290568
0.191077669529451,-1.28578916674742,0.9285728275290568
-0.0347233054639219,-1.285789166747404,0.9285728275290452
0.07572318521207813,-1.443474378303697,0.91128206353613
-0.1480665357908513,-1.443474378303708,0.9112820635361371
0.07589576069265876,-1.388681027833547,0.9149625454324972
-0.148596457328974,-1.388681027833559,0.9149625454325048
0.190090421912768,-1.388681027833559,0.9149625454325048
-0.03440179610896207,-1.388681027833548,0.9149625454324972
0.07528546125499172,-1.559021602049068,0.8996949751213623
-0.1467224320292278,-1.559021602049081,0.8996949751213696
0.07554393605048621,-1.499915730665087,0.9064463708304127
-0.1475161216120907,-1.499915730665098,0.9064463708304197
0.1890100861958846,-1.499915730665098,0.9064463708304197
-0.03404997146678952,-1.499915730665087,0.9064463708304127
0.07405633842663881,-1.697083271624176,0.8791934621767201
-0.1429482072230672,-1.697083271624197,0.8791934621767314
0.07480141170220239,-1.624276388182139,0.8909831311848803
-0.1452360778688413,-1.624276388182156,0.8909831311848895
0.1867300424526352,-1.624276388182156,0.8909831311848897
-0.03330744711850571,-1.624276388182139,0.8909831311848802
0.07228117381670268,-1.847812873066672,0.8474919471147658
-0.1374972708713132,-1.847812873066698,0.8474919471147769
0.07316265435426542,-1.775130458918717,0.8637266690745549
-0.140204002561811,-1.775130458918737,0.8637266690745646
0.1816979671456049,-1.775130458918737,0.8637266690745649
-0.03166868977056873,-1.775130458918717,0.8637266690745549
0.06433297681286494,-2.243390292505075,0.7195071197317833
-0.113091018213606,-2.24339029250514,0.7195071197318054
0.06726489682931544,-2.139396431027977,0.7635622405046784
-0.1220939632411549,-2.13939643102807,0.7635622405047122
0.1635879278249488,-2.13939643102807,0.7635622405047123
-0.02577093224561877,-2.139396431027977,0.7635622405046784
-0.4172701463202183,0.7770705992408287,0.5052100439045817
0.3186803745344442,0.7769094980602902,0.5055642758533467
-0.4189892951048525,0.8316586983530478,0.5051385512692485
0.3200372952540941,0.8314141697754489,0.5055084337612212
-0.278543330670203,0.8314141697754488,0.5055084337612212
0.4604832596887436,0.8316586983530478,0.5051385512692483
-0.4194586690023692,0.8679840426382298,0.5050749854825685
0.3205117512824702,0.8677586927725982,0.5054590194351507
-0.4191863913113188,0.9118792129834508,0.5061843186775696
0.320511039356421,0.9117513549036551,0.5065879135309267
-0.2790170747725298,0.9117513549036551,0.5065879135309267
0.4606803558952101,0.9118792129834508,0.5061843186775696
-0.3513486805268171,-2.05811759149347,0.7919670907989903
0.2794061381346342,-2.058117591493325,0.7926213715528621
-0.3584604760351207,-2.012061032371163,0.805660281123196
0.2842241949735304,-2.012061032371026,0.8063754697055033
-0.2427302303896586,-2.012061032371026,0.8063754697055034
0.399954440619012,-2.012061032371163,0.8056602811231961
-0.3768932236124409,2.20447660342347,0.8252585296714098
0.294877582773893,2.200548250781261,0.8377474947425525
-0.3747416082220529,2.221623782847798,0.7965006408525945
0.2934648301884586,2.227976681695131,0.7837181783602069
-0.2520818960642886,2.223727724090971,0.7966871890566496
0.4168401426501421,2.223708014232959,0.7869634550571747
-0.3802602179182852,2.126652208446474,0.9018171881401758
0.2971141727190756,2.125738387514131,0.9047988665205538
-0.3785684373047538,2.175500931389379,0.8636077360625583
0.295936416201552,2.172633870536736,0.8692608839387468
-0.2543439962588207,2.176187950398147,0.8657655034411832
0.4201221855629058,2.173713525016952,0.8653545995306197
-0.3858430793732301,1.984351369551753,0.9550178640263187
0.3015482991753142,1.984351369551721,0.9563974007860672
-0.3827021388866914,2.060214452191693,0.9335567175456435
0.2990200977015137,2.060031688005195,0.9352085503619917
-0.2575261331176421,2.060031688005195,0.9352085503619916
0.4241961034705823,2.060214452191693,0.9335567175456434
-0.391150115175512,1.836617039049162,0.9845844784945811
0.3055129598467457,1.836617039049127,0.9860955286736785
-0.3887583491105219,1.908576322575993,0.9713215999504763
0.3038034679792595,1.908576322575964,0.9727736563442163
-0.2623095033953878,1.908576322575964,0.9727736563442164
0.4302523136944128,1.908576322575993,0.9713215999504764
-0.3955302090827976,1.699369889494114,1.0011085816089
0.3085493808688488,1.699369889494065,1.002693131623577
-0.3933474019894702,1.766415612491413,0.9939186336432867
0.3070267954057832,1.766415612491369,0.9954712024974943
-0.2655328308219114,1.766415612491369,0.9954712024974943
0.4348413665733612,1.766415612491413,0.9939186336432868
-0.3998482339603462,1.586585876601677,1.02490626088689
0.3117790651484442,1.586585876601647,1.026717518035812
-0.3977295110950269,1.640333469719852,1.010611220831382
0.3101395080328862,1.64033346971981,1.012238038944709
-0.2686455434490145,1.640333469719809,1.012238038944709
0.439223475678918,1.640333469719852,1.010611220831382
-0.4029733916482483,1.460999699894525,1.067746754364124
0.314829335247843,1.460999699894508,1.070957109216139
-0.4016612549076004,1.527832557343096,1.044496222487779
0.3133730369196768,1.527832557343076,1.046878033153948
-0.2718790723358052,1.527832557343076,1.046878033153948
0.4431552194914915,1.527832557343096,1.044496222487779
-0.4046095160938688,1.319198421156809,1.067278688968377
0.3170372683209825,1.319198421156793,1.071014122719803
-0.4036194023763627,1.390234232953282,1.090886633263711
0.316058799231306,1.390234232953265,1.094683331799367
-0.2745648346474344,1.390234232953265,1.094683331799367
0.4451133669602538,1.390234232953282,1.090886633263711
-0.4131693284767116,1.173219443799786,0.6815916531230366
0.3185325013493625,1.173219443799773,0.6829168360531938
-0.4081294326105429,1.251069865082677,0.9074198042940059
0.3178055823203417,1.251069865082663,0.9101357400327983
-0.2763116177364627,1.251069865082663,0.9101357400327983
0.4496233971944341,1.251069865082677,0.9074198042940058
-0.4183957987308573,0.9749401632066793,0.5132715770192081
0.3201597018629416,0.9749081986867219,0.5137017830181719
-0.4167208671617985,1.070305222085465,0.550078092672738
0.3194137994234343,1.070305222085453,0.5506619452130941
-0.2779198348395437,1.070305222085453,0.5506619452130942
0.4582148317456896,1.070305222085465,0.550078092672738
-0.4117424595268989,0.5534813950212227,0.5055101558386723
0.314968171712412,0.5534813950212162,0.5058576916975175
-0.4145074071982915,0.6839547159844219,0.5053345162866421
0.3166979732398547,0.6839086870756914,0.5056768329967236
-0.2752040086559636,0.6839086870756914,0.5056768329967236
0.4560013717821827,0.6839547159844219,0.5053345162866421
-0.4086425817790706,0.2841603809323258,0.5056879499486339
0.3129661948652888,0.2841603809323205,0.5060575692463749
-0.4097497035854121,0.4135122514795689,0.5056551094972497
0.3137546161936484,0.4135122514795631,0.5060157873774605
-0.2722606516097572,0.4135122514795631,0.5060157873774605
0.4512436681693032,0.4135122514795688,0.5056551094972498
-0.4078054298660038,-0.00409099235002252,0.5064727704216346
0.3124246251349508,-0.004090992350024282,0.5068512364840481
-0.4079823380624713,0.1560136469837664,0.5055724751122793
0.3125018757861164,0.1560136469837625,0.5059478819140906
-0.2710079112022253,0.1560136469837625,0.5059478819140906
0.4494763026463625,0.1560136469837664,0.5055724751122793
-0.4098024107097907,-0.5409413340072546,0.5494577017880087
0.3141119723789949,-0.5408877937267147,0.5499915367457408
-0.4086235280958505,-0.2530674846411407,0.510753208824142
0.3129614072106479,-0.2530674846411405,0.5111318105532988
-0.2714674426267567,-0.2530674846411405,0.5111318105532988
0.4501174926797415,-0.2530674846411406,0.5107532088241421
-0.4082611747053513,-0.7359500459292701,0.8905341224979145
0.3173480003747807,-0.7354253511799886,0.8926147097455096
-0.4095619627172015,-0.7108496011115986,0.6823096993022064
0.3156488570727103,-0.7105818997089034,0.6834701027121177
-0.2741548924888192,-0.7105818997089034,0.6834701027121176
0.4510559273010926,-0.7108496011115986,0.6823096993022064
-0.410113699063672,-0.7286851372983567,1.175928800218511
0.3201765740429386,-0.7284852535843387,1.17855804448352
-0.408398142839401,-0.7194211277472316,1.076857363648519
0.3189887440184608,-0.7189392652223795,1.079480072781333
-0.277494779434577,-0.7189392652223794,1.079480072781332
0.4498921074232921,-0.7194211277472316,1.076857363648519
-0.4134922635541308,-0.9733446956408682,1.094529965967587
0.3207235708249623,-0.9733446956408545,1.096530057833064
-0.4130362177230726,-0.9034286521231866,1.130345023780883
0.3207568821950331,-0.9034286521231709,1.132504422378021
-0.2792629176111615,-0.9034286521231709,1.132504422378021
0.4545301823069638,-0.9034286521231865,1.130345023780883
-0.4134155324239805,-1.105398800324728,1.02441349878236
0.3199857896072947,-1.105398800324716,1.026101709950023
-0.4136774538063431,-1.044353297211259,1.05774044507321
0.320508257478008,-1.044353297211247,1.059576895758387
-0.2790142928941365,-1.044353297211247,1.059576895758387
0.4551714183902341,-1.044353297211259,1.057740445073211
-0.4124019880403762,-1.228429544034783,0.9515211052417469
0.318503346964974,-1.228429544034762,0.9528850882861732
-0.4129804244513032,-1.165611349791352,0.9882888825924764
0.3192713475533133,-1.165611349791336,0.989816410101105
-0.2777773829694417,-1.165611349791336,0.989816410101105
0.4544743890351941,-1.165611349791352,0.9882888825924764
-0.4095313303557143,-1.336987040718488,0.9177502865178586
0.3168578568235509,-1.336987040718469,0.9189640556834046
-0.4112323847883871,-1.285789166747464,0.9273165074510292
0.3176975409220036,-1.285789166747443,0.9285728275290737
-0.2762035763381319,-1.285789166747442,0.9285728275290737
0.4527263493722782,-1.285789166747464,0.9273165074510292
-0.4064010626040348,-1.443474378303739,0.910102312846731
0.3150525435033794,-1.443474378303724,0.9112820635361473
-0.4078660944659264,-1.38868102783359,0.9137664963164488
0.3159763963881866,-1.388681027833575,0.9149625454325158
-0.2744824318043149,-1.388681027833575,0.9149625454325157
0.4493600590498177,-1.38868102783359,0.9137664963164487
-0.4027172274143914,-1.559021602049117,0.8985665360036418
0.3127092642661263,-1.5590216020491,0.8996949751213805
-0.4048977360164929,-1.499915730665131,0.9052880342343557
0.3140929642254957,-1.499915730665115,0.9064463708304299
-0.2725989996416238,-1.499915730665115,0.9064463708304298
0.4463917006003842,-1.499915730665131,0.9052880342343557
-0.3927989882098891,-1.697083271624258,0.8781558107369265
0.3061293685188519,-1.697083271624228,0.8791934621767477
-0.3988202609734582,-1.624276388182206,0.8898932710775782
0.3101179889920867,-1.624276388182182,0.8909831311849035
-0.2686240244082149,-1.624276388182182,0.8909831311849035
0.4403142255573496,-1.624276388182206,0.8898932710775782
-0.3778239587326463,-1.84781287306677,0.8465946807746745
0.2966263328594431,-1.847812873066735,0.8474919471147933
-0.3853242224897577,-1.775130458918794,0.8627575098594178
0.3013451859363049,-1.775130458918766,0.8637266690745793
-0.2598512213524333,-1.775130458918766,0.8637266690745793
0.4268181870736488,-1.775130458918794,0.8627575098594178
-0.3146272006473168,-2.243390292505324,0.7191766137726631
0.2540770396092846,-2.243390292505235,0.7195071197318373
-0.3372761786488326,-2.139396431028332,0.7630366434747191
0.269772564582524,-2.139396431028204,0.7635622405047617
-0.2282785999986522,-2.139396431028204,0.7635622405047619
0.3787701432327239,-2.139396431028331,0.7630366434747192
-0.7494188975944424,0.7785666060051965,0.5999672156571015
0.7909128621783336,0.7785666060051965,0.5999672156571015
0.7895679314616947,0.8339294229061033,0.5997285944626096
-0.7480739668778034,0.8339294229061033,0.5997285944626096
-0.750556188276695,0.7726390198354428,0.7287861192268889
0.7893186896718256,0.8275933435239119,0.7286098490364709
-0.7457665375358047,0.8700766711479093,0.5994955718488937
0.787260502119696,0.8700766711479093,0.5994955718488937
0.7835205670435309,0.9130665199393007,0.6003708910961029
-0.7420266024596398,0.9130665199393007,0.6003708910961029
-0.7449921432351776,0.8638367945073626,0.728406138641563
0.7826039362274173,0.9073090462405211,0.7292716455529058
-0.6005630760678267,-2.059859225175634,0.7649905376187901
0.6420570406517177,-2.059859225175634,0.7649905376187901
0.6643511167516627,-2.012608838040445,0.7781451260901557
-0.6228571521677717,-2.012608838040445,0.7781451260901557
-0.6771466552529099,-2.066594715267378,0.7370806798946912
0.7525479001234645,-2.018384386567226,0.7508081105230875
-0.684939889950269,2.144120074966637,0.8260858548439044
0.7264338545341604,2.144120074966637,0.8260858548439045
0.7251405871606321,2.154256346043472,0.8074582452563031
-0.6836466225767408,2.154256346043471,0.8074582452563031
-0.7654733082355777,2.125468822781072,0.8269418014993371
0.8065451521151974,2.135350973289969,0.8086620185777227
-0.6656904020707245,2.102216043536022,0.8844181659949285
0.7071843666546159,2.102216043536022,0.8844181659949285
0.7210132756552115,2.129536787426507,0.8518934141702681
-0.67951931107132,2.129536787426507,0.8518934141702681
-0.720865769755235,2.087768234290935,0.8802709191505126
0.7931578496832571,2.112163663076834,0.8510165417686411
-0.6502895485658189,1.982161790433538,0.9335174237874153
0.6917835131497102,1.982161790433538,0.9335174237874152
0.6953767179374115,2.051823892620446,0.9134170157024997
-0.6538827533535201,2.051823892620446,0.9134170157024997
-0.6910002307807962,1.974797366712213,0.926797334009145
0.7380995174660231,2.041123626739327,0.9069821007346616
-0.6547650747062127,1.836617039049189,0.9613734902474272
0.6962590392901041,1.836617039049189,0.9613734902474272
0.6929122790490325,1.908138406752368,0.9489529017763251
-0.6514183144651413,1.908138406752367,0.9489529017763251
-0.697320579789497,1.832215876299389,0.9545607125808209
0.7347503749386947,1.902879090778185,0.9423503682874531
-0.662334722428737,1.699369889494149,0.9759351231721877
0.7038286870126285,1.699369889494149,0.9759351231721877
0.7003083144248555,1.766415612491445,0.9698457588304674
-0.658814349840964,1.766415612491445,0.9698457588304674
-0.705658635776717,1.69557230420301,0.9679683372663944
0.7433730731358802,1.762412241431527,0.9626336355982293
-0.6641610013444198,1.586585876601698,0.9938939369354454
0.705654965928311,1.586585876601698,0.9938939369354455
0.7058728016201763,1.640333469719884,0.9837058449363264
-0.664378837036285,1.640333469719884,0.9837058449363265
-0.7067394319569924,1.581990944331082,0.9819035843033914
0.748920034849337,1.636299782514955,0.974157948729767
-0.6544242085317901,1.460999699894538,1.013705523952473
0.6959181731156812,1.460999699894538,1.013705523952473
0.7025511507319044,1.527832557343111,1.003907163130929
-0.6610571861480133,1.527832557343111,1.003907163130929
-0.6989090498974366,1.455898624401841,0.9956015923126471
0.7454418165111167,1.522834607677714,0.9890143414729051
-0.6394661316782443,1.31919842115682,1.008616082294371
0.6809600962621354,1.319198421156819,1.008616082294371
0.6850936964542196,1.390234232953293,1.025801256298081
-0.6435997318703284,1.390234232953293,1.025801256298081
-0.6862058381418772,1.314090704356693,0.9950802694845657
0.7324832988182299,1.385129880171121,1.004078983485659
-0.7060641254001844,1.173219443799796,0.7359096115783914
0.7475580899840754,1.173219443799796,0.7359096115783914
0.705944460194083,1.251069865082688,0.8964812092965749
-0.664450495610192,1.251069865082688,0.896481209296575
-0.7182841317047037,1.168104651888258,0.8273337354775613
0.7387204842451196,1.245958870033172,0.9274593126315809
-0.7378653542791067,0.975236989945648,0.6072098516940976
0.7793593188629979,0.9752369899456481,0.6072098516940976
0.7720158665509591,1.070305222085475,0.6381946835650211
-0.730521901967068,1.070305222085475,0.6381946835650212
-0.7370300832345613,0.9699550024258455,0.7359141105919078
0.7732368735898154,1.065185381065289,0.7611930573349544
-0.7418318530982109,0.5534813950212276,0.6002975137932742
0.7833258176821021,0.5534813950212276,0.6002975137932743
0.7894880548083979,0.6843821464885309,0.6002041967788255
-0.7479940902245068,0.6843821464885309,0.6002041967788255
-0.7479973623649088,0.5483389954622235,0.7285176059585109
0.7930423639656872,0.6790174857322633,0.7288249821920961
-0.7344806613922319,0.2841603809323297,0.6001967041699559
0.775974625976123,0.2841603809323297,0.6001967041699559
0.7777003922516251,0.4135122514795731,0.6002797321859812
-0.7362064276677339,0.4135122514795731,0.6002797321859812
-0.7414642624169628,0.2790142950641511,0.7277336999211096
0.7850632440180353,0.4083669257756346,0.7280858491451266
-0.7325066336350553,-0.004090992350021198,0.6007755961616113
0.7740005982189464,-0.004090992350021198,0.6007755961616113
0.7748735796494202,0.1560136469837693,0.5999693399694255
-0.7333796150655292,0.1560136469837693,0.5999693399694255
-0.7392904165618333,-0.007537138428883036,0.727962318984532
0.7815271030460245,0.1508675382131857,0.7273373152715789
-0.7323691206803027,-0.5427469906904104,0.6330157587461773
0.7738630852641938,-0.5427469906904103,0.6330157587461773
0.7758373107857368,-0.2530674846411407,0.6050504756767271
-0.7343433462018455,-0.2530674846411407,0.605050475676727
-0.7415585788461248,-0.5313903754630571,0.7483184647481708
0.7824082521355396,-0.2497137570507104,0.731863801650845
-0.676857703734526,-0.7536454814241891,0.8669287184826373
0.718351668318417,-0.7536454814241891,0.8669287184826372
0.7525550283820872,-0.7198778845273739,0.7226800029025562
-0.711061063798196,-0.719877884527374,0.7226800029025562
-0.7177769105153108,-0.7551650357112785,0.8715229104585888
0.7743467190226594,-0.7105090870987892,0.7936246206409386
-0.6622704774506449,-0.73542625558214,1.107949436887918
0.7037644420345361,-0.73542625558214,1.107949436887918
0.6996529547034145,-0.7356720378956279,1.013524368627373
-0.6581589901195233,-0.7356720378956279,1.013524368627373
-0.7162515334339771,-0.7424602100100245,1.056957007920309
0.7521557400376023,-0.7436064153744025,0.9731963040955718
-0.7119761818070249,-0.9733446956408784,1.052329856011739
0.753470146390916,-0.9733446956408784,1.052329856011739
0.7400857648431843,-0.9034286521231982,1.081617387898177
-0.6985918002592932,-0.9034286521231983,1.081617387898177
-0.7767600400086232,-0.9784531154193856,1.022769886550993
0.7983854623426673,-0.9085838408702707,1.045787109172614
-0.7355122897414814,-1.105398800324737,0.9946035193013366
0.7770062543253726,-1.105398800324737,0.9946035193013366
0.7666495949284383,-1.044353297211268,1.022245463243263
-0.7251556303445471,-1.044353297211268,1.022245463243263
-0.8119600430911413,-1.110597803813995,0.976864146776592
0.8383242877610277,-1.049466931157332,0.9991170142732002
-0.7539489295062578,-1.229009038909602,0.9304425301633839
0.7954428940901487,-1.229009038909602,0.9304425301633837
0.7867942894774209,-1.165611349791364,0.9635066514119448
-0.7453003248935298,-1.165611349791364,0.9635066514119449
-0.8367361454734437,-1.234864679838415,0.9204195061529196
0.8663887204672556,-1.170866742887971,0.9503797730155531
-0.7533528127962726,-1.342969121783947,0.8938401507619032
0.7948467773801635,-1.342969121783947,0.8938401507619032
0.7979763420436092,-1.288686641121497,0.906440323591682
-0.7564823774597183,-1.288686641121497,0.906440323591682
-0.8479286265234167,-1.354570817026505,0.8792511702031721
0.8859106516234685,-1.296995088952809,0.8958123876815749
-0.749504865682243,-1.448243175851879,0.8800607316025734
0.7909988302661337,-1.448243175851879,0.8800607316025733
0.7919342143044806,-1.395411638168692,0.8862930817681454
-0.7504402497205898,-1.395411638168692,0.8862930817681453
-0.8526846691280938,-1.458546646857667,0.8578071589925627
0.8918179452139536,-1.407814083362721,0.8672923174281341
-0.7449443832181774,-1.559957263636186,0.8672138821122907
0.7864383478020683,-1.559957263636186,0.8672138821122907
0.7896809659596009,-1.502366548714057,0.8740152601554191
-0.7481870013757099,-1.502366548714057,0.8740152601554193
-0.8536043312443015,-1.566158911014279,0.8426013983854355
0.8956164794334551,-1.510189806000542,0.8499818904582386
-0.7277118641191717,-1.69708327162428,0.8476462231709681
0.7692058287030628,-1.69708327162428,0.8476462231709677
0.7805460879334313,-1.624463520499635,0.8588988669541715
-0.7390521233495402,-1.624463520499635,0.8588988669541715
-0.8396654484946472,-1.702281434593379,0.8225095744375146
0.891445886963798,-1.629863363855543,0.8340492603329195
-0.6872718977449277,-1.847812873066796,0.8173887277202141
0.7287658623288189,-1.847812873066796,0.8173887277202139
0.7507346778006768,-1.775130458918814,0.8328839501057181
-0.7092407132167857,-1.775130458918815,0.8328839501057184
-0.796056020502762,-1.853007117346193,0.7916323230060782
0.8622589631832122,-1.780326680117033,0.8074696143567437
-0.5040408509832136,-2.243797184136017,0.6967797703573599
0.5455348155671047,-2.243797184136017,0.6967797703573599
0.5992666504726908,-2.143215842793974,0.7369851017108315
-0.5577726858887997,-2.143215842793974,0.7369851017108315
-0.5363039722205729,-2.243131602819778,0.6724361668219666
0.6541794892785857,-2.149014689661257,0.7084018012676335
-0.783647710237906,0.7495543896061829,0.8362795928266443
0.825141674821797,0.7495543896061829,0.8362795928266443
-0.7794702768444952,0.8041620206081869,0.8362057305400699
0.8209642414283863,0.8041620206081868,0.8362057305400698
-0.8653372549655741,0.7681409616058295,0.8860903849598997
0.9068312195494652,0.7681409616058295,0.8860903849598997
-0.7758943235915037,0.8404951872537686,0.8360603996624134
0.8173882881753948,0.8404951872537687,0.8360603996624134
-0.7710613864614897,0.8843945839588161,0.8367860692364939
0.8125553510453808,0.8843945839588161,0.8367860692364939
-0.8549329161289437,0.8484854529753013,0.8865190981646051
0.8964268807128349,0.8484854529753013,0.886519098164605
-0.7257980971703077,-2.08891951848933,0.6995935698849551
0.7672920617541987,-2.088919518489331,0.6995935698849551
-0.768378693904417,-2.041072307269873,0.7147073159784935
0.809872658488308,-2.041072307269873,0.7147073159784934
-0.7853471951844642,-2.076855309954555,0.6740058887626965
0.8268411597683554,-2.076855309954555,0.6740058887626965
-0.8267879820395976,2.104372493390816,0.8180457987330303
0.8682819466234886,2.104372493390816,0.8180457987330303
-0.8256202599534868,2.113866307402262,0.80198123772688
0.8671142245373779,2.113866307402262,0.80198123772688
-0.85994852714821,2.091158771829291,0.7837170415170105
0.9014424917321011,2.091158771829291,0.7837170415170105
-0.7771101089206922,2.065845349630823,0.8669237424995293
0.8186040735045833,2.065845349630823,0.8669237424995293
-0.8116927006633116,2.090963524761587,0.8396897923539681
0.8531866652472028,2.090963524761587,0.8396897923539681
-0.8570589805611925,2.067722897803181,0.81392124543192
0.8985529451450836,2.067722897803181,0.81392124543192
-0.7450450677927167,1.952685810450957,0.913487701508334
0.7865390323766078,1.952685810450957,0.913487701508334
-0.7503183532565925,2.018687925420076,0.8930648441277649
0.7918123178404835,2.018687925420076,0.893064844127765
-0.8221014697176967,1.987739495485486,0.8660784533183301
0.8635954343015875,1.987739495485486,0.8660784533183301
-0.7526701047638968,1.813018147771457,0.9408217520739135
0.7941640693477881,1.813018147771457,0.9408217520739135
-0.7482168208921161,1.881940489860221,0.9291968718407425
0.7897107854760072,1.881940489860221,0.9291968718407424
-0.8249334244513873,1.848737775044091,0.9015941567091452
0.8664273890352782,1.848737775044091,0.9015941567091452
-0.7605288552915214,1.679007360885639,0.9537837783349271
0.8020228198754126,1.679007360885639,0.9537837783349271
-0.7571513354632213,1.744949667295096,0.9486165789061869
0.7986453000471125,1.744949667295096,0.9486165789061868
-0.8331157658513302,1.716903220360619,0.919259952894829
0.8746097304352214,1.716903220360619,0.919259952894829
-0.7608524648839381,1.56194799946622,0.9633404649683028
0.8023464294678291,1.56194799946622,0.9633404649683028
-0.7617929327964987,1.618704970341664,0.9584739656565238
0.8032868973803898,1.618704970341664,0.9584739656565238
-0.8358958635676754,1.590445899914954,0.9289371150749541
0.8773898281515666,1.590445899914953,0.9289371150749541
-0.7548858683681208,1.433647899292043,0.9721962469394678
0.7963798329520118,1.433647899292043,0.9721962469394678
-0.7585349768177065,1.501033714066833,0.9675393091685263
0.8000289414015978,1.501033714066833,0.9675393091685263
-0.8328065286635693,1.466018878574134,0.9340627148121545
0.8743004932474602,1.466018878574134,0.9340627148121545
-0.7433045604726035,1.291811010080256,0.9814043127192413
0.7847985250564946,1.291811010080256,0.9814043127192413
-0.7491684138119463,1.362864859631406,0.9804067427474114
0.7906623783958373,1.362864859631406,0.9804067427474115
-0.8238466095691214,1.327104835617547,0.9493958309736044
0.8653405741530125,1.327104835617547,0.9493958309736044
-0.7467422430791886,1.145794096206348,0.8986903032332654
0.7882362076630796,1.145794096206348,0.8986903032332655
-0.7418749287201678,1.223664876139702,0.950560524642442
0.7833688933040589,1.223664876139702,0.950560524642442
-0.8114104232530602,1.187858702077536,0.9493875390212915
0.8529043878369513,1.187858702077536,0.9493875390212915
-0.7645731800351527,0.9474650075523078,0.8421190645921673
0.8060671446190438,0.9474650075523078,0.8421190645921672
-0.7557977849461908,1.042852801335953,0.8599616828529437
0.797291749530082,1.042852801335954,0.8599616828529437
-0.8280983989634108,1.007048860214069,0.8996867894795833
0.8695923635473019,1.007048860214069,0.8996867894795833
-0.788984203993351,0.5259080161215022,0.833660566457932
0.8304781685772423,0.5259080161215021,0.833660566457932
-0.7878268121653502,0.6564088124406837,0.835650724931889
0.8293207767492414,0.6564088124406838,0.835650724931889
-0.8772637562385542,0.6205655736844173,0.8846403774687455
0.9187577208224452,0.6205655736844173,0.8846403774687454
-0.785721024371332,0.2565672361629076,0.8298533638839351
0.8272149889552229,0.2565672361629077,0.8298533638839349
-0.7876424106435431,0.3859231826860404,0.831383075771969
0.8291363752274341,0.3859231826860404,0.8313830757719691
-0.8859111695185634,0.3498982569742882,0.8756407173666659
0.9274051341024545,0.3498982569742882,0.8756407173666659
-0.7826192237769053,-0.02256911535193466,0.8289678845577411
0.8241131883607965,-0.02256911535193465,0.828967884557741
-0.783790842802062,0.1284203794123973,0.8288860303239378
0.8252848073859531,0.1284203794123973,0.8288860303239377
-0.8827125791853925,0.09236824624935748,0.8709181281908468
0.9242065437692837,0.09236824624935747,0.8709181281908469
-0.7850406911255912,-0.4767912228156127,0.8373468696220856
0.8265346557094824,-0.4767912228156127,0.8373468696220856
-0.7831700853528616,-0.2350849065632701,0.8312579459867635
0.8246640499367526,-0.2350849065632701,0.8312579459867635
-0.8794300204302248,-0.2115896717998899,0.8701948819400167
0.9209239850141161,-0.2115896717998899,0.8701948819400167
-0.7874376528006952,-0.7121860052484884,0.8753639577215417
0.8289316173845862,-0.7121860052484883,0.8753639577215417
-0.7864616502294161,-0.6443328628637879,0.8492569460844486
0.8279556148133072,-0.6443328628637879,0.8492569460844486
-0.8828741925183297,-0.5317271418677511,0.8696838310776508
0.9243681571022206,-0.5317271418677511,0.8696838310776507
-0.7951612418841625,-0.7542440798701359,0.9884958212049412
0.8366552064680535,-0.7542440798701359,0.9884958212049411
-0.7897474699778246,-0.7326582082962738,0.9303971786080019
0.8312414345617158,-0.7326582082962736,0.9303971786080019
-0.891522542062765,-0.7036969379565928,0.8910757007881667
0.9330165066466561,-0.7036969379565928,0.8910757007881667
-0.8473961265183705,-1.000735876064617,0.9674582237459247
0.8888900911022617,-1.000735876064617,0.9674582237459247
-0.8284004913892225,-0.9310706062326829,0.9834668677225268
0.8698944559731137,-0.931070606232683,0.9834668677225268
-0.911930659081309,-0.9672314687669454,0.9001041027449658
0.9534246236652002,-0.9672314687669454,0.9001041027449658
-0.8818106304868253,-1.133275687654371,0.9350675773884191
0.9233045950707164,-1.133275687654371,0.9350675773884191
-0.8669253751528081,-1.071772435831572,0.9509636507951337
0.9084193397366991,-1.071772435831573,0.9509636507951337
-0.9337313765384618,-1.107695150255417,0.8793511579951617
0.975225341122353,-1.107695150255417,0.8793511579951617
-0.9071689736648261,-1.257757062537142,0.8917015906729441
0.9486629382487171,-1.257757062537142,0.891701590672944
-0.8947243528528205,-1.193790596358471,0.9153003106073897
0.9362183174367116,-1.193790596358471,0.9153003106073897
-0.9524824745260313,-1.230545495061767,0.8557065544451696
0.9939764391099224,-1.230545495061767,0.8557065544451696
-0.923902373629264,-1.377824051177301,0.8525261815806089
0.9653963382131552,-1.377824051177301,0.8525261815806089
-0.9170848060318606,-1.319987606408706,0.8699539293465793
0.9585787706157517,-1.319987606408706,0.8699539293465792
-0.9699692856696028,-1.353438983673113,0.8240438890908033
1.011463250253494,-1.353438983673113,0.8240438890908032
-0.9316901354236963,-1.481684791201492,0.8277150627227545
0.9731841000075875,-1.481684791201492,0.8277150627227546
-0.9285424106986959,-1.43113752303289,0.8386735455181622
0.9700363752825871,-1.43113752303289,0.8386735455181622
-0.9767105652066126,-1.460539368834396,0.7976636308644067
1.018204529790504,-1.460539368834396,0.7976636308644065
-0.9341096781496379,-1.588931995230976,0.8112760717727202
0.9756036427335291,-1.588931995230975,0.8112760717727202
-0.9337952499296838,-1.533108267945189,0.8190336181782887
0.9752892145135749,-1.533108267945189,0.8190336181782887
-0.9773616687816102,-1.566983314544632,0.7793835420497925
1.018855633365501,-1.566983314544632,0.7793835420497924
-0.9192268349238404,-1.724955652112203,0.7904596121488352
0.9607207995077316,-1.724955652112203,0.7904596121488351
-0.9306875658240992,-1.652561644730758,0.8023532582980579
0.9721815304079902,-1.652561644730758,0.8023532582980579
-0.9699922739927626,-1.688793073425221,0.7627554322641718
1.011486238576654,-1.688793073425221,0.7627554322641716
-0.8690000465382568,-1.875664241668207,0.7592939490363018
0.9104940111221479,-1.875664241668208,0.7592939490363018
-0.8975757014681703,-1.802992427694538,0.7753866127418518
0.9390696660520614,-1.802992427694539,0.7753866127418517
-0.9275008091851129,-1.839395633871142,0.7367591576218507
0.968994773769004,-1.839395633871142,0.7367591576218509
-0.552824282089908,-2.2521021804501,0.6427834764858409
0.594318246673799,-2.2521021804501,0.6427834764858407
-0.6462110165453754,-2.166837381068315,0.6708373081928434
0.6877049811292663,-2.166837381068315,0.6708373081928434
-0.6560556480465762,-2.194190297082228,0.6327291878251251
0.6975496126304673,-2.194190297082228,0.6327291878251251
-0.8816606986456033,2.068148739892756,0.7665871239634309
0.9231546632294945,2.068148739892756,0.7665871239634308
-0.8752680030017748,2.07662257895449,0.7587476467914525
0.916761967585666,2.07662257895449,0.7587476467914526
-0.8794543365248291,2.072870617238565,0.7317044756218154
0.9209483011087203,2.072870617238565,0.7317044756218155
-0.8866958442304229,2.01877535726387,0.8027082876976002
0.9281898088143137,2.01877535726387,0.8027082876976002
-0.8857030298363197,2.051914813467792,0.780724135753716
0.9271969944202109,2.051914813467792,0.780724135753716
-0.899728296749122,2.046129839100751,0.7473043189122979
0.9412222613330132,2.046129839100751,0.7473043189122981
-0.8970821140475758,1.894909744856212,0.8416223005760285
0.9385760786314665,1.894909744856212,0.8416223005760285
-0.889916424937825,1.96396057650216,0.8249499886173304
0.9314103895217157,1.963960576502159,0.8249499886173304
-0.938569590572185,1.95322763332777,0.7769648860772392
0.9800635551560759,1.95322763332777,0.7769648860772392
-0.9088760319763821,1.760802630705922,0.8612849786184319
0.9503699965602734,1.760802630705922,0.8612849786184319
-0.9040750492872347,1.825462951496147,0.8533177131746812
0.9455690138711258,1.825462951496147,0.8533177131746812
-0.9673950737155245,1.819155652402165,0.7930516427427615
1.008889038299416,1.819155652402165,0.7930516427427615
-0.912510551475987,1.6339524661028,0.8729700461102091
0.9540045160598784,1.633952466102799,0.8729700461102092
-0.9115645270266193,1.697453561883335,0.8674291117165808
0.9530584916105107,1.697453561883335,0.8674291117165808
-0.9747202365246179,1.692591147264014,0.8023820460255222
1.016214201108509,1.692591147264014,0.8023820460255222
-0.9115706695202555,1.507431034165895,0.8834709575926665
0.9530646341041464,1.507431034165895,0.8834709575926665
-0.9123746744889647,1.570848006115347,0.8784426342721795
0.9538686390728559,1.570848006115347,0.8784426342721794
-0.9740509289247086,1.565946581387846,0.8147867960486868
1.0155448935086,1.565946581387846,0.8147867960486868
-0.9080066612563407,1.373125542754049,0.8916189589950674
0.949500625840232,1.373125542754049,0.8916189589950674
-0.9102655143147858,1.441734591993246,0.8867683263791575
0.951759478898677,1.441734591993246,0.8867683263791577
-0.9735810606511155,1.43565808269074,0.8308964045894522
1.015075025235007,1.43565808269074,0.8308964045894522
-0.898086351176277,1.231211982129249,0.923531001006308
0.9395803157601683,1.231211982129249,0.923531001006308
-0.9037220373675632,1.302304571022801,0.905877981859738
0.9452160019514544,1.302304571022801,0.905877981859738
-0.9722178953865188,1.296101044414426,0.8517616983899374
1.01371185997041,1.296101044414426,0.8517616983899375
-0.8962507601901089,1.08519227278068,0.9105994680144794
0.9377447247740001,1.08519227278068,0.9105994680144794
-0.8935210927154869,1.163027702158391,0.9246941020817128
0.9350150572993781,1.163027702158391,0.9246941020817128
-0.9680813105827868,1.156819645158188,0.8806214765981384
1.009575275166678,1.156819645158188,0.8806214765981384
-0.9269854745989146,0.8872374964129981,0.8943951803902667
0.9684794391828057,0.8872374964129982,0.8943951803902667
-0.910718813601807,0.9824317046327726,0.8990292077215919
0.9522127781856981,0.9824317046327726,0.8990292077215919
-0.9752248477666217,0.976633180132212,0.871921398600372
1.016718812350513,0.976633180132212,0.8719213986003721
-0.9418230541432813,0.7803890527425973,0.8924245660594161
0.9833170187271724,0.7803890527425973,0.8924245660594161
-0.9365696587201684,0.82425214333427,0.8928876332371938
0.9780636233040595,0.82425214333427,0.8928876332371938
-0.9861339090948105,0.8191453160617369,0.8686774759172151
1.027627873678702,0.819145316061737,0.8686774759172151
-0.949491675849805,0.689638809638244,0.892416291916156
0.9909856404336961,0.689638809638244,0.8924162919161559
-0.9452714421717426,0.7441192251334171,0.8923728901454691
0.9867654067556337,0.7441192251334171,0.8923728901454691
-0.9896958295475985,0.7393948924120966,0.8678885495003376
1.03118979413149,0.7393948924120966,0.8678885495003375
-0.963483738333046,0.465441482854654,0.8867422864295325
1.004977702916937,0.465441482854654,0.8867422864295325
-0.9560142979268717,0.5964346532492246,0.8910296625801474
0.9975082625107629,0.5964346532492246,0.8910296625801473
-0.9952242572021445,0.5915574143246518,0.8676060877534526
1.036718221786036,0.5915574143246518,0.8676060877534526
-0.968620330777286,0.1955139305375243,0.8788321707291655
1.010114295361177,0.1955139305375243,0.8788321707291655
-0.9681424423411978,0.324987503247134,0.8818860179257091
1.009636406925089,0.324987503247134,0.8818860179257092
-1.004867164330497,0.3188802447495491,0.8631592448357179
1.046361128914388,0.3188802447495491,0.8631592448357178
-0.9644945997337105,-0.06345428811663662,0.8769228798584097
1.005988564317602,-0.06345428811663662,0.8769228798584097
-0.9669488475385308,0.06736680207224402,0.8774652855807448
1.008442812122422,0.06736680207224402,0.8774652855807447
-1.006369930130921,0.06111644102796567,0.8615413949654684
1.047863894714813,0.06111644102796567,0.8615413949654684
-0.9604777077940017,-0.325969496355409,0.8731529779229998
