0.4034832659743529,-0.07527428982168119,0.06834701511236241
0.1237900249341363,-0.2993912587489018,0.06873550292649398
0.1236823257621583,-0.1891749232280229,0.06849998915600225
-0.01544829870577842,-0.1879442451077723,0.06849998915600059
0.264144090840024,-0.1891749232280229,0.06849998915600226
0.264036391668046,-0.2993912587489018,0.06873550292649397
0.4029536590982057,-0.2977403778095102,0.06873550292649228
0.1224569444068961,-0.5346816293729153,0.06953214342868054
0.1239403410567256,-0.411891628834909,0.06906424040850208
-0.01467914318688745,-0.4098118371315991,0.06906424040850039
0.2638860755454568,-0.4118916288349092,0.06906424040850208
0.2653694721952863,-0.5346816293729153,0.06953214342868055
0.40692763376654,-0.5321336974057819,0.06953214342867885
0.1062011931574991,-0.82305733811752,0.07064487783439585
0.1159822988760545,-0.6786035965273808,0.07022041165567439
-0.03840243475802199,-0.6755069580908404,0.07022041165567268
0.2718441177261279,-0.6786035965273809,0.0702204116556744
0.2816252234446833,-0.82305733811752,0.07064487783439585
0.4553867796019242,-0.8194099658068695,0.07064487783439412
0.09856981430359034,-0.9526711679875226,0.06787673411714418
0.09984074074641969,-0.9160001336173014,0.06975600778602431
-0.08652116562524803,-0.9119984143352764,0.06975600778602258
0.2879856758557627,-0.9160001336173015,0.06975600778602431
0.289256602298592,-0.9526711679875226,0.06787673411714419
0.4781362726971973,-0.9485296393755072,0.06787673411714243
0.09944878409297202,-1.007700580131033,0.06619105879148873
0.09899904565536954,-0.9755915316758097,0.06670245621974483
-0.08903029759585686,-0.9713626185450472,0.06670245621974302
0.2888273709468129,-0.9755915316758098,0.06670245621974483
0.2883776325092103,-1.007700580131033,0.06619105879148873
0.4755160231279795,-1.003349250367408,0.06619105879148689
0.1004786566420723,-1.107680761843001,0.06201883223862527
0.09994909637246874,-1.052355933803306,0.06456291183571171
-0.08619815249566473,-1.04783435427213,0.06456291183570984
0.2878773202297136,-1.052355933803306,0.06456291183571172
0.2873477599601101,-1.107680761843001,0.06201883223862527
0.4724459254571285,-1.102948254878965,0.06201883223862338
0.1013485406827163,-1.225210708883983,0.06107936055239459
0.1009647464421367,-1.166563782100751,0.06074008376931671
-0.08317045269338196,-1.161606781997881,0.06074008376931472
0.2868616701600457,-1.166563782100752,0.06074008376931671
0.2864778759194662,-1.225210708883983,0.06107936055239459
0.4698527609248523,-1.220030115755162,0.06107936055239249
0.1016769863218481,-1.340599433378825,0.06205000791963922
0.1015851076435655,-1.283144252956918,0.06156078706798872
-0.08132112727806042,-1.277742786593406,0.06156078706798662
0.2862413089586169,-1.283144252956918,0.06156078706798872
0.2861494302803342,-1.340599433378825,0.06205000791963922
0.4688736492934362,-1.334978917555236,0.0620500079196372
0.1016103190284893,-1.4552926072799,0.06665939493568511
0.1016741864321369,-1.398523577504017,0.06375418783429651
-0.08105557929199729,-1.392682224283297,0.06375418783429457
0.2861522301700454,-1.398523577504017,0.06375418783429651
0.2862160975736932,-1.4552926072799,0.06665939493568511
0.469072387576384,-1.449234820567366,0.06665939493568318
0.1013452676287657,-1.549832957948449,0.07199026991323182
0.1015025965044474,-1.506711039246974,0.06953060074430374
-0.08156709679753867,-1.500457218344352,0.06953060074430183
0.2863238200977351,-1.506711039246974,0.06953060074430376
0.2864811489734166,-1.549832957948449,0.07199026991323182
0.4698625180499633,-1.543414733541396,0.07199026991322993
0.1037931629289206,-1.619065181851372,0.07683802594346932
0.1011096175454116,-1.582962015930238,0.07451836022812937
-0.08273858523839797,-1.576417486075869,0.07451836022812748
0.2867167990567708,-1.582962015930238,0.07451836022812938
0.2840332536732618,-1.619065181851372,0.07683802594346934
0.4625652290154527,-1.612383007681137,0.07683802594346743
0.1222398760040228,-1.739639830593036,0.07928192058430335
0.1124309475407676,-1.674667856709607,0.07835534241119474
-0.04898917723636399,-1.667773695807852,0.07835534241119284
0.2753954690614147,-1.674667856709607,0.07835534241119474
0.2655865405981596,-1.739639830593036,0.07928192058430333
0.4075747247086753,-1.732497962248805,0.07928192058430142
0.1299758709612433,-1.899611496346846,0.08132072975411939
0.1277259387242554,-1.808304608445643,0.08014686597880964
-0.003394101564973658,-1.800900953741949,0.0801468659788077
0.2601004778779269,-1.808304608445643,0.08014686597880964
0.2578505456409325,-1.899611496346846,0.08132072975411939
0.384513366173933,-1.891859731614619,0.08132072975411753
0.1392532861901979,-2.163230004061957,0.09277429484631092
0.1333445606282946,-2.026369435817726,0.08289166563733477
0.01335527003067752,-2.018134402945052,0.08289166563733354
0.2544818559738413,-2.026369435817726,0.08289166563733477
0.2485731304118725,-2.163230004061957,0.0927742948463109
0.3568569625626323,-2.154473186497987,0.09277429484631043
0.1443620986200034,-2.239320215043545,0.1806805087735287
0.1435342056241176,-2.239211807428957,0.126704330960272
0.04373107274131299,-2.230165307143926,0.1267043309602707
0.2442922109779427,-2.239211807428957,0.126704330960272
0.2434643179821167,-2.239320215043545,0.1806805087735287
0.341627356573836,-2.230273301451482,0.1806805087735247
0.1439169392106722,-2.224333443137612,0.2656401144544406
0.1441039493430973,-2.222784689045402,0.2311421189099362
0.04542950510171993,-2.213800817602277,0.2311421189099297
0.2437224672590727,-2.222784689045402,0.2311421189099362
0.2439094773915103,-2.224333443137612,0.2656401144544406
0.3429543973489765,-2.215343667026789,0.2656401144544327
0.1436013915755106,-2.295371065081342,0.2894357387477294
0.1437484468920312,-2.254193442586661,0.2828371109530802
0.0443697358633142,-2.24508982440434,0.2828371109530712
0.2440779697101511,-2.254193442586661,0.2828371109530801
0.2442250250266717,-2.295371065081341,0.2894357387477293
0.3438950594343951,-2.286110456077497,0.2894357387477192
0.1434497435049126,-2.3176377684026,0.3105480989668134
0.1435069513276857,-2.317403023679677,0.2972997432254553
0.04364982642377642,-2.308058417225988,0.2972997432254436
0.2443194652744967,-2.317403023679677,0.2972997432254553
0.2443766730972698,-2.3176377684026,0.3105480989668134
0.3443471293422092,-2.308292266978177,0.3105480989668007
-0.727449574133142,2.003952827256722,1.156500850219472
-0.5770756627204204,2.006573988277376,1.152295619639812
-0.5607374433654252,2.080186383341633,1.162978388458829
-0.7795473232935753,1.995979846944484,1.183377067343606
-0.8005441294420157,1.99838309048508,1.168238889121011
-0.8125337646778668,2.070371681221631,1.18347401252956
-0.5168649613007201,1.99930254179892,1.19452649480847
-0.6724300923175721,1.993322094625212,1.191330278068407
-0.6752923770382631,2.065180982325646,1.208675505863347
0.142824750904181,-2.268754995298494,0.3644181073090518
0.1433980436571911,-2.300890216649139,0.3323098301925519
0.0433251676241848,-2.291608565727714,0.3323098301925401
1.123022532135031,1.994920109336262,1.188600757337952
0.9447122463655178,2.000809800986105,1.195042006547252
0.9852908163007477,2.066430711464649,1.210418829339789
1.163653450996274,2.001724547939497,1.161471805936407
1.189455169448368,1.996414317609645,1.175981255890287
1.202309366563544,2.068339785270106,1.191954844018276
0.8863108644361133,2.009977112748547,1.152258284495026
1.046785576483594,2.004871562781527,1.153559131981933
1.037919805640588,2.076767771922166,1.166705220615282
0.2444283729449912,-2.300890216649139,0.3323098301925519
0.2450016656980014,-2.268754995298494,0.3644181073090518
0.3462102611729214,-2.259595860794831,0.3644181073090421
-0.1539855128395968,2.035276975946572,1.157701248267828
0.3232604238848894,2.039143243512677,1.158910811095764
0.317319789112359,2.114017830443166,1.168907479846455
0.136742588649959,-2.164929567576877,0.4552208284001244
0.1407044506721316,-2.226200787347914,0.4035343262122658
0.03529544243452249,-2.217203891935798,0.4035343262122575
0.5608083986115352,2.019454380714278,1.198695451297168
0.06492377829862268,2.022850119354747,1.199429887684814
0.06514709108899669,2.09623588047231,1.217233401718163
0.2471219659300508,-2.226200787347914,0.4035343262122658
0.2510838279522152,-2.164929567576877,0.4552208284001243
0.3643414679778065,-2.156166270380118,0.4552208284001157
-0.1652968629415633,2.383091353651686,1.276399188281519
0.3202171085695697,2.377385845365072,1.276606913851785
0.3204404213599438,2.330402707064555,1.268294105174093
0.5345486516071277,2.380147803686625,1.232650726768206
0.06724776018063834,2.382731342435962,1.23365076490163
0.07276277163754256,2.337971874375662,1.217050720825137
-0.3423341745923541,2.003332842264603,1.193480334362127
-0.4392954390017326,1.99312396301448,1.191129933558955
-0.4385647527558401,2.062445322742293,1.209909670143984
-0.7206625564293018,2.342508735779198,1.264275252464965
-0.5833851275799804,2.344924343127597,1.269243435270438
-0.5855493377494352,2.298312697404183,1.260985363399015
-0.7612934752905449,2.347943791768405,1.236850128558161
-0.7870951937426387,2.345808187838126,1.252046192351292
-0.8023664407207798,2.300198206127367,1.242516281379631
-0.4845375299167268,2.354958736873046,1.227234360251575
-0.6444703566685645,2.349581403296457,1.228599782862001
-0.6379708234563782,2.304574522908033,1.21627581348552
0.2549544897452731,-2.063088973084103,0.5288460786208369
0.2568860731907937,-1.927348502331214,0.6132530186382527
0.3816382292211327,-1.919490989498629,0.6132530186382404
1.100742431631379,2.348486685440005,1.231514654638731
0.9505922996721564,2.35155050883973,1.227349087311992
0.9364170690193975,2.305313430166509,1.211511241626262
1.152840180791812,2.343670856694708,1.259073706114262
1.173836986940253,2.347346915196466,1.244210814573355
1.188243672039069,2.301941232295987,1.233972972620925
0.8908781655868625,2.347347045459215,1.270298579700987
1.045771276376841,2.342998915560775,1.267456411611164
1.051042573857755,2.296984628968595,1.259225096560293
-0.4409839041697224,2.014920947151536,1.152928043772744
-0.3568244096871701,2.024974514288219,1.154899229625174
-0.3504281121324877,2.088918659477363,1.14853811099545
-0.2360576711923544,-1.774092524248223,0.683109984402362
-0.2395476653630106,-1.684131904134997,0.7288987001679516
-0.1212593234375979,-1.693864219715194,0.7288987001679677
-0.4262541160051456,2.361348366486064,1.272127947783925
-0.331094253706879,2.373514626387915,1.274902869906109
-0.3317665661315808,2.334117945185364,1.268611069625679
0.8324868892655684,2.007973003485591,1.196591276713396
0.7301403520856706,2.014938059342765,1.197908172328355
0.7294770709757581,2.072168881221339,1.211641044911193
-0.2776639176520313,2.375399504348083,1.231153881997168
-0.3871069775612768,2.365077817492914,1.228690922946402
-0.3695277645402294,2.330345659002989,1.197416130727949
0.2576482138500323,-1.801267335413908,0.6831099844024102
0.2581655391119033,-1.71002525477086,0.7288987001680012
0.3854523762705329,-1.702996292813771,0.7288987001679865
0.7189206703088616,2.373711373870609,1.274762123405592
0.8141121734271346,2.358364963217873,1.2718742611017
0.8147694508018857,2.319770022225873,1.266009898902038
0.6756878350066243,2.029971765299517,1.156165676922373
0.7876735355709381,2.020192561639564,1.15386763999215
0.769792357535932,2.084038247461672,1.147563556480573
0.8153942456411102,2.359837802550831,1.227806749347201
0.7328516077020362,2.370092451123444,1.229773137092209
0.726617205959014,2.335731390060721,1.198496432994237
-0.6535632356546293,2.36772607278022,1.264185067345724
-0.654895736695476,2.375221249881246,1.250289534695388
-0.5077688683564082,2.383012368732067,1.251621764783739
-0.6736360836202138,2.112089458778422,1.218880702759418
-0.6678116574827444,2.216003157606986,1.241556955291468
-0.5077976238013797,2.238719649076161,1.248350963914014
-0.6644834320286231,1.958561511054655,1.152227771266419
-0.6706436435027451,1.94597548575293,1.165022246221083
-0.5200176312911247,1.945624009430449,1.165299075239571
-0.6371855565013666,2.269663856893248,1.208255309788538
-0.6436669721358235,2.173135081526754,1.186998868278772
-0.4792073586045482,2.174771881518362,1.165824266874646
1.056051040311225,1.952821140618174,1.173945232976428
1.05738351282058,1.947933695169192,1.157371564716117
0.9096610552649054,1.94758536032072,1.156943379293957
0.06762563745148104,2.403993391744958,1.273030235881689
0.06752536810949059,2.411943116179153,1.257878958253729
0.5343705191842449,2.408766095824746,1.257191826645672
1.052866180252805,2.261469076837219,1.251483981582545
1.05878424625134,2.163931642837006,1.230186798938677
0.9005845470046534,2.144705169716126,1.227830192280016
0.06462602727374983,1.986443036304882,1.157256828754632
0.06488741876396792,1.971912028886647,1.170984694803364
0.5416380867396944,1.968950707489332,1.17034421494906
1.037648540749051,2.371942650928212,1.242138037131665
1.043808677756414,2.373706342010789,1.258036094246462
0.893806569563906,2.381632369779969,1.260103196559647
0.06546967391226627,2.143452106251285,1.227505159185399
0.06655818980895788,2.248536030993749,1.250434510257687
0.556159508217034,2.244937312928563,1.249656173119353
-0.3122573526651374,2.39947243435265,1.263854204590634
-0.4299076209025203,2.389271655087808,1.261652338848768
-0.4011410361591919,2.389366551819597,1.244905301039556
1.033660932947956,2.122282217264057,1.176203961599685
1.028325688726118,2.224600546911309,1.19818782377328
0.8636622790084637,2.226607022525486,1.176326714730183
-0.4430108723530161,1.952154012051372,1.166711395810735
-0.3231521906617135,1.961461145968606,1.168724359273837
-0.3655247001982183,1.973559966416581,1.154470455504997
-0.8040609838567283,2.264672324079147,1.234772932229111
-0.8099556734649305,2.167125719208976,1.213473766093192
-0.7786851087414883,2.170765690844338,1.197175786196318
0.6798158719268874,1.964204963323486,1.169317796967323
0.8064405146446626,1.9546903247368,1.167259954025559
0.8017439654414404,1.968920497063833,1.153467022828695
0.07935717098774116,2.304611440503006,1.207053359114412
0.08581984447742565,2.208932149998818,1.184843654738347
0.4965084872734424,2.207957713732954,1.171220687271345
0.817734037504503,2.389271655087808,1.261652338848768
0.70008376926712,2.39947243435265,1.263854204590634
0.7415252507892619,2.394383977268362,1.245990478731961
1.200512400021642,2.115271711347327,1.202165112640795
1.19462542143911,2.219201923737485,1.224844936755292
1.163354856715668,2.222691472628732,1.208514423160008
-0.3344337164921702,2.315210724820424,1.122072751919688
-0.3611463756275255,2.312389067763154,1.123197442950647
-0.365208018034098,2.313648278196285,1.036620219205925
-0.3253510261643857,2.159883321254675,1.097879445411769
-0.3083117518656664,2.259104471358785,1.10782622598627
-0.3091680195876974,2.257010874038884,1.012606721867828
-0.3848038339069381,2.117869392975087,1.095198791754696
-0.3617263009156163,2.119705817255562,1.096406137036269
-0.3688822183250019,2.111883735942174,1.02545340686822
-0.3854928141343064,2.272627478951173,1.11428199942976
-0.3997572738485401,2.174711897840568,1.097675151651449
-0.4457748280219691,2.163563919901875,1.002470796832659
0.7329304695618024,2.132138573037532,1.096824485266428
0.7616421777276939,2.115368948742359,1.095856010233925
0.7718215114564396,2.106256883325862,1.024726733570896
0.7055121834162841,2.298493419715791,1.116862261048281
0.6989795428166274,2.206254566843089,1.100622974323681
0.7004965772235292,2.20493560150585,1.010174264981257
0.7603923155215306,2.299916094010227,1.120357606331898
0.7374006553410947,2.317090541243284,1.123792317867185
0.7387718587410606,2.319772481394799,1.037351377191265
0.7829309858535019,2.135118763371986,1.095356393339848
0.7838460955324773,2.22712126525516,1.104865897729302
0.8288768015469438,2.214843978531524,1.004896151175854
-0.2914206869346783,-2.117371276631513,0.4552208284000898
-0.2577875736443215,-2.177374762165,0.4035343262122322
-0.3451682698019093,-2.158118410954754,0.4033990763213685
0.6456139902463044,-2.177374762165,0.4035343262122322
0.679247103536661,-2.117371276631513,0.4552208284000898
0.77382652823803,-2.098584251229643,0.4550049456302336
-0.2397878811979304,-2.219048500841845,0.3644181073090128
-0.2349210736204226,-2.25051882731211,0.3323098301925044
-0.3182361625099247,-2.23040005223044,0.3323098301925025
0.6227474902224056,-2.25051882731211,0.3323098301925044
0.6276142977999133,-2.219048500841845,0.3644181073090128
0.711799531591349,-2.199244328984589,0.3643910573308388
-0.234482182304728,-2.266919863281587,0.3105480989667623
-0.233996532584052,-2.266689975552273,0.2972997432254082
-0.3171319991302045,-2.246434738950518,0.2972997432254064
0.621822949186035,-2.266689975552273,0.2972997432254083
0.622308598906711,-2.266919863281587,0.3105480989667624
0.7055384187994896,-2.246662686753951,0.3105480989667604
-0.2331948086632058,-2.245113869935826,0.2894357387476884
-0.2319464239156271,-2.204788234427097,0.2828371109530439
-0.3146835897821382,-2.185055360589224,0.2828371109530425
0.6197728405176101,-2.204788234427097,0.2828371109530439
0.6210212252651888,-2.245113869935826,0.2894357387476884
0.704000930710734,-2.225040705016689,0.2894357387476868
-0.2305160557681011,-2.175546054302956,0.2656401144544087
-0.2289284858488879,-2.174029344759499,0.23114211890991
-0.3109998571974018,-2.154595463741827,0.2311070029455506
0.6167549024508707,-2.1740293447595,0.23114211890991
0.6183424723700839,-2.175546054302956,0.2656401144544087
0.7008017424284011,-2.156059942926911,0.2656401144544075
-0.2267370001716726,-2.190222741899765,0.1806805087735124
-0.233765164899846,-2.190116577296631,0.1267043309602666
-0.3162908169822077,-2.17080574544481,0.1265296560065172
0.6215915815018288,-2.190116577296631,0.1267043309602666
0.6145634167736555,-2.190222741899765,0.1806805087735124
0.6958911750753645,-2.170809937550118,0.1805049289517197
-0.2701068263465042,-2.115706877992819,0.09277429484630906
-0.3202672900663393,-1.981678027948062,0.08289166563732978
-0.4193817403006283,-1.964299578216016,0.08289588835486304
0.7080937066683224,-1.981678027948062,0.08289166563732978
0.6579332429484872,-2.115706877992819,0.09277429484630904
0.7471670683714493,-2.097270538844696,0.09274370322216496
-0.3488648334887375,-1.857542777895557,0.08132072975411189
-0.3636006665260169,-1.768125078235526,0.0801468659788018
-0.4672841755188789,-1.752077021157355,0.0801468659788015
0.7514270831279998,-1.768125078235526,0.0801468659788018
0.7366912500907205,-1.857542777895557,0.08132072975411188
0.8420319373216222,-1.840807546862721,0.08132133299947351
-0.3927157175183312,-1.700881011283088,0.07928192058429559
-0.4434958158542648,-1.637253342214856,0.07766981678789348
-0.5096794330096006,-1.622298197017855,0.07682014017806468
0.8313222324562477,-1.637253342214856,0.07766981678789348
0.780542134120314,-1.700881011283088,0.07928192058429558
0.8713549916274552,-1.685400398610023,0.07928192058429527
-0.4877282997556866,-1.582801116374593,0.07203934658040667
-0.5008109838174847,-1.547444944224632,0.06055934930899734
-0.5367689638916496,-1.533212390106536,0.04362089343449144
0.8886374004194675,-1.547444944224631,0.06055934930899733
0.8755547163576694,-1.582801116374593,0.07203934658040667
0.9193707513202489,-1.568236712606596,0.06609161031160682
-0.4988104987157863,-1.515001344133468,0.04743990645497778
-0.4974748994773385,-1.472771640944101,0.03590374752758136
-0.5324877741829074,-1.459412065399444,-0.004371168093015399
0.8853013160793216,-1.472771640944101,0.03590374752758135
0.8866369153177691,-1.515001344133468,0.04743990645497778
0.9218886443238255,-1.501268220379076,0.01801746768414488
-0.4965604194084337,-1.422417083776448,0.02500442294213116
-0.4960182350490537,-1.366822635524266,0.01507154583064159
-0.5312482420042274,-1.354161001013794,-0.0433536850208142
0.8838446516510368,-1.366822635524266,0.01507154583064162
0.8843868360104167,-1.422417083776448,0.02500442294213117
0.9196221526212289,-1.409325534708726,-0.02497043014882487
-0.4959944661728711,-1.310096972855147,0.007710792041818477
-0.4967744443695767,-1.253830570780006,0.003757350694812303
-0.5321513697252016,-1.242122428791124,-0.06561396883745074
0.8846008609715595,-1.253830570780006,0.003757350694812305
0.8838208827748539,-1.310096972855147,0.007710792041818491
0.9190462718482131,-1.297914022358988,-0.05750303163912417
-0.4987827130448805,-1.197095702653079,0.003275924179218187
-0.5020408263010636,-1.139662212084863,0.006400867891496043
-0.5384409186404051,-1.128917488867595,-0.05881295578944663
0.8898672429030464,-1.139662212084863,0.006400867891496055
0.8866091296468635,-1.197095702653079,0.00327592417921819
0.9223762268946402,-1.185866322359497,-0.06609539535304485
-0.5061673489369784,-1.08199751294212,0.01333619023497046
-0.5106629018971736,-1.027817385121432,0.02290793984215785
-0.5485297453566485,-1.018012848185391,-0.02706830071646206
0.8984893184991565,-1.027817385121432,0.02290793984215785
0.8939937655389613,-1.08199751294212,0.01333619023497047
0.9311955699025265,-1.071739397873103,-0.04508904061648539
-0.5149101622718942,-0.9840859745492058,0.03256420557476657
-0.5187280902406803,-0.952641279443124,0.04189502065275619
-0.5566342743759294,-0.943475471505187,0.01217853659659435
0.9065545068426633,-0.952641279443124,0.0418950206527562
0.9027365788738773,-0.9840859745492057,0.03256420557476657
0.9405951150457542,-0.9746359678655092,-0.007717647384148946
-0.5223719290723665,-0.9301951503121482,0.05263236265433743
-0.5174018683123836,-0.8942828592143817,0.06332920506764017
-0.5610857954784363,-0.8857030401055307,0.05552109075887427
0.9052282849143665,-0.8942828592143817,0.06332920506764017
0.9101983456743493,-0.9301951503121481,0.05263236265433743
0.9485294536554945,-0.9213086572965816,0.03425697957711611
-0.4866830437827591,-0.8032630997570711,0.06935951729071345
-0.4385637687309962,-0.6617981831754102,0.0702204116556675
-0.5290088465468841,-0.6550859535578752,0.07022041165566725
0.826390185332979,-0.6617981831754102,0.0702204116556675
0.874509460384742,-0.8032630997570711,0.06935951729071346
0.9373164277801142,-0.7953759573801789,0.06779789442896006
-0.4068755338300745,-0.5208540383325407,0.06953214342867371
-0.4001017670089327,-0.4006046284387032,0.06906424040849529
-0.5137804448697796,-0.3960965013985709,0.06906424040849502
0.7879281836109153,-0.4006046284387031,0.06906424040849528
0.7947019504320572,-0.5208540383325407,0.06953214342867371
0.9035591301164399,-0.515331177086791,0.06953214342867345
-0.401377833452469,-0.2904319510512356,0.0687355029264872
-0.4022921152805951,-0.1824960503347544,0.06849998915599551
-0.516387526307988,-0.1798284498713104,0.06849998915599524
0.7901185318825781,-0.1824960503347545,0.06849998915599551
0.7892042500544518,-0.2904319510512356,0.06873550292648718
0.9031257108629323,-0.2868535249083322,0.06873550292648692
-0.4028860115482358,-0.07173501706115351,0.06834701511235733
-0.4032183670117819,0.04506972440784551,0.06826141140825023
-0.5174900056382056,0.04581699298888758,0.06826141140824996
0.7910447836137646,0.04506972440784551,0.06826141140825023
0.7907124281502187,-0.0717350170611535,0.06834701511235734
0.9049208332048244,-0.07000208238285956,0.06834701511235708
-0.4033654721290907,0.169293416120693,0.06822352325369217
-0.4034022484084178,0.298717371404546,0.06821405121505265
-0.5177088720998563,0.2973242141505741,0.06821405121505239
0.7912286650104005,0.298717371404546,0.06821405121505265
0.7911918887310734,0.169293416120693,0.06822352325369217
0.9054915154095089,0.1689924132030192,0.06822352325369191
-0.4034022484084179,0.4275289748652684,0.06821405121505265
-0.4034081264861033,0.5581684939061512,0.06821253730739495
-0.5177158685339048,0.5545859377277217,0.06821253730739468
0.7912345430880861,0.5581684939061513,0.06821253730739495
0.7912286650104006,0.4275289748652684,0.06821405121505265
0.9055352887018393,0.425048830654542,0.06821405121505239
-0.4034316387968447,0.701329078727913,0.06820648167676409
-0.4050725440752654,0.822100332199858,0.06821480856070028
-0.5196988119689598,0.8162905662205272,0.0682148085607
0.7928989606772481,0.8221003321998579,0.06821480856070028
0.7912580553988275,0.7013290787279131,0.06820648167676409
0.9055702708720812,0.696538450572722,0.06820648167676383
-0.4091160264944634,0.8835891387695567,0.0682507648471179
-0.4125066646999204,0.9078843420033171,0.06830908637697755
-0.5285559927472072,0.901350680837145,0.06830908637697725
0.8003330813019032,0.9078843420033171,0.06830908637697757
0.7969424430964461,0.8835891387695567,0.0682507648471179
0.9123426584776117,0.8772604946074224,0.06825076484711759
-0.4137005545171963,0.9238516319266159,0.06842403237722775
-0.4166050195510034,0.9475573441753369,0.06864342302370516
-0.5311559309903935,0.9406888992262014,0.06864342302370499
0.8044314361529862,0.9475573441753368,0.06864342302370516
0.801526971119179,0.9238516319266159,0.06842403237722775
0.9178052754366427,0.9171832295149736,0.06842403237722747
-0.4334411265265981,0.9947203637801874,0.06897173750481435
-0.475899706419621,1.081534695345296,0.06887596188661177
-0.5538181946015387,1.073547918162035,0.068225406888738
0.8637261230216039,1.081534695345296,0.06887596188661178
0.8212675431285809,0.9947203637801876,0.06897173750481435
0.9253367181321699,0.9874539299405005,0.06897173750481428
-0.5175745171794939,1.168458637493339,0.06598152490780057
-0.5292228483436796,1.212053457930973,0.05814779749077011
-0.571456509593837,1.203037219696713,0.04465924512929695
0.9170492649456623,1.212053457930973,0.0581477974907701
0.9054009337814766,1.168458637493339,0.06598152490780057
0.9569424450229619,1.159811823485718,0.06142763992268432
-0.5254524365772724,1.240243020402121,0.0471242676258066
-0.5209614376788971,1.280298152628149,0.03520833638734137
-0.561293326109635,1.270583502832252,-0.001894242869471121
0.9087878542808798,1.280298152628149,0.03520833638734137
0.9132788531792551,1.240243020402121,0.04712426762580659
0.9544612074473559,1.230884748467079,0.02203158447488223
-0.5156062874094174,1.335920224874926,0.02291970416060581
-0.5098939649822747,1.404139835188017,0.01170837966523759
-0.5485843993168329,1.393418482588646,-0.04795325584426629
0.8977203815842574,1.404139835188016,0.01170837966523758
0.9034327040114002,1.335920224874926,0.02291970416060581
0.9431311909491089,1.325766879864741,-0.02615301990540329
-0.5049819930634883,1.475316809392691,0.003954679955280684
-0.5014365046643704,1.544403448311612,0.001227696789893472
-0.5384838006401937,1.532498470061474,-0.06900229782092379
0.8892629212663533,1.544403448311612,0.001227696789893451
0.8928084096654712,1.475316809392691,0.003954679955280665
0.9305445327560615,1.463994824237688,-0.06297284929122683
-0.4992322431415263,1.610944527764838,0.004285296633348682
-0.4981666722659624,1.675397531068634,0.01173949071612118
-0.5345786963234436,1.662387148836686,-0.05518803853038631
0.8859930888679451,1.675397531068634,0.01173949071612116
0.8870586597435092,1.610944527764838,0.004285296633348657
0.9236777058044969,1.598478037325497,-0.06594469797746862
-0.4978599762230862,1.739132649035471,0.02005643503488794
-0.4981105505275772,1.800718688911375,0.02854599401293807
-0.5344112820825105,1.786693108093161,-0.02052563906225933
0.8859369671295601,1.800718688911375,0.02854599401293804
0.8856863928250689,1.739132649035471,0.02005643503488791
0.9220388311424368,1.725584432943406,-0.03960520047461598
-0.4988950020233865,1.855923074375925,0.03936174050017283
-0.5000903730353365,1.905203085734744,0.05256546227710848
-0.5362706196226912,1.890552243149933,0.0272547769035921
0.8879167896373195,1.905203085734744,0.05256546227710847
0.8867214186253692,1.855923074375925,0.03936174050017281
0.9227729994720547,1.841600982832594,0.002264616197418882
-0.5014741413691206,1.953705859919495,0.06612716205487622
-0.4935263747262432,2.005791197969946,0.08141241562766993
-0.5346469441617748,1.99099055043122,0.07541596726036387
0.8813527913282262,2.005791197969945,0.08141241562766992
0.8893005579711035,1.953705859919495,0.06612716205487622
0.9257369061601524,1.938824795957222,0.05152241480096187
-0.4574297307040194,2.065031565033964,0.1031823718727462
-0.4019714395981392,2.12856733209922,0.1289507409246702
-0.4871017976781562,2.113232244892188,0.1289507409246698
0.789797856200122,2.12856733209922,0.1289507409246702
0.8452561473060022,2.065031565033964,0.1031823718727461
0.9042898431156922,2.050132306148487,0.1019830821992848
-0.3635433044026681,2.187106775993184,0.1489837941753164
-0.3518498692901853,2.236462461003621,0.1641400076342271
-0.4577824059211872,2.220256758323853,0.1641581802685415
0.7396762858921679,2.236462461003621,0.1641400076342271
0.7513697210046509,2.187106775993184,0.1489837941753164
0.8535459402786441,2.171277699034771,0.1489837941753158
-0.3499084196117824,2.277551238878592,0.1858700619286131
-0.3461229696597474,2.311122382004008,0.2182447230327816
-0.4528031735246983,2.294459316499315,0.2183113460447269
0.7339493862617305,2.311122382004008,0.2182447230327816
0.7377348362137652,2.277551238878592,0.1858700619286131
0.842890997816097,2.261158269882219,0.1859609251001878
-0.3342842626675628,2.337757583403639,0.2579548422681358
-0.314965573401701,2.359745887275408,0.3038797217718872
-0.4373739972522935,2.342525962710868,0.3037585209737399
0.7027919900036839,2.359745887275408,0.3038797217718872
0.7221106792695456,2.337757583403639,0.2579548422681358
0.8359279709402621,2.32076307504001,0.2578518141043035
-0.2955227081616242,2.381083688991392,0.3570871144970557
-0.2806814237199884,2.405333164189163,0.4209202638602027
-0.3889436188746385,2.38766256650424,0.4209202638602018
0.6685078403219713,2.405333164189163,0.4209202638602027
0.6833491247636072,2.381083688991393,0.3570871144970557
0.8041240711755697,2.3636309186828,0.3570628743374256
-0.2725374273226428,2.435622268771779,0.5009979037414304
-0.270290921560182,2.464849139464833,0.5814402179697401
-0.3620949887235245,2.446676311490829,0.5814402179697388
0.6581173381621651,2.464849139464834,0.5814402179697402
0.6603638439246258,2.435622268771779,0.5009979037414305
0.7572481026490275,2.417696074069751,0.5009979037414294
-0.2701579699834719,2.482447033208298,0.6387945590695492
-0.2701358113873535,2.492341403666509,0.687184923078778
-0.3602925151639085,2.473936580035311,0.6868395361451167
0.6579622279893365,2.49234140366651,0.687184923078778
0.6579843865854549,2.482447033208298,0.6387945590695492
0.7483764279886938,2.464125704008847,0.6387945590695473
-0.2701358113873535,2.504292589071548,0.7647165240250823
-0.2687485947207277,2.519094579524906,0.8642345246018646
-0.3585777901031892,2.500479935151341,0.8606479963005983
0.6565750113227106,2.519094579524906,0.8642345246018646
0.6579622279893365,2.504292589071548,0.7647165240250823
0.7481189317658915,2.485786914412151,0.7629895893567851
-0.2631997280542242,2.530467389762265,0.932993742945526
-0.2531055009318881,2.533302298251785,0.959552902973585
-0.3404646076653982,2.514510550568982,0.956239461321254
0.640931917533871,2.533302298251785,0.959552902973585
0.6510261446562071,2.530467389762265,0.932993742945526
0.739545306462295,2.511820527261656,0.9288765787855637
-0.2452543715296542,2.514037984276068,0.9692576549114826
-0.2515893753522063,2.462172533383646,0.9724499098509881
-0.3420895822601208,2.4435363631105,0.9699228930823746
0.6394157919541893,2.462172533383646,0.9724499098509882
0.6330807881316372,2.514037984276068,0.9692576549114826
0.7217843938077214,2.495320781379195,0.9666618726762484
-0.2750861236119785,2.401243104074011,0.9718755470100682
-0.3250127989799115,2.354126874294189,0.9808128191559907
-0.4011949557673897,2.333869789344399,0.974324857283642
0.7304425689006227,2.330256464807259,1.003072511371347
0.6629125402139615,2.401243104074011,0.9718755470100682
0.750290540139855,2.383403490936523,0.9686530714326529
-0.3348806850351682,2.258826957836803,1.25269980838498
-0.3392154087356984,2.161832420480605,1.231529136503786
-0.4353498893629488,2.153497667691017,1.229726481358966
0.7270418253376811,2.161832420480605,1.231529136503786
0.7227071016371509,2.258826957836803,1.25269980838498
0.8180129823428722,2.249291342319444,1.250642796523369
-0.3694622402758916,2.092606480990831,0.9963874904871399
-0.3525525063875445,1.981161122461125,0.9686223997341904
-0.451401435799167,1.967302815561929,0.9652416529532202
0.7403789229895277,1.981161122461125,0.9686223997341904
0.7587258615015324,2.05105543634769,0.9770075505837974
0.8402780278585931,2.031811769340854,0.9708093917853135
-0.3537700467180343,1.903249888831502,0.9676953608136331
-0.3564616714220898,1.833475123617017,0.9678122970900949
-0.4679652473701433,1.818313189907478,0.9651338306772781
0.7442880880240728,1.833475123617017,0.9678122970900949
0.7415964633200173,1.903249888831502,0.9676953608136332
0.849125658961698,1.88753628215751,0.9649873900925081
-0.3595025287984658,1.769805317898437,0.9700497648482351
-0.3626379128492457,1.705428936508972,0.9741852703793891
-0.4752281692398159,1.691409118877166,0.9715068039665723
0.7504643294512284,1.705428936508972,0.9741852703793891
0.7473289454004486,1.769805317898437,0.9700497648482351
0.8594485859326717,1.755211291054535,0.9673712984354184
-0.365686122406261,1.638956351213198,0.9788264403420879
-0.3684710540856646,1.569923306181378,0.9839273574241552
-0.4801739982061756,1.557112139603663,0.9812488910113382
0.7562974706876475,1.569923306181378,0.9839273574241552
0.7535125390082438,1.638956351213198,0.9788264403420879
0.8660619518142373,1.625529440017026,0.9761479739292711
-0.3708222022879312,1.498790917989454,0.9907885603427069
-0.372693363925928,1.427386783195423,0.9993131282102721
-0.4796698196568684,1.415846980164276,0.9968355467784158
0.7605197805279107,1.427386783195423,0.9993131282102721
0.7586486188899141,1.498790917989454,0.9907885603427069
0.8684771486251752,1.486614221254507,0.9881100939298897
-0.3741626384249145,1.358904978339333,1.008006680534794
-0.3769825655980572,1.280650900086766,1.023560331136319
-0.4778018341262506,1.270419917060836,1.022935355639994
0.7648089822000401,1.280650900086766,1.023560331136319
0.7619890550268974,1.358904978339332,1.008006680534793
0.8654586698947007,1.347976003104974,1.006332639026782
-0.382957344902488,1.177203064781291,1.053556935528195
-0.3885385893083753,1.086322600599661,1.083092253347768
-0.4898140264086361,1.07782494115185,1.083092253347765
0.7763650059103581,1.086322600599661,1.083092253347768
0.7707837615044709,1.177203064781291,1.053556935528195
0.87128232333847,1.167894791275867,1.053467653314432
-0.3905224022853409,1.037871874195315,1.099387777962424
-0.3900238308507479,1.013183248780228,1.107613651970705
-0.4915770320670869,1.005337960414404,1.107613651970703
0.7778502474527307,1.013183248780228,1.107613651970706
0.7783488188873236,1.037871874195315,1.099387777962424
0.879988606251997,1.029806374071058,1.099387777962421
-0.3875344392934692,0.996648966328875,1.112440891926971
-0.3814625644492293,0.9721119897374405,1.118248262255383
-0.4814263825170052,0.9646330390685446,1.118248262255381
0.7692889810512121,0.9721119897374405,1.118248262255383
0.7753608558954519,0.996648966328875,1.112440891926971
0.8764551224333355,0.9889511565428354,1.112440891926968
-0.3736522404240926,0.9115645729556587,1.132256215275128
-0.3687365560510079,0.7936352537189053,1.158925237461361
-0.4662834486650306,0.7877482376035621,1.158925237461358
0.7565629726529908,0.7936352537189053,1.158925237461361
0.7614786570260755,0.9115645729556586,1.132256215275128
0.8599753578161913,0.9046256788064725,1.132256215275126
-0.3664158301780506,0.6529403656096715,1.187938768592573
-0.3649081037104724,0.5229178014010921,1.209540280025259
-0.4616793683987963,0.5194454667518519,1.209540280025255
0.7527345203124553,0.5229178014010921,1.209540280025259
0.7542422467800334,0.6529403656096715,1.187938768592573
0.8513189703453523,0.6483082864619452,1.18793876859257
-0.3640201696327298,0.3941066224637071,1.224545113809442
-0.3638724404336198,0.2646990306436609,1.233274076325546
-0.4604338842105941,0.2635298946785459,1.233274076325542
0.7516988570356027,0.264699030643661,1.233274076325546
0.7518465862347126,0.3941066224637071,1.224545113809442
0.8484379593100246,0.3917832272852845,1.224545113809438
-0.36489894810628,0.1405403682627031,1.235553438284388
-0.3670992152662256,0.02385072883470819,1.231534128039813
-0.4643143897018298,0.02482985455550026,1.231534128039808
0.7549256318682085,0.02385072883470818,1.231534128039813
0.7527253647082629,0.1405403682627031,1.235553438284388
0.8494947745106801,0.1404786733522403,1.235553438284383
-0.3700382551513484,-0.08677504293432455,1.221691731588695
-0.3732289424485337,-0.1945748315868528,1.206252871181336
-0.4716859731635473,-0.1916474452424561,1.206252871181331
0.7610553590505164,-0.1945748315868527,1.206252871181336
0.7578646717533312,-0.08677504293432455,1.221691731588695
0.8556752829886855,-0.08480918363401224,1.22169173158869
-0.3761320132936599,-0.3046192509137914,1.185195205321467
-0.3787299902977367,-0.4247511682386905,1.155812295762542
-0.4782899217294291,-0.4197707094776826,1.155812295762537
0.7665564068997194,-0.4247511682386905,1.155812295762542
0.7639584298956426,-0.3046192509137914,1.185195205321467
0.8630036102380975,-0.3007103163998108,1.185195205321463
-0.3815271825469059,-0.5655857044177354,1.112713607507733
-0.3837224400605241,-0.7111208091839877,1.061866039603374
-0.4841895296919343,-0.7035860582688337,1.061866039603369
0.7715488566625071,-0.7111208091839878,1.061866039603374
0.7693535991488887,-0.5655857044177354,1.112713607507733
0.8694338782917704,-0.5593490630893037,1.112713607507728
-0.3832091537911636,-0.8187372611473859,1.020593925138957
-0.3802234058959934,-0.8826514088463204,0.9926051596957548
-0.480039545514761,-0.8735866798808851,0.9926051596957508
0.7680498224979763,-0.8826514088463204,0.9926051596957547
0.7710355703931465,-0.818737261147386,1.020593925138957
0.8713986704410431,-0.8102426184713607,1.020593925138952
-0.3773439697367795,-0.933915170747634,0.9679912013468217
-0.3754969988551142,-0.9875429194897218,0.9405202823625769
-0.4744135280121958,-0.9775426040501464,0.9406224822033553
0.763323415457097,-0.987542919489722,0.9405202823625768
0.7651703863387624,-0.9339151707476339,0.9679912013468216
0.864449515985021,-0.9243931914103218,0.9679912013468184
-0.3739560269724155,-1.042511481882533,0.9076374092108046
-0.3723502688655447,-1.098336341809224,0.8744744451900475
-0.4711752564729248,-1.087347797420422,0.8754964435978566
0.7601766854675277,-1.098336341809224,0.8744744451900472
0.7617824435743983,-1.042511481882533,0.9076374092108044
0.8603867784768255,-1.032020870868395,0.9081484084147076
-0.3706646203668061,-1.155071640226158,0.8538501104296066
-0.3688979032620433,-1.21244591063888,0.8468621084575041
-0.4727726925667071,-1.200439558721976,0.8473731076614076
0.7567243198640262,-1.21244591063888,0.8468621084575043
0.7584910369687892,-1.155071640226158,0.8538501104296064
0.859158408939708,-1.143577041748903,0.8548721088374157
-0.3670628652906389,-1.269862079102111,0.8428871262004837
-0.3650884193307826,-1.329206708981924,0.8358195761044435
-0.4740470917400116,-1.316158901727315,0.8358195761044416
0.7529148359327654,-1.329206708981924,0.8358195761044435
0.7548892818926217,-1.269862079102111,0.8428871262004838
0.8617342394254983,-1.257343600033242,0.8429893260412625
-0.3628196433994718,-1.394850000955739,0.8240715961344374
-0.3602132899857842,-1.466116950111836,0.8064176354273868
-0.4717592489384423,-1.451847963288102,0.8064176354273859
0.748039706587767,-1.466116950111836,0.8064176354273868
0.7506460600014545,-1.394850000955739,0.8240715961344374
0.861225867518257,-1.381216684199818,0.8240715961344362
-0.3573965203110383,-1.538026510591605,0.7837946643605454
-0.3546100116972276,-1.604593332338904,0.7589944732807756
-0.4657384493743232,-1.589089196651312,0.7589944732807736
0.7424364282992104,-1.604593332338904,0.7589944732807756
0.7452229369130212,-1.538026510591605,0.7837946643605455
0.8568133836796459,-1.523116121887646,0.7837946643605442
-0.3515388819637842,-1.671879176839956,0.7288987001679425
-0.3471471946603708,-1.761233410138589,0.6831099844023532
-0.4566260853485802,-1.744474326137736,0.6830383681827493
0.7349736112623537,-1.761233410138589,0.683109984402353
0.7393652985657672,-1.671879176839956,0.7288987001679423
0.8498715386097666,-1.655774880799727,0.7288987001679401
-0.3406772158996477,-1.884705890422844,0.6132530186382035
-0.3242795815319938,-2.017637818391147,0.5288460786207966
-0.4269250331047543,-1.999847196952535,0.5283086984460204
0.7121059981339766,-2.017637818391148,0.5288460786207965
0.7285036325016305,-1.884705890422844,0.6132530186382035
0.8358460586680183,-1.867698762515672,0.6127517051009903
-0.08652189357155445,-2.144780937656182,0.4552208284001046
-0.06708804474199702,-2.205515066890897,0.4035343262122467
-0.165045202659897,-2.193057946490012,0.4035343262122374
0.4549144613439998,-2.205515066890897,0.4035343262122467
0.4743483101735564,-2.144780937656182,0.4552208284001047
0.5795992437977051,-2.132647257837944,0.4552208284000953
-0.05362174894305224,-2.296150530734378,0.3105480989667843
-0.05334113135126842,-2.295917843733986,0.2972997432254284
-0.1461388942463487,-2.282979281890124,0.2972997432254155
0.4411675479532714,-2.295917843733986,0.2972997432254284
0.4414481655450552,-2.296150530734378,0.3105480989667843
0.5343512478645721,-2.283210729712149,0.3105480989667703
-0.04914643625248651,-2.21851949246182,0.1806805087735194
-0.05320744272836833,-2.218412035125451,0.1267043309602689
-0.1459550305480876,-2.205886231712694,0.1267043309602674
0.4410338593303589,-2.218412035125451,0.1267043309602689
0.4369728528544831,-2.21851949246182,0.1806805087735194
0.5281962922341796,-2.205993116783275,0.1806805087735149
-0.05668748208929686,-2.247696253666815,0.3644181073090296
-0.05387534864428061,-2.27954978447276,0.3323098301925248
-0.1468736102232713,-2.266698390991913,0.3323098301925118
0.4417017652462835,-2.279549784472759,0.3323098301925248
0.4445138986912997,-2.247696253666814,0.3644181073090295
0.5385675904521109,-2.235014496676915,0.3644181073090188
-0.05287788010996177,-2.274079012618745,0.289435738747706
-0.05215653979703485,-2.233262344442148,0.2828371109530595
-0.1445097101064726,-2.220657455468103,0.2828371109530495
0.4399829563990376,-2.233262344442148,0.2828371109530595
0.4407042967119647,-2.274079012618745,0.289435738747706
0.5333281954034195,-2.26125675382145,0.2894357387476947
-0.0513300460344842,-2.203664091424439,0.2656401144544224
-0.05041271811571361,-2.202128913382611,0.2311421189099213
-0.1421114095143191,-2.189689825996717,0.231142118909914
0.4382391347177151,-2.202128913382611,0.2311421189099212
0.4391564626364869,-2.203664091424439,0.2656401144544224
0.5311994391093907,-2.191216828423173,0.2656401144544137
-0.4774291600256755,-2.077943811701909,0.4541414145508139
-0.4276834767703969,-2.137053647853894,0.4028580767579186
-0.5270825614614881,-2.100453436227104,0.4104124048144354
0.8155098933723798,-2.137053647853894,0.4028580767579187
0.8652555766276585,-2.077943811701909,0.454141414550814
0.9532632054326513,-2.052086753565775,0.4555518766407165
-0.3973998947550194,-2.223762949930719,0.3105480989667604
-0.3967295536411122,-2.22353719511761,0.2972997432254064
-0.4917813732759611,-2.184834874138304,0.3025463531614172
0.7845559702430951,-2.22353719511761,0.2972997432254064
0.7852263113570022,-2.223762949930719,0.3105480989667604
0.8803684646598073,-2.18505015432633,0.3163225627552657
-0.3847227060611534,-2.14943047470561,0.1798026096645516
-0.3935858787872992,-2.149831601824126,0.1258309561915206
-0.4757486375488143,-2.118644335523038,0.1256830590777676
0.7814122953892819,-2.149831601824126,0.1258309561915205
0.7725491226631363,-2.14943047470561,0.1798026096645515
0.8657957314708298,-2.114629591321465,0.1784652244455146
-0.4043463794202872,-2.176997409584455,0.3642828574181488
-0.3980056953576375,-2.207656771401174,0.3323098301925025
-0.493220690071291,-2.169691274068262,0.3384651599951823
0.7858321119596203,-2.207656771401173,0.3323098301925025
0.79217279602227,-2.176997409584455,0.3642828574181488
0.8882700470871806,-2.140072337619191,0.3709397719225811
-0.3956229360868021,-2.202348984221814,0.2894357387476868
-0.3938997936929153,-2.16274832204232,0.2828371109530425
-0.488535916478105,-2.126866497538381,0.2856120550125939
0.7817262102948981,-2.16274832204232,0.2828371109530425
0.7834493526887849,-2.202348984221814,0.2894357387476868
0.878342462982956,-2.164629758850761,0.2936773342218866
-0.3919254600600766,-2.134031857146501,0.2656401144544074
-0.389336834636324,-2.132739572393166,0.2309665390881169
-0.4832621673334638,-2.098342704235035,0.2316418388575246
0.7771632512383069,-2.132739572393166,0.230966539088117
0.7797518766620594,-2.134031857146501,0.2656401144544075
0.874079760078545,-2.099482425956111,0.2672564510802779
-0.1571775132574825,0.9334739923315871,0.06842403237723077
-0.1601267678388889,0.9574683616338564,0.06864342302370709
-0.292562671319504,0.9530809628839605,0.06864342302370587
0.5479531844408916,0.9574683616338566,0.06864342302370709
0.5450039298594851,0.9334739923315871,0.06842403237723077
0.6767728346223512,0.9292143759815476,0.06842403237722883
-0.1774809873893617,1.005205670597025,0.06897173750481518
-0.2210793541659263,1.093077113161081,0.06940174341757129
-0.3671537634922606,1.087967527822577,0.06929659555686768
0.6089057707679293,1.09307711316108,0.0694017434175713
0.5653074039913644,1.005205670597025,0.06897173750481518
0.7016172024792303,1.000564046040013,0.06897173750481465
-0.1576610507664847,-1.72321920043759,0.07928192058429892
-0.2057761117827897,-1.658816757117257,0.07835534241119035
-0.3449232317136838,-1.649271087363152,0.0782182482979447
0.5936025283847926,-1.658816757117257,0.07835534241119035
0.5454874673684874,-1.72321920043759,0.07928192058429892
0.6730738666965149,-1.713330554435149,0.07928192058429678
-0.2612767415518145,1.970638186409542,0.07824550878920689
-0.2533479973198217,2.017081454744321,0.08634161748041264
-0.4038900749904223,2.014345353896939,0.08535585628631807
0.6411744139218244,2.01708145474432,0.08634161748041264
0.6491031581538173,1.970638186409542,0.07824550878920689
0.8014662725786692,1.964170719308391,0.07582203409611077
-0.2597864660687613,1.876894977602446,0.07035433697395604
-0.2604771740428023,1.925729006832233,0.07372358112682224
-0.4125402004036009,1.916848237205179,0.06949229721409683
0.6483035906448051,1.925729006832233,0.07372358112682224
0.6476128826707642,1.876894977602446,0.07035433697395603
0.7994166773638805,1.867611157612827,0.06415631550500665
-0.2591884085899878,1.758682431732185,0.06976930737673412
-0.2593331951612461,1.821018385579218,0.06945108633486012
-0.410966871399588,1.812032137279646,0.0612707249180588
0.6471596117632491,1.821018385579218,0.06945108633486012
0.6470148251919907,1.758682431732185,0.06976930737673413
0.7985941611508703,1.750028154558002,0.05982753143296818
-0.2599813303637334,1.628933403748481,0.06280422134670066
-0.2593656233628941,1.69417123114157,0.06750664642972547
-0.4110114703262146,1.685860509404317,0.05635411105994621
0.6471920399648969,1.69417123114157,0.06750664642972545
0.6478077469657364,1.628933403748481,0.06280422134670066
0.7996846767579856,1.620970107110887,0.05110137637790303
-0.2633036445909809,1.491654189013122,0.05972183566888482
-0.2612549943521353,1.561582074354902,0.05974662150324539
-0.413609946770701,1.553977458305883,0.04804377653444783
0.6490814109541383,1.561582074354902,0.05974662150324539
0.6511300611929838,1.491654189013122,0.05972183566888482
0.8042538986365072,1.484421975042845,0.04856930029910565
-0.2694425627594253,1.350560215826298,0.06382479648252776
-0.2661418748464031,1.419610515025732,0.06142125200708362
-0.4203309369434544,1.412761970800678,0.05147947606331781
0.653968291448406,1.419610515025732,0.06142125200708362
0.6572689793614281,1.350560215826299,0.06382479648252779
0.8126968324733076,1.344079400080863,0.05564443506572651
-0.2751318539299885,1.253717979919466,0.06808521840141063
-0.2725368698459619,1.294260850979365,0.06620093286112451
-0.4291260565698211,1.28807985840745,0.06000291139217518
