1.812618060180356,-1.210725053023625,0.7244442782077079
3.475578760307835,-1.227908078713457,0.7187931255437154
3.465854494589657,-1.31923920669804,0.7190517544729722
3.600322781108449,-1.301379994044557,0.7245901073347523
2.128736986940143,-1.655962206646452,0.7399447131587709
2.052812649645631,-1.582870510283403,0.7316668159916229
1.951409076273176,-1.562667780085621,0.7356033554929582
3.454614248296855,-1.41090018403912,0.7213134479170796
3.431095140059675,-1.497437417525288,0.7259902625989962
3.546637059275332,-1.477861715752763,0.7306627251778337
1.934215139248328,-1.042951303018674,0.7000332183206856
1.936156897512046,-1.008655240781619,0.6717571136902337
1.832186542002679,-0.9936377211991713,0.6682804808847874
3.490708924334522,-1.008655240781619,0.6717571136902336
3.49265068259824,-1.042951303018675,0.7000332183206854
3.626779876237655,-1.019374247992739,0.7014986937809116
2.502934033203401,2.918441622222654,1.408139633989157
2.503479836010393,2.915146896136563,1.434935756052131
2.422900199902667,2.911797205697924,1.433497490447403
2.923385985836175,2.915146896136563,1.434935756052131
2.923931788643167,2.918441622222654,1.408139633989157
3.004900636494021,2.915120359533566,1.406952749306371
2.53914175936586,2.969756745449552,1.351353248968401
2.517393605578595,2.939474837634341,1.382139349014209
2.441255383037401,2.93625609790215,1.38119637931257
2.909472216267973,2.939474837634341,1.382139349014209
2.887724062480708,2.969756745449552,1.351353248968401
2.956458981389761,2.966668755547976,1.350699091140152
2.472442528744572,2.824523210560351,0.8232060055173001
2.475135979187197,2.841753120763843,0.8547712824265523
2.381837506872544,2.838507975788813,0.8587756804996847
2.937407031427973,2.892374888574378,0.9305055672258833
2.94612804105379,2.863496409157034,0.8883503297234218
3.035804141954997,2.860220292043608,0.8920397146074138
2.522793935205715,2.971789064474915,1.27305630611779
2.543408408940794,2.984306690031255,1.317106255750087
2.476131289397558,2.981231095429207,1.31677337727371
2.883457412905775,2.984306690031255,1.317106255750088
2.904071886640854,2.971789064474915,1.27305630611779
2.978437027688053,2.968579496388706,1.273136670905651
2.495124724976851,2.922626421687915,0.9861240822745473
2.495026977431928,2.942164761325077,1.0453226768581
2.411203148455841,2.938776585398656,1.047539466071353
2.945000319162058,2.896727184358149,1.102431504804949
2.936943205046182,2.932579550468699,1.083447867613306
3.022726079025171,2.929205028156773,1.085306995162727
2.480109115776085,2.887646563413417,1.140245360841036
2.495106708231241,2.929547780145624,1.208308799918036
2.411013923891161,2.926232777940992,1.208996576769622
2.931759113615327,2.929547780145624,1.208308799918036
2.946756706070483,2.887646563413417,1.140245360841036
3.036305985194095,2.884336045711384,1.141571657327128
2.186794265534536,2.875502345507147,1.405802128942254
2.186531313885746,2.871499309939364,1.431893210840373
2.092406197512391,2.852802314641234,1.432741666832152
3.240334507960822,2.871499309939364,1.431893210840373
3.240071556312032,2.875502345507147,1.405802128942254
3.345057238273615,2.853524267045602,1.409216941109463
2.251519683584465,2.925805364490055,1.350234468129252
2.211323052040495,2.89599419087082,1.380465099982064
2.109577144418207,2.871802172372602,1.382258105108393
3.215542769806073,2.89599419087082,1.380465099982064
3.175346138262103,2.925805364490056,1.350234468129252
3.269467511013225,2.89980656509977,1.350206207661493
2.04643833291521,2.783022195902834,0.8310714407744688
2.084629912975058,2.800375447401408,0.8620306668009193
1.950347978913154,2.778376105008469,0.8605626871751955
3.27616966736003,2.849545609123954,0.9361390250333785
3.309655045719461,2.821302360276423,0.8947423054698428
3.441887303369902,2.798887009680199,0.8943966548811063
2.228466178901332,2.927695066179852,1.273193750906981
2.262547549611685,2.940117088817834,1.316536946563445
2.174337527839048,2.913347309914932,1.315594456778252
3.164318272234883,2.940117088817834,1.316536946563445
3.198399642945236,2.927695066179852,1.273193750906981
3.28683473671196,2.901383723075599,1.272465517954442
2.173899841747629,2.87924078270528,0.9908651756873378
2.179534229167761,2.898419790421742,1.049113965732312
2.084628298822643,2.873270293404442,1.048307437717031
3.292913226749512,2.853817861320065,1.105306518143243
3.262655516279154,2.889010862314732,1.086627461573671
3.363330647576364,2.864205617890472,1.085595550935363
2.127299178517787,2.84490424315173,1.142513674436919
2.16967297466602,2.886083798809042,1.209485078072842
2.066423642972932,2.861362967828572,1.209229512595793
3.257192847180548,2.886083798809042,1.209485078072842
3.299566643328782,2.84490424315173,1.142513674436919
3.42218909095151,2.821712765762829,1.142289262155268
1.902909405426152,-1.338381728406922,1.344536393103667
1.927802033781155,-1.436647795261102,1.310703372796918
1.847939259351077,-1.421629841845661,1.306894429019601
2.517635817958225,1.435282609355754,1.819043243473301
2.516315203987368,1.48535487476935,1.815000082920455
2.647513469509556,1.485836260023767,1.819360481902324
2.515641136276143,1.521287119560353,1.811009815957003
2.515216323222185,1.567305971170453,1.804761508518724
2.647145985495323,1.567830154002411,1.809038206385725
2.536532166470025,-1.276147678321809,1.374697962731647
2.535058334537214,-1.176833763486036,1.396442247600919
2.653781484267825,-1.177742661334498,1.397380904835566
2.585922499676165,2.930186144084446,1.529006354940451
2.58911781790148,2.925728486720953,1.476601594874679
2.671859875102828,2.926962082793846,1.478195560795119
2.548240027097646,2.812526586475638,1.595931850442058
2.570549230389907,2.894185065566814,1.571865737816275
2.665650230441109,2.895402188620142,1.574238495261823
2.533023822801152,2.624736873840226,1.631333496713985
2.535010505922021,2.716153059520823,1.614013261294331
2.653765489582994,2.717277208362646,1.61673057791061
2.524532008092839,2.481672307117671,1.656614559187926
2.530590673488629,2.546680454999664,1.64553104090627
2.652287424067315,2.547716099632913,1.648506017738596
2.519014647837619,2.359331487777823,1.67784362504848
2.520179031076957,2.420687012865496,1.66696289798718
2.648805597585841,2.421656859549244,1.670113081861194
2.518213088122091,2.23567612620857,1.700853861165671
2.518673464704917,2.297844980252762,1.689413029432491
2.648302111137065,2.298750674757433,1.692746744817607
2.518398715839807,2.104817112822242,1.718663640029217
2.518114124645522,2.171482949083653,1.710375331240261
2.648115058513286,2.172322653149363,1.713880415017408
2.518661462301837,1.967168302773942,1.741744056999438
2.518630538277755,2.036123921874398,1.728881977286203
2.648287755825487,2.036892936971753,1.732538354285051
2.518140879908419,1.825464132655499,1.769514221463835
2.51863155202418,1.901034804138459,1.755514117391697
2.648288094839162,1.901733271223175,1.759388214136622
2.515420195249619,1.631873470556871,1.796083358567026
2.516717186923543,1.725563622010379,1.783924288157718
2.647647899292767,1.72617045223058,1.788030640182929
2.522982652525613,1.223874318265759,1.839973858684059
2.520029556125123,1.348917355298196,1.826759577906107
2.648755610674551,1.349327488359943,1.831216111642943
2.525052363301117,0.9624400248633307,1.866590405761626
2.524817137096402,1.088003991682657,1.854652483424867
2.650356657420962,1.088277867142109,1.859337043759749
2.525031628473371,0.7130758213432911,1.879474166461026
2.525018071884871,0.8380459037621364,1.875392122442633
2.65042385335796,0.8381892428271662,1.880246230884512
2.523079142297338,0.4804864368706605,1.863915848661838
2.524398023572928,0.5931746775808727,1.87606510705478
2.65021649888429,0.5931901367792187,1.880924717196429
2.52041532861333,0.2695508966573053,1.813533129110244
2.521693764367886,0.3736541280301325,1.84329963092011
2.64931214960484,0.373554946324962,1.847891380832885
2.517345474494057,0.04726752550662276,1.721032495037191
2.518971932969894,0.1632800051307329,1.772976454155625
2.648401923891651,0.1630709590890666,1.776993306815426
2.51454640522728,-0.2288583982487318,1.593683855230854
2.515771649362547,-0.08873766048116477,1.658146918793434
2.647331695797782,-0.08907831849694542,1.661225031375255
2.514186926210074,-0.3909831451342558,1.51683580433366
2.514025941215363,-0.3310892603621432,1.54592589692396
2.646747901943224,-0.3315564824122849,1.548086594221564
2.515862744394171,-0.4972372845376847,1.468295904045296
2.51462649885086,-0.4416512766247182,1.492056505807261
2.646948738410349,-0.4421762378225779,1.493776816785628
2.524292249913056,-0.6069249932909494,1.447965330527588
2.519334694713455,-0.5529172042218161,1.453326876101517
2.648523237455376,-0.5535002721732127,1.454730569447531
2.529112746678074,-0.714603164901485,1.444603495727538
2.527796178328217,-0.6605525316240983,1.44607020737309
2.651352898382783,-0.6611918103093353,1.44741457690711
2.530360349451852,-0.8267667363059333,1.442267849174528
2.529713720065657,-0.7693917046045408,1.44363023372039
2.651994156249387,-0.7700878227116617,1.444954656286507
2.531956950199644,-0.9586148758595101,1.431883161194305
2.5311033716554,-0.8901106196695672,1.438686159606265
2.652458878866038,-0.8908697811934363,1.439970163995064
2.53384412371781,-1.096064425842195,1.411552286776598
2.532879439891874,-1.02786483833433,1.42255554042526
2.653052825639674,-1.028695939674862,1.423707675790461
2.574165565932854,-1.676868934033808,1.22694503710362
2.554304986162561,-1.579808313680843,1.271453857313335
2.66021788485278,-1.580927658189511,1.27137072506777
3.037640314491775,1.434683544505454,1.813261706960328
3.039827031465578,1.484721398781171,1.809262042487053
3.165096544531349,1.483409272101355,1.804312131175889
3.040943175424489,1.520628949873558,1.805314702577071
3.041646595149165,1.566616175971258,1.799133614056695
3.167614453688367,1.565187394610441,1.794278719989818
3.006351105877072,-1.27488336829216,1.373696666188195
3.008791526299035,-1.175637704908372,1.395207027340594
3.129517969592783,-1.173160293926088,1.394141466578287
2.924568933079426,2.928559737426038,1.526345017937414
2.919278017827742,2.924105143496129,1.474504025147922
2.507587804018827,2.924105143496129,1.474504025147921
2.998281022741097,2.920742692518651,1.472694560011358
2.334919892916539,2.807779727127343,1.589633644893836
2.986964836970107,2.810981038936039,1.59255053295885
2.386037856789565,2.889265849953062,1.566049775289673
2.950024508768419,2.892583399911569,1.568743322134171
2.476841313078149,2.892583399911569,1.568743322134171
3.040827965057003,2.889265849953062,1.566049775289673
2.300054399455258,2.620386381580143,1.624325903773933
3.012160339173066,2.623320380930852,1.627571330436308
2.304606565423237,2.711609615438006,1.607352735734571
3.008870722526686,2.714673742711888,1.610437425073978
2.417995099319882,2.714673742711889,1.610437425073978
3.122259256423332,2.711609615438006,1.607352735734571
2.280596767024854,2.477623780737095,1.649100377745358
3.026221371216366,2.480354132398881,1.652580420751317
2.294479227763746,2.542494716149251,1.638238953884575
3.016189229536868,2.545317604763957,1.64161613829683
2.4106765923097,2.545317604763957,1.64161613829683
3.132386594082822,2.542494716149251,1.638238953884575
2.267954620261205,2.355541185735784,1.669904050064977
3.035357201661083,2.35809738927907,1.673581105590294
2.270622617839743,2.416767207931712,1.659241353841343
3.033429176780488,2.419410749039941,1.66281743274033
2.39343664506608,2.419410749039941,1.66281743274033
3.156243204006824,2.416767207931712,1.659241353841343
2.266117974638159,2.232146823104804,1.692453201088583
3.036684451163313,2.234527007322085,1.696343798962769
2.267172853793662,2.294184457566651,1.681241623716092
3.035922144152921,2.296653137095811,1.6850260470135
2.390943677693647,2.296653137095811,1.6850260470135
3.159692968052907,2.294184457566651,1.681241623716092
2.266543310802955,2.101564013379461,1.709906102973061
3.036377082552885,2.103757924110096,1.713961981289899
2.265891215692367,2.168089138293889,1.701783877470416
3.036848318212107,2.170377945642184,1.705762837631451
2.390017503634461,2.170377945642184,1.705762837631451
3.1609746061542,2.168089138293889,1.701783877470416
2.267145352210616,1.964205738192046,1.732524028547497
3.035942018135115,1.966203710384635,1.736794100513972
2.26707449476559,2.033015812908989,1.719919682531498
3.035993223172963,2.035111941149499,1.724070390285474
2.390872598673606,2.035111941149499,1.724070390285474
3.159791327080979,2.033015812908989,1.719919682531498
2.265952521089259,1.822800662568774,1.759737727236566
3.036804015949065,1.824596923552104,1.764265515209008
2.267076817603052,1.898211827300309,1.746018160889618
3.035991544577578,1.900115660640314,1.750416023419626
2.39087427726899,1.900115660640314,1.750416023419626
3.159789004243517,1.898211827300309,1.746018160889618
2.259718508234721,1.629618611602146,1.785774465062977
3.041309016997858,1.631139302667344,1.790548823123418
2.262690356788108,1.723111011581334,1.773859041267666
3.039161414616815,1.724765067484933,1.778520559266758
2.387704407229754,1.724765067484933,1.778520559266758
3.16417546505846,1.723111011581334,1.773859041267666
2.277046667056047,1.222480621691725,1.828785475927834
3.028786846209116,1.2234205394295,1.833967151863714
2.270280119943801,1.347259730824212,1.815835986343642
3.033676682426761,1.348377643198186,1.820895029528513
2.393189139419807,1.348377643198186,1.820895029528513
3.156585701902768,1.347259730824211,1.815835986343642
2.281789077587873,0.961598136736101,1.854868673715228
3.025359749583203,0.9621659113857355,1.86029735971883
2.28125009443921,1.086897076130728,1.843169966569892
3.025749245034474,1.087643586942955,1.848487864836972
2.401116576812094,1.087643586942955,1.848487864836972
3.145615727407357,1.086897076130728,1.843169966569892
2.281741567053241,0.7127602653664362,1.867494266268156
3.025394083007491,0.7129730783025184,1.87304251769074
2.28171050430339,0.837466573870336,1.863494019309085
3.025416530462111,0.8378572775941533,1.869004388057904
2.401449291384457,0.8378572775941533,1.869004388057904
3.145155317543178,0.837466573870336,1.863494019309085
2.277267757903648,0.4806618064924304,1.852247710085949
3.028627075203898,0.4805435361162198,1.857651575344452
2.280289762971028,0.5931121965279186,1.864153518480589
3.026443227285121,0.59315433414314,1.86967013274181
2.400422594561448,0.59315433414314,1.86967013274181
3.146576058875541,0.5931121965279187,1.864153518480589
2.271164055773198,0.2701714871845158,1.802874572567399
3.033037907382272,0.2697529570286399,1.807810870078185
2.274093386411288,0.3740549882317504,1.832044605475212
3.030921030515832,0.3737846455898534,1.837257145640867
2.395944791330736,0.3737846455898534,1.837257145640868
3.15277243543528,0.3740549882317504,1.832044605475212
2.263814414066613,0.04835728876624478,1.71215060583807
3.038121074952696,0.04762234556790162,1.716305352297275
2.26785674598768,0.164124901256222,1.763130582809562
3.035427930373899,0.1635550979936825,1.767690501408457
2.391437891472669,0.1635550979936825,1.767690501408457
3.159009075858888,0.164124901256222,1.763130582809562
2.254138700509347,-0.2271858169696271,1.58656311996069
3.042755867868402,-0.2283138163070203,1.590326721545726
2.258945994035458,-0.08736083155215993,1.650217609478599
3.040727067471947,-0.08828937364396486,1.654096295323771
2.386138754374621,-0.08828937364396484,1.654096295323771
3.167919827811109,-0.08736083155215994,1.650217609478599
2.250541134518388,-0.3889683677201274,1.51075080856671
3.043351105300381,-0.3903271462838555,1.514305397386502
2.251258028693092,-0.3292009007606825,1.539367221917748
3.043617669662285,-0.330474422356209,1.543082540499572
2.383248152184283,-0.3304744223562091,1.543082540499572
3.175607793153476,-0.3292009007606824,1.539367221917748
2.252627474418646,-0.4949982368839257,1.464061643123024
3.040576229258602,-0.4965082647082229,1.466287686443978
2.250596834643812,-0.4395295541630385,1.486775581708044
3.042623246156046,-0.4409604571396637,1.489792673072473
2.384242575690523,-0.4409604571396637,1.489792673072473
3.176268987202756,-0.4395295541630386,1.486775581708044
2.272214487412567,-0.6044544281747656,1.444632116574136
3.026618370864189,-0.6061205928322786,1.446175828020916
2.260428927882873,-0.5505606331567314,1.449787494573732
3.034827257293352,-0.5521499195090074,1.451479694408047
2.392038564553217,-0.5521499195090074,1.451479694408047
3.166436893963694,-0.5505606331567314,1.449787494573732
2.283724490567314,-0.7119053238458646,1.441337647093798
3.018636430394953,-0.7137247648268021,1.442850159638676
2.28061486371989,-0.6579687750507051,1.442774968390093
3.020816448493605,-0.6597112767390854,1.444301092488026
2.406049373352962,-0.6597112767390854,1.444301092488026
3.146250958126678,-0.6579687750507051,1.442774968390093
2.286583172371519,-0.823832151993283,1.439048802833665
3.016570607813798,-0.8258112541161986,1.44053963983168
2.285101524767625,-0.7665782215701966,1.44038388756378
3.017641318472444,-0.7684756522291293,1.441887367926023
2.409224503374125,-0.7684756522291293,1.441887367926023
3.141764297078943,-0.7665782215701966,1.44038388756378
2.290241527099656,-0.9554020001408515,1.428872205931076
3.013926902664053,-0.9575687837388147,1.430266669704029
2.288285688667607,-0.8870423356443349,1.435538884092176
3.015340286690241,-0.8891116056945717,1.436996481865712
2.411525535156327,-0.8891116056945716,1.436996481865712
3.138580133178961,-0.8870423356443349,1.435538884092177
2.294565682761336,-1.092561435840118,1.408948726860611
3.010802057360464,-1.094923874336026,1.410154513618021
2.292355264383008,-1.024505796962584,1.419731494452016
3.012399413244227,-1.026771155596567,1.421039394921656
2.414466408602341,-1.026771155596567,1.421039394921656
3.13451055746356,-1.024505796962584,1.419731494452016
2.388387475790637,-1.672137893839761,1.228040685251413
2.94403645889977,-1.675328537111281,1.227533257702203
2.342059250031434,-1.575284287150443,1.271657626150251
2.97692227402186,-1.578335319104805,1.271563254684621
2.449943547824708,-1.578335319104805,1.271563254684621
3.084806571815134,-1.575284287150443,1.271657626150251
1.966035955140726,1.417076028268976,1.790561204231109
3.460829866705842,1.417076028268976,1.790561204231108
3.466135429578139,1.466102481743934,1.78662571188047
1.960730392268429,1.466102481743934,1.78662571188047
1.907354870374383,1.404206242606091,1.760365191676097
3.524642570339994,1.452770293029669,1.757361682059865
1.958064344361929,1.501284243802084,1.782741704578092
3.468801477484639,1.501284243802084,1.782741704578092
3.470423631715378,1.546341943284836,1.776659787768956
1.95644219013119,1.546341943284836,1.776659787768956
1.899899408694824,1.487621145839713,1.754261534445318
3.52790136525895,1.532177441959795,1.749261543721363
1.890178515065174,-1.237723185451855,1.372219399151331
3.536687306781394,-1.237723185451856,1.372219399151331
3.54815661735898,-1.14048354620467,1.39338463997116
1.878709204487588,-1.14048354620467,1.39338463997116
1.789047866553605,-1.225007446868738,1.368733199358486
3.656606260699523,-1.129003592114969,1.390042962574731
2.182693665371261,2.881122285869609,1.520509066102773
3.244172156475307,2.881122285869608,1.520509066102773
3.23473211242242,2.878156567821866,1.469545099645545
2.192133709424148,2.878156567821866,1.469545099645545
2.079628380569475,2.854578562306721,1.516715993867905
3.329680713060597,2.857393719082495,1.466244058169085
2.034541340868597,2.76555481607929,1.58756189208939
3.392324480977971,2.76555481607929,1.58756189208939
3.302497711824925,2.845580843094645,1.563754745683504
2.124368110021643,2.845580843094645,1.563754745683504
1.924907000750288,2.739035617574895,1.584008497751881
3.405294785553291,2.817758347024616,1.560421177715602
1.980998182709267,2.581687289145167,1.622020802707477
3.445867639137301,2.581687289145167,1.622020802707476
3.443852954670412,2.671194151618842,1.605161800173344
1.983012867176156,2.671194151618842,1.605161800173344
1.874319379244489,2.557854424050851,1.617896327184802
3.556083280477993,2.646326608974996,1.6012596385366
1.968610028747443,2.441610776401108,1.646628637762031
3.458255793099125,2.441610776401108,1.646628637762031
3.445737056112781,2.505261160726701,1.635840270383094
1.981128765733787,2.505261160726701,1.635840270383094
1.883678723419499,2.419098665374374,1.642177594031136
3.542251132703917,2.482149033436886,1.631580333366713
1.963725795423644,2.321825173774476,1.66729237970709
3.463140026422924,2.321825173774476,1.667292379707089
3.465644503366737,2.381899224175283,1.656701403276645
1.961221318479831,2.381899224175283,1.656701403276646
1.896690180760865,2.300441694287844,1.661603057670934
3.54043100982329,2.359949805711436,1.651758213405443
1.969929431909759,2.200752484515864,1.689689859857395
3.456936389936809,2.200752484515864,1.689689859857395
3.458995388011893,2.261622876642292,1.678553694181306
1.967870433834675,2.261622876642292,1.678553694181306
1.913879871694813,2.18050897345034,1.682936555333735
3.519729870548793,2.240806324935025,1.672203754962827
1.97148216110091,2.072626599286641,1.707025369434402
3.455383660745658,2.072626599286641,1.707025369434402
3.456161610059791,2.137900049425854,1.698957775923609
1.970704211786776,2.137900049425854,1.698957775923609
1.917321597985547,2.053589198074508,1.700141649494056
3.51041950543849,2.118248197597092,1.69206233075366
1.977079001972215,1.93785272944138,1.728428359889984
3.449786819874352,1.93785272944138,1.728428359889984
3.452829188861922,2.005368137896324,1.716971595310437
1.974036632984646,2.005368137896324,1.716971595310437
1.92851122824349,1.919836772575577,1.72023355331675
3.504911854779496,1.986963818517737,1.710034776127824
1.970586036253113,1.799108199987241,1.745657619854113
3.456279785593456,1.799108199987241,1.745657619854112
3.450607157846971,1.873100498496665,1.737580520928926
1.976258663999596,1.873100498496665,1.737580520928926
1.918932728512688,1.780511557179019,1.726616659577678
3.498985081789943,1.854705643910469,1.724861401811499
1.957288710965922,1.609560882522098,1.768212734453378
3.469577110880645,1.609560882522098,1.768212734453378
3.464109481647422,1.701294216601329,1.756849812880115
1.962756340199146,1.701294216601329,1.756849812880116
1.900842049330633,1.59433190684739,1.742262359223447
3.518836063976489,1.684135667929541,1.733263258785272
1.987157844531043,1.21008322173772,1.810934443181187
3.439707977315525,1.21008322173772,1.810934443181187
3.451309379980563,1.332514603397722,1.798072054898161
1.975556441866005,1.332514603397722,1.798072054898161
1.926944042449297,1.199165316787663,1.777808626917656
3.510477373136931,1.320442345051725,1.766523312571113
1.995441874761905,0.9541092585794031,1.836842199268686
3.431423947084663,0.9541092585794031,1.836842199268686
3.432475045759195,1.077050689859586,1.82522218036874
1.994390776087373,1.077050689859586,1.82522218036874
1.934215640608837,0.9456089592985408,1.801199357214019
3.493528896804452,1.067388297953918,1.790662111109554
1.99546789586013,0.7099532887786377,1.84938286912778
3.431397925986438,0.7099532887786377,1.84938286912778
3.431464343043684,0.8323132395588453,1.845409528767065
1.995401478802883,0.8323132395588453,1.845409528767064
1.934345934801716,0.7037614155641329,1.812513287487448
3.492598709229045,0.8249648879983993,1.808993960355385
1.987694539610882,0.4822217782825519,1.834238864854898
3.439171282235686,0.4822217782825519,1.834238864854899
3.433918418861527,0.5925564065385569,1.846064591992607
1.992947402985041,0.5925564065385569,1.846064591992607
1.925554193865704,0.4781747548999591,1.79761820037466
3.495391450686119,0.5874716178401536,1.809118477393463
1.976910231773768,0.2756918487287486,1.785197822627978
3.449955590072801,0.2756918487287486,1.785197822627978
3.444753714293783,0.3776207745987443,1.814171651059592
1.982112107552786,0.3776207745987442,1.814171651059592
1.913742365368208,0.2735845491448239,1.75045514304971
3.507499138584159,0.374556271046133,1.778268658250237
1.960140436237637,0.05805109962453359,1.694369610660293
3.466725385608932,0.05805109962453359,1.694369610660293
3.455759461461842,0.1716405365676726,1.745721160257709
1.971106360384726,0.1716405365676726,1.745721160257709
1.89643490477113,0.05798990312070396,1.664052320726247
3.519304809973116,0.1705109106257452,1.712692037012911
1.901831331957069,-0.2123076437313533,1.56227907449888
3.525034489889499,-0.2123076437313533,1.56227907449888
3.490990924921018,-0.07511347497774104,1.6299952865611
1.93587489692555,-0.07511347497774103,1.6299952865611
1.839112221137135,-0.2098219855508846,1.542012891507101
3.554156985489701,-0.07392069953639913,1.604167573122707
1.853818085824357,-0.3710462447244863,1.483177259326606
3.57304773602221,-0.3710462447244863,1.483177259326606
3.553675339090223,-0.3124033067436345,1.511730634825766
1.873190482756345,-0.3124033067436345,1.511730634825766
1.785126838935807,-0.3670483216108893,1.470493881756398
3.618106726017314,-0.3089739051672946,1.495906891556059
1.822809735720833,-0.4750811546481343,1.453818686435872
3.604056086125735,-0.4750811546481343,1.453818686435872
3.590600949107652,-0.4206561189863796,1.465763871218954
1.836264872738916,-0.4206561189863796,1.465763871218954
1.741938134966729,-0.4699640439006395,1.448891779205561
3.664809651101936,-0.4161290110876473,1.456743863405117
1.841652043778216,-0.5824779202136624,1.443535678024614
3.585213778068351,-0.5824779202136624,1.443535678024614
3.60140609421264,-0.5295981406349188,1.446853213625922
1.825459727633927,-0.5295981406349188,1.446853213625922
1.742188137599843,-0.5764214018054682,1.441690182853061
3.691151723110312,-0.52396578445003,1.444437513267424
1.857856548166589,-0.6879071199336806,1.440263367917922
3.569009273679979,-0.6879071199336806,1.440263367917922
3.572611799956646,-0.634985390993055,1.441691021454403
1.854254021889921,-0.634985390993055,1.441691021454403
1.748606948605777,-0.6809264690661514,1.438239043101418
3.67883878632997,-0.6284928697060903,1.439768138377487
1.860083484777511,-0.7977280371543577,1.43798991896059
3.566782337069057,-0.7977280371543578,1.43798991896059
3.568091764579473,-0.7415513433480173,1.439316023597979
1.858774057267095,-0.7415513433480173,1.439316023597979
1.748062077057633,-0.7896853673249178,1.435561831759701
3.678852416699769,-0.7340527879750265,1.437119873131267
1.863691155125255,-0.9268223896104202,1.427881772233272
3.563174666721314,-0.9268223896104202,1.427881772233272
3.565241554635461,-0.8597489168768088,1.434503608754979
1.861624267211107,-0.8597489168768089,1.434503608754979
1.749440261872724,-0.9175717568073327,1.425035299127705
3.678567041951768,-0.8511207008108542,1.431850349465637
1.870944107443627,-1.061401161146083,1.408092303151319
3.555921714402941,-1.061401161146083,1.408092303151319
3.560244409320827,-0.994625993768647,1.418802543321388
1.866621412525741,-0.9946259937686471,1.418802543321388
1.758281748754499,-1.050841205515332,1.404903756719148
3.674425693095145,-0.9847405065954455,1.415776519805834
2.08029456554701,-1.630618900252475,1.228239606832499
3.346571256299559,-1.630618900252475,1.228239606832499
3.437766471544887,-1.535636976877585,1.271516027756752
1.989099350301681,-1.535636976877585,1.271516027756752
2.024952458466002,-1.612709706699365,1.225596873849314
3.503242851461741,-1.520978274841083,1.266944950280541
1.84287397095014,1.378026607304461,1.693446445744865
3.583991850896428,1.378026607304461,1.693446445744865
1.841002096847224,1.426294498009491,1.694508214452789
3.585863724999344,1.426294498009491,1.694508214452789
1.770815139444036,1.391575418616358,1.599016240257365
3.656050682402532,1.391575418616357,1.599016240257365
1.841255382113592,1.460936814454255,1.694827237258982
3.585610439732977,1.460936814454255,1.694827237258982
1.843735986384593,1.50488752959976,1.694546572870213
3.583129835461976,1.50488752959976,1.694546572870213
1.780966986384724,1.469220850697472,1.610667429444372
3.645898835461844,1.469220850697472,1.610667429444373
1.724292569950611,-1.232767246921285,1.353526509439962
3.702573251895957,-1.232767246921285,1.353526509439962
1.701739266073026,-1.138740734889832,1.375466674640939
3.725126555773541,-1.138740734889832,1.375466674640939
1.674981552319078,-1.168388141728641,1.344148083893824
3.75188426952749,-1.168388141728641,1.344148083893824
1.974318465393593,2.820066543752476,1.502539280793058
3.452547356452975,2.820066543752476,1.502539280793059
2.015878914195764,2.837306525590827,1.45362616466835
3.410986907650804,2.837306525590827,1.45362616466835
1.973820144483392,2.824323290267228,1.429013015041163
3.453045677363176,2.824323290267228,1.429013015041163
1.829168627319429,2.700649260863275,1.56850870741868
3.597697194527139,2.700649260863275,1.56850870741868
1.916161773898439,2.776480940453606,1.546353971732464
3.51070404794813,2.776480940453606,1.546353971732464
1.826335378496472,2.728076015944206,1.510811250070955
3.600530443350095,2.728076015944206,1.510811250070955
1.785594165889245,2.524732020423349,1.599905499327321
3.641271655957324,2.524732020423349,1.59990549932732
1.781362498567922,2.611832664285462,1.584238536606722
3.645503323278646,2.611832664285462,1.584238536606722
1.72617848816087,2.57362974263327,1.542491243578504
3.700687333685699,2.57362974263327,1.542491243578504
1.80654781782365,2.386820665763616,1.622762286288751
3.620318004022917,2.386820665763616,1.622762286288751
1.799541712862684,2.449487909379324,1.612998626886923
3.627324108983884,2.449487909379324,1.612998626886923
1.732484359054495,2.412993456267386,1.567593032458679
3.694381462792072,2.412993456267386,1.567593032458679
1.829048045915943,2.268882276940716,1.636786420303215
3.597817775930624,2.268882276940716,1.636786420303215
1.815619753863675,2.328030378694296,1.630196180232805
3.611246067982893,2.328030378694296,1.630196180232805
1.748396920251231,2.29171302425623,1.579848828902686
3.678468901595337,2.29171302425623,1.579848828902686
1.852585905761723,2.149672412762899,1.6534788610193
3.574279916084844,2.149672412762899,1.6534788610193
1.842406470755299,2.209606728923508,1.644505526968242
3.58445935109127,2.209606728923508,1.644505526968242
1.769339866086002,2.173456498567893,1.58545276817709
3.657525955760566,2.173456498567893,1.58545276817709
1.860225969389959,2.023516433812187,1.670115087380874
3.566639852456609,2.023516433812187,1.670115087380874
1.857794328920341,2.087786316278715,1.661984623570956
3.569071492926227,2.087786316278715,1.661984623570956
1.787489962384341,2.051803425530932,1.599997827473849
3.639375859462226,2.051803425530932,1.599997827473849
1.874548732189091,1.889488955714211,1.689347719805383
3.552317089657477,1.889488955714211,1.689347719805383
1.866061307503064,1.957291766225953,1.679776596849814
3.560804514343504,1.957291766225953,1.679776596849814
1.79750377151004,1.921488118675796,1.616791356618257
3.629362050336528,1.921488118675796,1.616791356618257
1.872623046588625,1.742760877539452,1.693236990279189
3.554242775257943,1.742760877539451,1.693236990279189
1.878004540974422,1.820432285802722,1.693679247502038
3.548861280872146,1.820432285802722,1.693679247502038
1.814502264820244,1.777575322732187,1.634194759162861
3.612363557026324,1.777575322732187,1.634194759162861
1.849599398220611,1.564617775286445,1.693862944984421
3.577266423625956,1.564617775286445,1.693862944984421
1.860658779782456,1.649224639618705,1.693014912756936
3.566207042064111,1.649224639618705,1.693014912756936
1.807639315735063,1.604429539614856,1.629401600229488
3.619226506111505,1.604429539614856,1.629401600229488
1.847293069080213,1.174234279080209,1.698110172660745
3.579572752766355,1.174234279080208,1.698110172660745
1.845690915746475,1.294773393963318,1.693704003445214
3.581174906100094,1.294773393963317,1.693704003445213
1.765113964647625,1.262071463811477,1.584173749645146
3.661751857198942,1.262071463811477,1.584173749645146
1.846370679641726,0.9222387588633964,1.710521718459047
3.580495142204843,0.9222387588633964,1.710521718459048
1.847174410421894,1.043264328602935,1.704707492012522
3.579691411424674,1.043264328602935,1.704707492012522
1.742872009679639,1.00899565286379,1.575873538730179
3.683993812166929,1.00899565286379,1.575873538730179
1.846495198874987,0.6818906258106735,1.716484650626091
3.58037062297158,0.6818906258106735,1.716484650626091
1.846442596904825,0.8023444086791667,1.71494571440599
3.580423224941742,0.8023444086791667,1.714945714405991
1.738267346683698,0.7682246434497199,1.574063208214766
3.688598475162869,0.7682246434497199,1.574063208214766
1.836635446910789,0.4576663597456064,1.702675332056089
3.590230374935779,0.4576663597456065,1.702675332056089
1.84317783871468,0.566309266961198,1.712756006259161
3.583687983131887,0.566309266961198,1.712756006259161
1.733687397793798,0.5325851997888114,1.568777718447857
3.693178424052769,0.5325851997888114,1.568777718447857
1.825763367250238,0.2542879704918132,1.663703983690154
3.60110245459633,0.2542879704918132,1.663703983690154
1.830508531274612,0.3546621026903508,1.686456250378842
3.596357290571956,0.3546621026903508,1.686456250378842
1.721267155394423,0.3212230604742126,1.550397856351968
3.705598666452145,0.3212230604742125,1.550397856351968
1.811940636193732,0.03997917443236497,1.595281979705616
3.614925185652835,0.03997917443236497,1.595281979705616
1.820691997914539,0.1518267140163065,1.633415354553524
3.606173823932029,0.1518267140163065,1.633415354553524
1.715571733950726,0.1186432639834518,1.517939131366488
3.711294087895842,0.1186432639834518,1.517939131366488
1.769878218525617,-0.2262130024096028,1.503483460119174
3.656987603320951,-0.2262130024096029,1.503483460119174
1.794509664863376,-0.09113571678925607,1.549690270056255
3.632356156983192,-0.09113571678925607,1.549690270056256
1.702448699182849,-0.1239742027834607,1.471173489242177
3.724417122663719,-0.1239742027834607,1.471173489242176
1.725278321512338,-0.3824146091411445,1.452317964966345
3.70158750033423,-0.3824146091411445,1.452317964966345
1.746004183609196,-0.3247616994215234,1.469961608012005
3.680861638237372,-0.3247616994215234,1.469961608012005
1.679464859211942,-0.3572715244289059,1.430890835109607
3.747400962634627,-0.3572715244289059,1.430890835109607
1.685716798886495,-0.4841000942469406,1.439157257600817
3.741149022960072,-0.4841000942469406,1.439157257600817
1.704524268602763,-0.4309283172078702,1.44363897532775
3.722341553243805,-0.4309283172078702,1.44363897532775
1.657228043193681,-0.4627840188145956,1.419512625941122
3.769637778652887,-0.4627840188145956,1.419512625941122
1.675079015427299,-0.5902294104052233,1.433640193039646
3.751786806419267,-0.5902294104052233,1.433640193039646
1.67598182400787,-0.5377678958694316,1.436251604449188
3.750883997838697,-0.5377678958694315,1.436251604449188
1.641912039390615,-0.5689220424327636,1.413081983770356
3.784953782455952,-0.5689220424327636,1.413081983770356
1.673985480723514,-0.6944040043366437,1.429409004202864
3.752880341123054,-0.6944040043366437,1.429409004202864
1.675401804421276,-0.6422420589030001,1.43138058504212
3.751464017425291,-0.642242058903,1.43138058504212
1.637700481476314,-0.6741775742567931,1.407567260572828
3.789165340370253,-0.6741775742567931,1.407567260572828
1.671723099510054,-0.8023851220118157,1.424970594494746
3.755142722336514,-0.8023851220118157,1.424970594494746
1.67250719252495,-0.7471541516052342,1.427540336344462
3.754358629321618,-0.7471541516052342,1.427540336344462
1.634878305982124,-0.7789398192955848,1.402000749679526
3.791987515864444,-0.7789398192955848,1.402000749679526
1.673186118018796,-0.929533624995073,1.412619076177255
3.753679703827773,-0.929533624995073,1.412619076177255
1.671468372856829,-0.863443253263397,1.420276918886796
3.755397448989739,-0.8634432532633969,1.420276918886797
1.634425173884819,-0.8949614076095135,1.392016472035845
3.79244064796175,-0.8949614076095134,1.392016472035845
1.686886031096497,-1.061815561799485,1.390995421062552
3.739979790750072,-1.061815561799485,1.390995421062552
1.678290116872807,-0.9963130655638086,1.402577103816643
3.748575704973762,-0.9963130655638088,1.402577103816643
1.647381569542762,-1.027710802745073,1.372336496223101
3.779484252303806,-1.027710802745073,1.372336496223101
2.018859790299972,-1.623867034448193,1.206272422373228
3.408006031546596,-1.623867034448193,1.206272422373227
1.895260033499112,-1.528418231771652,1.247970694544077
3.531605788347456,-1.528418231771652,1.247970694544077
1.895676350648073,-1.555978820980803,1.214878848862943
3.531189471198495,-1.555978820980803,1.214878848862943
1.865378152000306,2.7650334096381,1.418611725845577
3.561487669846263,2.7650334096381,1.418611725845577
1.985450674210715,2.829586094830935,1.393681174632931
3.441415147635854,2.829586094830935,1.393681174632931
2.026157556055567,2.847542273187846,1.3500161861177
3.400708265791001,2.847542273187846,1.3500161861177
1.720866456069846,2.626221266161917,1.455710740930302
3.705999365776723,2.626221266161916,1.455710740930302
1.774538839101178,2.69424124689113,1.442331023931605
3.65232698274539,2.69424124689113,1.442331023931605
1.760143277112698,2.681354409237871,1.355583173144129
3.66672254473387,2.681354409237871,1.355583173144129
1.683791448044039,2.465071460803981,1.475904666686407
3.743074373802529,2.465071460803981,1.475904666686407
1.693658436100985,2.549146749146733,1.46589373402323
3.733207385745583,2.549146749146733,1.46589373402323
1.67497016025764,2.542381520272115,1.37147040256217
3.751895661588929,2.542381520272115,1.37147040256217
1.687869320229283,2.327344760818441,1.490835468878506
3.738996501617286,2.327344760818441,1.490835468878506
1.683721396403219,2.389929649354185,1.484650008690309
3.743144425443349,2.389929649354185,1.484650008690309
1.652510003550588,2.384163697625884,1.382616222336883
3.77435581829598,2.384163697625884,1.382616222336883
1.697270015959919,2.209554523815029,1.492997120737173
3.729595805886649,2.209554523815029,1.492997120737173
1.69262139311953,2.268629439018419,1.492965995167662
3.734244428727038,2.268629439018419,1.492965995167662
1.653883690198038,2.262858542708966,1.388900875204252
3.77298213164853,2.262858542708966,1.388900875204251
1.712426805600833,2.090483082371711,1.503830638418371
3.714439016245736,2.090483082371711,1.503830638418371
1.704013816925064,2.150349051108424,1.496334964029165
3.722852004921503,2.150349051108424,1.496334964029165
1.657678602392279,2.14457036671713,1.396789707350726
3.769187219454288,2.14457036671713,1.396789707350726
1.724073602618705,1.964472240950367,1.518742450179659
3.702792219227863,1.964472240950367,1.518742450179659
1.719458372984339,2.028667704650946,1.511780252212132
3.707407448862229,2.028667704650946,1.511780252212131
1.666713083888322,2.02287869556667,1.415747523774164
3.760152737958246,2.02287869556667,1.415747523774164
1.73151828582058,1.82909033955068,1.532948223806345
3.695347536025988,1.82909033955068,1.532948223806345
1.727253270593061,1.898324250232393,1.525538413552043
3.699612551253507,1.898324250232393,1.525538413552042
1.669117298375682,1.892530050993406,1.42492670207868
3.757748523470886,1.892530050993406,1.42492670207868
1.747182196947506,1.671081637923402,1.545395519581042
3.679683624899062,1.671081637923402,1.545395519581042
1.740929690038485,1.754076164050128,1.541710862665603
3.685936131808083,1.754076164050128,1.541710862665603
1.672176180669563,1.755319972782416,1.433808116743303
3.754689641177006,1.755319972782416,1.433808116743303
1.722619583394214,1.503096985205469,1.523140251431462
3.704246238452354,1.503096985205469,1.523140251431462
1.738145771915015,1.581035707102314,1.536771313275752
3.688720049931553,1.581035707102314,1.536771313275752
1.663938016186321,1.584830588765911,1.430854345650314
3.762927805660247,1.584830588765911,1.430854345650314
1.704598499343687,1.402493951327227,1.503527684699521
3.722267322502882,1.402493951327228,1.503527684699522
1.711147542770117,1.445901110726902,1.51200947312036
3.715718279076452,1.445901110726902,1.51200947312036
1.646387259277628,1.440579446357269,1.416707184330183
3.780478562568939,1.440579446357269,1.416707184330183
1.70997998489863,1.326897051751462,1.489246052983836
3.716885836947938,1.326897051751462,1.489246052983837
1.704116578003409,1.36981099170003,1.49712697419601
3.722749243843159,1.36981099170003,1.49712697419601
1.652766864089921,1.366406922411749,1.408360348818485
3.774098957756647,1.366406922411749,1.408360348818485
1.697832499012856,1.123065647138036,1.469885379047086
3.729033322833713,1.123065647138036,1.469885379047086
1.711708939196921,1.247567637681034,1.479055611044438
3.715156882649646,1.247567637681034,1.479055611044438
1.695275858112102,1.255065140983482,1.399283059580237
3.731589963734466,1.255065140983482,1.399283059580237
1.674271964998273,0.8644965763217891,1.458979717379188
3.752593856848296,0.864496576321789,1.458979717379189
1.68148561181373,0.9866689041887742,1.463296515265903
3.745380210032839,0.9866689041887742,1.463296515265903
1.676249132128849,0.9823759111828914,1.390608877059963
3.750616689717719,0.9823759111828914,1.390608877059963
1.668526412285357,0.6246838877430565,1.454086394198794
3.75833940956121,0.6246838877430565,1.454086394198794
1.671251546512875,0.7448787706534341,1.456273701931333
3.755614275333692,0.744878770653434,1.456273701931333
1.660224337086957,0.7390505362439221,1.38698031725251
3.766641484759612,0.7390505362439221,1.38698031725251
1.656094984232198,0.4008400831013358,1.446101073642194
3.77077083761437,0.4008400831013359,1.446101073642194
1.663240686224966,0.5093186215929982,1.450894928190093
3.763625135621602,0.5093186215929982,1.450894928190093
1.647500569260819,0.5036342604833508,1.384613531646816
3.779365252585749,0.5036342604833508,1.384613531646816
1.649581777747273,0.1976800072497688,1.432603856888029
3.777284044099296,0.1976800072497688,1.432603856888029
1.651346414198796,0.2979558000618811,1.440031236020506
3.775519407647772,0.2979558000618811,1.440031236020505
1.636042554269407,0.2923469525740862,1.378623701185444
3.790823267577161,0.2923469525740862,1.378623701185444
1.644696670329596,-0.01636174574018486,1.412177044699777
3.782169151516971,-0.01636174574018485,1.412177044699777
1.647717570230906,0.09533364642145722,1.423329413905359
3.779148251615663,0.09533364642145722,1.423329413905359
1.631481113643528,0.08974197119816851,1.368214841023642
3.795384708203041,0.08974197119816853,1.368214841023642
1.638379437344262,-0.2821809977131224,1.387853817118518
3.788486384502305,-0.2821809977131224,1.387853817118518
1.641488340049869,-0.1472840376258781,1.399574546865252
3.785377481796699,-0.1472840376258781,1.399574546865251
1.623764222055337,-0.1528069155447665,1.3478182782695
3.803101599791231,-0.1528069155447665,1.3478182782695
1.631640684190165,-0.4381899428473377,1.378873174495917
3.795225137656404,-0.4381899428473377,1.378873174495917
1.634974416111334,-0.3806702945661966,1.381250851299079
3.791891405735234,-0.3806702945661966,1.381250851299079
1.619144350080967,-0.3862800104242771,1.329068272366969
3.807721471765602,-0.3862800104242771,1.329068272366969
1.628374619777075,-0.5382088987486339,1.3677900950754
3.798491202069493,-0.5382088987486339,1.3677900950754
1.629508603360359,-0.4859983033167402,1.374699841047489
3.797357218486209,-0.4859983033167402,1.374699841047489
1.620611063322772,-0.4917796809238343,1.316069531699183
3.806254758523796,-0.4917796809238342,1.316069531699183
1.624335584829698,-0.6450652702396083,1.359283078387974
3.80253023701687,-0.6450652702396081,1.359283078387974
1.626701263971022,-0.5917904139312833,1.3622833704844
3.800164557875545,-0.5917904139312832,1.3622833704844
1.622452100076058,-0.5975075068059131,1.292415533928735
3.804413721770509,-0.5975075068059131,1.292415533928735
1.621463983301319,-0.7499452010019807,1.354015439437485
3.805401838545249,-0.7499452010019808,1.354015439437485
1.622509149597385,-0.6977096256351841,1.356856607108338
3.804356672249182,-0.697709625635184,1.356856607108338
1.618481062892106,-0.7035926384797818,1.287695405173359
3.808384758954461,-0.7035926384797819,1.287695405173359
1.619788799230215,-0.8575948287735233,1.346486645065674
3.807077022616353,-0.8575948287735233,1.346486645065674
1.620452568751685,-0.8025392801463626,1.350715152637183
3.806413253094883,-0.8025392801463626,1.350715152637183
1.61670207894664,-0.8085119521391544,1.282207961740397
3.810163742899928,-0.8085119521391544,1.282207961740397
1.626505015610369,-0.9845944680184071,1.331960423584922
3.800360806236199,-0.9845944680184071,1.331960423584921
1.62084797849019,-0.9185504944874872,1.340436136177669
3.806017843356378,-0.9185504944874872,1.340436136177669
1.617406584260065,-0.9245788184111561,1.274086496052841
3.809459237586503,-0.9245788184111561,1.274086496052841
1.652722926536714,-1.116165258530283,1.310095277084196
3.774142895309854,-1.116165258530283,1.310095277084196
1.638344517628349,-1.051290756072222,1.321470418069115
3.788521304218219,-1.051290756072222,1.321470418069115
1.636094030065789,-1.057193510460553,1.258678433854474
3.790771791780779,-1.057193510460553,1.258678433854474
1.687702902144369,-1.281007369637362,1.277728512725404
3.7391629197022,-1.281007369637362,1.277728512725404
1.66815825294658,-1.190917734930741,1.296282040630015
3.758707568899988,-1.190917734930741,1.296282040630015
1.666521398206992,-1.196550133231265,1.240270978135467
3.760344423639576,-1.196550133231265,1.240270978135467
2.07678779123212,-1.685839977855631,1.138215993954789
3.350078030614448,-1.685839977855631,1.138215993954789
1.901938729460147,-1.575810545167426,1.181350240707422
3.524927092386421,-1.575810545167426,1.181350240707422
1.903944302149184,-1.579057062604182,1.152684359765593
3.522921519697384,-1.579057062604182,1.152684359765593
1.633959696377805,1.370216458603415,0.8784576466184977
3.792906125468762,1.370216458603415,0.8784576466184977
1.672297679452049,1.337676295942751,0.8784310474534885
3.754568142394518,1.337676295942751,0.8784310474534885
1.671311414150715,1.339315736063488,0.9351103868848814
3.755554407695851,1.339315736063488,0.9351103868848814
1.599905500404076,1.442774436703704,1.081485835547897
3.826960321442491,1.442774436703704,1.081485835547897
1.600971494287377,1.442774436703704,1.049045955880515
3.82589432755919,1.442774436703704,1.049045955880515
1.605904211548441,1.398970864927682,1.04902700454493
3.820961610298127,1.398970864927682,1.04902700454493
1.603301411663767,1.398698184473319,1.208458336700647
3.8235644101828,1.398698184473319,1.208458336700647
1.5987245002824,1.442580560873426,1.208545946103427
3.828141321564168,1.442580560873425,1.208545946103427
1.599048113590275,1.442774436703704,1.134357507026172
3.827817708256292,1.442774436703704,1.134357507026172
1.611735174815324,1.397197029281462,1.340170403211436
3.815130647031245,1.397197029281462,1.340170403211436
1.608460545421748,1.441265244051279,1.341623696174733
3.818405276424819,1.441265244051279,1.341623696174733
1.59882484916871,1.44199893338259,1.279990058148222
3.828040972677858,1.441998933382589,1.279990058148222
1.61391765906297,1.442949513082708,0.8786533384627426
3.812948162783598,1.442949513082707,0.8786533384627426
1.618420082021647,1.398958064190362,0.8785100722793884
3.80844573982492,1.398958064190361,0.8785100722793883
1.612818478629153,1.398919551966881,0.9351621284023399
3.814047343217415,1.39891955196688,0.9351621284023399
1.607866397631445,1.595104593801,1.081524686236441
3.818999424215123,1.595104593801,1.081524686236441
1.608930306153846,1.595104593801,1.049115434264379
3.817935515692722,1.595104593801,1.049115434264379
1.602467006777061,1.505702189572821,1.049074323677846
3.824398815069506,1.505702189572821,1.049074323677846
1.600220914445504,1.505564013921153,1.208660619340686
3.826644907401064,1.505564013921153,1.208660619340686
1.606694115126771,1.595032103543143,1.208781440472766
3.820171706719796,1.595032103543143,1.208781440472766
1.607010515861983,1.595104593801,1.134371512039001
3.819855305984586,1.595104593801,1.134371512039001
1.610978534118756,1.503981188881399,1.343531164865899
3.815887287727811,1.503981188881399,1.343531164865899
1.618378370970329,1.592649646570611,1.345738314598014
3.808487450876239,1.592649646570611,1.345738314598014
