-0.3078849177484356,0.6540695471435558,-0.464788767376023
-0.3078874500883243,0.7875701312424406,-0.4647907375298844
-0.4193927571902328,0.7871333618978895,-0.4647907375298885
0.2067776235508816,0.7875701312424404,-0.4647907375298844
0.206775091210993,0.6540695471435557,-0.464788767376023
0.318279301019346,0.6537717598543656,-0.4647887673760272
-0.3078690741267485,0.3901785118687393,-0.4647764407500195
-0.3078849177484356,0.5224369108098377,-0.464788767376023
-0.4193891275567782,0.5222761609311857,-0.4647887673760272
0.206775091210993,0.5224369108098377,-0.464788767376023
0.2067592475893058,0.3901785118687393,-0.4647764407500195
0.3182565921643553,0.3901554508567513,-0.4647764407500237
-0.3076625172864167,0.1438714460554782,-0.4646157321619134
-0.3078056996399997,0.2632342646429433,-0.4647271342460055
-0.419275583281825,0.2633433601493313,-0.4647271342460097
0.2066958731025571,0.2632342646429433,-0.4647271342460055
0.2065526907489741,0.1438714460554782,-0.4646157321619134
0.3179605317416168,0.1441048053617059,-0.4646157321619176
-0.3070127777362668,-0.07961505054724141,-0.4641101658130054
-0.3074066603058283,0.03068469562971821,-0.4644166563456151
-0.4187036353677575,0.03103588908116682,-0.4644166563456192
0.2062968337683857,0.03068469562971819,-0.4644166563456151
0.2059029511988242,-0.0796150505472414,-0.4641101658130054
0.317029252169474,-0.07914902849385874,-0.4641101658130095
-0.3118881836828333,-0.3190040872412811,-0.4630734418401182
-0.3064630344139684,-0.1922005598245841,-0.4636823567480021
-0.4173511249401076,-0.191617329553808,-0.4636823567480062
0.2053532078765257,-0.192200559824584,-0.463682356748002
0.2107783571453907,-0.319004087241281,-0.4630734418401181
0.3230920828397141,-0.3182888469498277,-0.4630734418401225
-0.3713394956536778,-0.6468040418775413,-0.4616253627747204
-0.3355675673944275,-0.4787173755260917,-0.4621777502844621
-0.4544412659939787,-0.4778358641937748,-0.4621777502844674
0.2344577408569848,-0.4787173755260917,-0.462177750284462
0.2702296691162352,-0.6468040418775414,-0.4616253627747203
0.3990528912096386,-0.6457475423193256,-0.461959881811273
-0.2852171112298392,-1.683263551651272,-0.4477321303997844
-0.292618165328833,-1.592610781710168,-0.4492597613869455
-0.396813245456522,-1.590569641031736,-0.4492597613869496
0.1915083387913903,-1.592610781710168,-0.4492597613869455
0.1841072846923969,-1.683263551651272,-0.4477321303997844
0.2857892591999941,-1.681128036042757,-0.4477321303997888
-0.2659980330229192,-1.988556271181359,-0.434929453913499
-0.2778620130256777,-1.82342081420443,-0.4456877617221523
-0.3763569343368187,-1.821139386542021,-0.4456877617221589
0.1767521864882375,-1.82342081420443,-0.4456877617221523
0.1648882064854824,-1.988556271181359,-0.4349294539134991
0.258242321468716,-1.986102927677717,-0.43492945391351
-0.3801462591282205,-1.456482965292688,-0.4535657862220686
-0.3899606498220273,-1.42688681116933,-0.4565845293685383
-0.5222269048898695,-1.425018199009821,-0.460217404912124
0.2888508232845847,-1.42688681116933,-0.4565845293685383
0.2790364325907779,-1.456482965292688,-0.4535657862220685
0.4085919061585634,-1.454583541774871,-0.4548146572918471
-0.7051045856112599,1.188448339843322,-0.4645155042114233
-0.7044153763457931,1.260675139498362,-0.4642299958271444
-0.8005343491194132,1.253989689832017,-0.4541823718467982
0.603305549808361,1.260675139498362,-0.4642299958271444
0.6039947590738277,1.188448339843322,-0.4645155042114232
0.7004944036382362,1.182273618073418,-0.4545060080213203
-0.7044892137157862,1.35168546772509,-0.4638027372427797
-0.7059934363325546,1.454262563906046,-0.4654232387274311
-0.8021692838054102,1.452651880636794,-0.4551579702583297
0.6048836097951225,1.454262563906046,-0.465423238727431
0.6033793871783542,1.35168546772509,-0.4638027372427797
0.6978323402329826,1.34451227670281,-0.4534976721231863
-0.6613607990894457,-1.523273609109364,-0.4503853752909174
-0.6680258972384526,-1.480360833968658,-0.4544432124611207
-0.7579840835695783,-1.461932928894398,-0.4468273845788104
0.5669160707010205,-1.480360833968658,-0.4544432124611207
0.5602509725520135,-1.523273609109364,-0.4503853752909174
0.6474561035090177,-1.508928272637057,-0.4429486722393299
-0.6718202695915058,2.318258474084021,-0.5026777942614873
-0.672206671270434,2.34872338616364,-0.4729138263170921
-0.7585360395450544,2.326562929019721,-0.4693892822804961
0.5710968447330018,2.34872338616364,-0.4729138263170921
0.5707104430540733,2.31825847408402,-0.5026777942614873
0.6387199008862801,2.303110793664878,-0.5076094220173697
-0.6694524800349139,2.241388931135834,-0.5823752554452651
-0.6703524806897804,2.287097813193422,-0.5403437219657775
-0.7383450300342642,2.275399246728872,-0.5434299837191565
0.569242654152348,2.287097813193422,-0.5403437219657774
0.5683426534974816,2.241388931135834,-0.582375255445265
0.6477114019747277,2.228885359130134,-0.5853754310875649
-0.6703119246321668,2.121828725312996,-0.6568653323903839
-0.6701878448638136,2.184551837184277,-0.6227627390433569
-0.7496850248891025,2.171199335464815,-0.6281200662880994
0.5690780183263814,2.184551837184277,-0.622762739043357
0.5692020980947348,2.121828725312996,-0.6568653323903839
0.648810294020707,2.108629119971687,-0.6637526941689372
-0.6718177360798451,1.991685267118405,-0.7003121182144207
-0.6706484673310504,2.057121414070541,-0.6834484288578964
-0.7504032999116302,2.044408814171787,-0.6911395495637152
0.5695386407936184,2.057121414070541,-0.6834484288578963
0.5707079095424128,1.991685267118404,-0.7003121182144207
0.650695189865401,1.979465158084957,-0.7082458489073905
-0.6781270328627322,1.853988730801065,-0.6935793472809479
-0.6742365091262346,1.92412919323102,-0.7042911866254602
-0.7545893925458993,1.912417530229852,-0.7121357902362422
0.5731266825888024,1.92412919323102,-0.7042911866254602
0.5770172063253002,1.853988730801064,-0.6935793472809479
0.6578948329443597,1.842804964667975,-0.7010546641375697
-0.689380788274494,1.712412832809671,-0.630091722234572
-0.68351702182668,1.781726047839459,-0.6677292403952477
-0.7650831569782821,1.771086151003674,-0.6744288537496959
0.5824071952892478,1.78172604783946,-0.6677292403952477
0.5882709617370618,1.712412832809671,-0.6300917222345721
0.670612566703387,1.702028811299178,-0.6354424491446145
-0.6984796129313267,1.615158018785739,-0.5463866643741768
-0.6936392421816653,1.655730294627705,-0.5878158651169811
-0.7766850449125251,1.644709700074599,-0.5910372473279898
0.5925294156442333,1.655730294627705,-0.5878158651169811
0.5973697863938946,1.615158018785739,-0.5463866643741769
0.6690455021986668,1.606535584439954,-0.5496261336720201
-0.6935453642715671,-0.7889358514176185,-0.5252704599341553
-0.6972698979109534,-0.748614045406406,-0.4884942586804978
-0.7867523826028391,-0.7473062788486857,-0.4851611363014167
0.5961600713735212,-0.748614045406406,-0.4884942586804978
0.592435537734135,-0.7889358514176186,-0.5252704599341553
0.6629492063613141,-0.7832394170274526,-0.5305896720429473
-0.685925910978595,-0.8430929096035082,-0.5982300582703911
-0.6896802764051614,-0.8112530250423253,-0.5632535513582313
-0.7601494203798787,-0.8030863453885466,-0.5668160516083236
0.5885704498677292,-0.8112530250423254,-0.5632535513582313
0.5848160844411627,-0.8430929096035082,-0.5982300582703911
0.6666726888974451,-0.8328826070516664,-0.6018231036807834
-0.7064951923941216,1.542887787213545,-0.4781651437633811
-0.703884081012726,1.587125862426857,-0.5077012025057343
-0.7756784739924921,1.581771557084672,-0.513137907895864
0.6027742544752939,1.587125862426857,-0.5077012025057341
0.6053853658566895,1.542887787213545,-0.4781651437633811
0.6968011701313903,1.54240682688226,-0.4763259868662041
-0.6783411328704315,-0.9426648478260475,-0.6629291031885092
-0.6828724068980503,-0.8876248969495,-0.632082228713285
-0.7641793139750637,-0.8779554924464549,-0.6375236858756797
0.5817625803606181,-0.8876248969495001,-0.6320822287132849
0.5772313063329994,-0.9426648478260475,-0.662929103188509
0.6579342743309751,-0.9328002117372292,-0.6694555602291872
-0.6702378483608144,-1.059518705207237,-0.6997632245821244
-0.6738130305451733,-1.001209144191412,-0.6866789358895353
-0.7539456634337804,-0.9909038872451824,-0.6939455962159346
0.5727032040077411,-1.001209144191412,-0.6866789358895353
0.5691280218233822,-1.059518705207237,-0.6997632245821245
0.6487910699155354,-1.048774594087926,-0.7075169738999974
-0.66717825842069,-1.174243657400196,-0.6849742400253718
-0.668034141544998,-1.117118987238549,-0.6991367106043266
-0.7473748021706661,-1.105941360179488,-0.7068891839348976
0.5669243150075657,-1.117118987238549,-0.6991367106043266
0.5660684318832576,-1.174243657400196,-0.6849742400253717
0.6452309854428838,-1.162636093990225,-0.692232040229148
-0.6674016866618322,-1.28845856007088,-0.629344900661984
-0.6672043404061792,-1.231834593556853,-0.6606707636456692
-0.7462807864241016,-1.219793584546818,-0.6671656799462515
0.5660945138687469,-1.231834593556853,-0.6606707636456691
0.5662918601244,-1.28845856007088,-0.629344900661984
0.6453121745204981,-1.276307636202301,-0.6347289259900475
-0.6681983285115853,-1.383087781242945,-0.5554626044487604
-0.6668147540900937,-1.340307207802321,-0.5938389386674355
-0.7457371464514342,-1.329031068636067,-0.5973792870047121
0.5657049275526614,-1.340307207802321,-0.5938389386674357
0.5670885019741531,-1.383087781242945,-0.5554626044487604
0.6348140632062156,-1.372521586835621,-0.5590989210669355
-0.6453160695094756,2.704941621654077,-0.4170088522524248
-0.6443590354736613,2.780625225067085,-0.368109673904297
-0.7207627621392262,2.76597168890745,-0.3619288788678194
0.543249208936229,2.780625225067085,-0.368109673904297
0.5442062429720435,2.704941621654077,-0.4170088522524248
0.6318924315658777,2.690185865007765,-0.4073399030916258
-0.6535526910877586,2.568095751955458,-0.4485403893576189
-0.6490331861004501,2.632245418979795,-0.4415113778548965
-0.7372929497294505,2.615770778001008,-0.4318708086689106
0.547923359563018,2.632245418979794,-0.4415113778548965
0.5524428645503265,2.568095751955458,-0.4485403893576189
0.6406457394253309,2.551485837060647,-0.4387763744766189
-0.6690783390584462,2.406985038331493,-0.4556089327635119
-0.6608862073906607,2.491087385180351,-0.4499986694054599
-0.7472561119748755,2.474850743871792,-0.4397604583978559
0.5597763808532287,2.491087385180351,-0.4499986694054599
0.5679685125210139,2.406985038331493,-0.4556089327635118
0.6570672961053835,2.386117662888799,-0.4441439838918209
-0.7058427390834644,1.115225771379438,-0.4647409893602386
-0.7055942704392925,1.146360750229434,-0.4646650914765947
-0.8021658142484032,1.140502791508594,-0.4546522593297196
0.6044844439018602,1.146360750229434,-0.4646650914765947
0.604732912546032,1.115225771379438,-0.4647409893602386
0.7013409383977209,1.10960214327538,-0.4547264645693768
-0.7060314075895151,0.9301855799057275,-0.4647986181453369
-0.7059959311963135,1.052799035985259,-0.4647877817891983
-0.802626449864699,1.047645249067831,-0.4547722134292699
0.6048861046588813,1.052799035985258,-0.4647877817891983
0.6049215810520828,0.9301855799057276,-0.464798618145337
0.7015573086313415,0.9259546163801942,-0.4547828081133093
-0.7059991570245925,0.6522090246873779,-0.4647887673760301
-0.7060056071375769,0.7848412734194102,-0.4647907375298915
-0.8026375465010301,0.7817042120657327,-0.4547751032533915
0.6048957806001448,0.7848412734194104,-0.4647907375298915
0.6048893304871603,0.652209024687378,-0.4647887673760301
0.7015203227966623,0.6500701909798569,-0.4547731770384121
-0.7059588017980181,0.3900344307335573,-0.4647764407500267
-0.7059991570245924,0.5214325739226752,-0.4647887673760301
-0.8026301493340942,0.5202780006033144,-0.4547731770384121
0.6048893304871603,0.5214325739226753,-0.4647887673760301
0.6048489752605861,0.3900344307335573,-0.4647764407500266
0.7014741862236643,0.3898687968345783,-0.4547572077207515
-0.7054326816812533,0.1453294338385329,-0.4646157321619207
-0.7057973808917213,0.2639158741234888,-0.4647271342460127
-0.8023994664691041,0.2646994439898466,-0.4546933304501086
0.6046875543542892,0.2639158741234888,-0.4647271342460126
0.6043228551438212,0.1453294338385329,-0.4646157321619207
0.7008722562375281,0.1470055186421205,-0.4545609109953477
-0.7037777326248961,-0.07670342695934027,-0.4641101658130125
-0.7047809893708659,0.03287889036735051,-0.4644166563456224
-0.8012352794583432,0.03540130962120477,-0.4543506195295175
0.6036711628334337,0.0328788903673505,-0.4644166563456223
0.6026679060874639,-0.07670342695934025,-0.4641101658130126
0.6989750337811731,-0.07335626033272298,-0.4540470759719399
-0.7010339582117191,-0.3145353920615128,-0.4630734418401257
-0.7023774835677669,-0.1885566399687641,-0.4636823567480092
-0.7984790151747709,-0.1843676345691119,-0.4536288499882094
0.6012676570303347,-0.1885566399687641,-0.4636823567480092
0.5999241316742869,-0.3145353920615128,-0.4630734418401257
0.695086506108439,-0.3095011433472586,-0.452969153861431
-0.700408033115163,-0.6402876759582422,-0.4667677922101974
-0.7007000164568114,-0.4732098482115453,-0.4621777502844713
-0.792845800150943,-0.4673930038363073,-0.4518358424922201
0.5995901899193792,-0.4732098482115453,-0.4621777502844712
0.5992982065777306,-0.6402876759582421,-0.4667677922101974
0.6926577835471077,-0.63878061551807,-0.4552035098272549
-0.6478760558105067,-1.670301576107726,-0.447728205173002
-0.6557418455824819,-1.579858094788101,-0.4492597613869526
-0.7443084486249296,-1.565175587847365,-0.442453344499774
0.5546320190450498,-1.579858094788101,-0.4492597613869526
0.5467662292730744,-1.670301576107726,-0.4477282051730019
0.6345573845802035,-1.655583505518902,-0.4414567194882551
-0.5960545151150722,-1.976208832722751,-0.4350835939108858
-0.6268257925161243,-1.811829301654891,-0.4456602851346337
-0.7105962880642319,-1.799783839842375,-0.4402280769839342
0.5257159659786919,-1.811829301654891,-0.4456602851346337
0.49494468857764,-1.976208832722751,-0.4350835939108858
0.5656609080115165,-1.960333259281187,-0.4313116456382343
-0.67235247289336,-1.444180363219952,-0.4735298997840637
-0.6716558972625789,-1.414927117312333,-0.5122961940606878
-0.739477294380593,-1.400557009897022,-0.518584536615491
0.5705460707251467,-1.414927117312333,-0.5122961940606878
0.5712426463559278,-1.444180363219952,-0.4735298997840637
0.6577152314380158,-1.423814193879537,-0.4736698871466174
-0.2851646981191488,2.819014156287937,0.2879798306633171
-0.2799839117859381,2.82595217390581,0.3374165362415659
-0.3793982775475447,2.823393327509609,0.3374165362415708
0.1788740852484954,2.825952173905809,0.3374165362415659
0.1840548715817061,2.819014156287936,0.287979830663317
0.2857141348531896,2.816462532781089,0.2879798306633203
-0.288724590848209,2.812688051837965,0.2304211082638306
-0.2880126123023969,2.81395327272796,0.2549255993214666
-0.390905911306497,2.811406917902169,0.254925599321469
0.1869027857649544,2.81395327272796,0.2549255993214666
0.1876147643107664,2.812688051837965,0.2304211082638306
0.2908165722480334,2.810143014182438,0.2304211082638325
-0.2851856415528872,2.847516873678553,-0.2895098259032334
-0.2863346385931341,2.868425774171829,-0.1905159926194912
-0.3885008512517892,2.865822710229316,-0.1905159926194953
0.1852248120556916,2.868425774171829,-0.1905159926194911
0.1840758150154446,2.847516873678553,-0.2895098259032334
0.2857441533306036,2.844935577146156,-0.2895098259032387
-0.2887359635814101,2.813832753925643,0.1923399032427466
-0.2887245908482091,2.812688051837966,0.2123263351396439
-0.3919263987854658,2.810143014182439,0.2123263351396457
0.1876147643107664,2.812688051837965,0.2123263351396439
0.1876261370439675,2.813832753925643,0.1923399032427466
0.2908328729243693,2.8112865245671,0.1923399032427483
-0.2875352161621622,2.867941234987209,-0.09534114430015067
-0.2884249780496275,2.854849027632401,-0.01024075699846445
-0.3914969601299195,2.852260097891251,-0.01024075699846511
0.1873151515121849,2.8548490276324,-0.01024075699846445
0.1864253896247196,2.867941234987209,-0.09534114430015064
0.2891118270951739,2.865338675478831,-0.09534114430015303
-0.2888147883667466,2.836230314554198,0.0761569162896464
-0.2888041999806164,2.820700966451709,0.1505837370121219
-0.3920405035198163,2.818147586875065,0.1505837370121232
0.1876943734431738,2.820700966451709,0.1505837370121219
0.187704961829304,2.836230314554198,0.07615691628964638
0.290945853444557,2.833660768001725,0.07615691628964702
-0.6467553724018159,2.803264973118354,0.2873306719781523
-0.6361116898270108,2.809673537825257,0.3362538828858162
-0.7141227679571625,2.791213328154985,0.3388533811950718
0.5350018632895787,2.809673537825257,0.3362538828858162
0.5456455458643836,2.803264973118354,0.2873306719781523
0.6322576390368628,2.782252530967267,0.2969189185995888
-0.6571959636285295,2.796787105485367,0.230421108263834
-0.6551078453831868,2.798082679011965,0.2547957675844366
-0.7434551512254103,2.776138438701589,0.262878048123301
0.5539980188457545,2.798082679011965,0.2547957675844366
0.5560861370910973,2.796787105485367,0.230421108263834
0.6450872544547788,2.774573048958696,0.2356784095429411
-0.6457421697165526,2.831989739464316,-0.2908655969864256
-0.6490654584097062,2.852436577551913,-0.1919970606512526
-0.7369832504955414,2.827814083105899,-0.1957709258859161
0.5479556318722739,2.852436577551912,-0.1919970606512527
0.5446323431791205,2.831989739464316,-0.2908655969864257
0.62105200313614,2.811650763448307,-0.2927887504287704
-0.6572249310725999,2.797924362022797,0.1923399032427495
-0.6571959636285295,2.796787105485367,0.2123263351396471
-0.7463730876754287,2.774543555617518,0.2155020228537523
0.5560861370910972,2.796787105485367,0.2123263351396471
0.5561151045351677,2.797924362022797,0.1923399032427495
0.6453391698778765,2.775633213824993,0.1947251143334033
-0.6537578985936521,2.851735759791837,-0.09563735790650563
-0.6564328210459816,2.838673851270821,-0.01024075699846562
-0.7455267868115165,2.814941385363725,-0.009027998056130374
0.5553229945085494,2.838673851270821,-0.01024075699846565
0.5526480720562198,2.851735759791837,-0.09563735790650568
0.6413451067739717,2.827460643904863,-0.09564162083780249
-0.6574257053737491,2.820176240936529,0.07615691628964748
-0.6573987357370223,2.804747901247375,0.1505837370121242
-0.7466404388297631,2.782215403081611,0.1525767424466774
0.5562889091995901,2.804747901247375,0.1505837370121242
0.556315878836317,2.820176240936529,0.07615691628964745
0.6455503756136567,2.797098039263081,0.07775296062325966
-0.193344471933085,1.212064901837128,1.047163924835182
-0.1939947988710728,1.243966927192289,1.047009509345153
-0.0976176690439132,1.244659026294979,1.047009509345134
-0.1942221898539617,1.286893017722681,1.046367831610762
-0.1942218486515016,1.360351561087234,1.044914221607551
-0.09769216428155404,1.361135618212257,1.044914221607534
-0.1861546439430027,-1.58221326354585,0.3118371493679656
-0.1872552818981907,-1.495218026324683,0.342255719599103
-0.09540642744953162,-1.496690216636245,0.3422557195990937
-0.1816197052946689,2.789149315521351,0.5186875960130174
-0.18167803561612,2.822247229023786,0.4137594914924873
-0.09357652791657581,2.824186361608335,0.4137594914924821
-0.1830326313437147,2.68124627324549,0.7378102773518165
-0.1824263889448754,2.739876494395863,0.632702892511958
-0.09382206331837036,2.741750544077274,0.6327028925119496
-0.1851336384272705,2.512967198851549,0.9108764964927556
-0.1839267800368484,2.603678913407496,0.8328511517148811
-0.09431434298822798,2.60544535042755,0.8328511517148682
-0.1870337683296848,2.361408642754183,0.9807007747444073
-0.1862144657753071,2.430276436179726,0.9591468722863602
-0.09506493474133254,2.431905864143339,0.9591468722863417
-0.188489023863151,2.231804238563237,1.007991955247811
-0.1877592993275309,2.296802546697158,0.9943546345634016
-0.09557179602246269,2.298326514047128,0.994354634563384
-0.1900369040434745,2.100807245509963,1.025235957865394
-0.1892511188880294,2.16666717133935,1.018563313110064
-0.09606126336511645,2.168088315908064,1.018563313110048
-0.1914987969787443,1.962178907442193,1.032034395969197
-0.1908008416606199,2.03280280905707,1.029393812631832
-0.0965697288038565,2.034118184491107,1.029393812631813
-0.1925569858131692,1.816357650807129,1.035103718937152
-0.1920880381452716,1.889407283606371,1.033768821879095
-0.09699205913086009,1.890609359127095,1.033768821879077
-0.1932736012372054,1.666240260399966,1.03821269927883
-0.1929252131409476,1.746297692618471,1.036441230293016
-0.09726673700164278,1.747386694148906,1.036441230293002
-0.1940534642845846,1.453054976799959,1.042957058012914
-0.193695978071502,1.560408484624779,1.040597476183752
-0.09751962567019132,1.561350611062106,1.040597476183738
-0.1915653366752312,1.028933024090583,1.052132618633888
-0.1923943729736514,1.149734913521813,1.048775280269282
-0.097092567864208,1.150352557867661,1.048775280269267
-0.1906058558050094,0.7519769270632687,1.046038520262812
-0.1909837199063465,0.8849958425427791,1.05181141541033
-0.09662973132114154,0.8854043108093965,1.051811415410316
-0.1903462994585425,0.4878075419132731,1.032003821817097
-0.1903833231244816,0.6201973130541051,1.03944947310708
-0.09643274059576247,0.6203965582620333,1.039449473107064
-0.1911549888319528,0.2414089256676001,0.9976907823652212
-0.1906035612414895,0.3607876610346907,1.018985122225038
-0.0965050009204943,0.3607819410528428,1.01898512222502
-0.192691211683373,0.01794977965606008,0.929886547220784
-0.1918915665128964,0.1282337989165679,0.9674320624741098
-0.09692759661116138,0.1280443330867509,0.9674320624740966
-0.1942122259924343,-0.2214559287057769,0.8404377561603715
-0.1934187748585248,-0.09463059746955801,0.8890981457069431
-0.09742867504611874,-0.0949961532904135,0.8890981457069314
-0.1971295391153452,-0.553225835184595,0.6893349721175781
-0.1954826544781244,-0.3812359411879423,0.7706032659349389
-0.09810583580986756,-0.3818279501041555,0.7706032659349275
-0.1996867088081132,-0.7442933485689518,0.5960612530914695
-0.1985407481105738,-0.6772262840974708,0.6294155815282863
-0.09910919908750225,-0.6780521614003575,0.6294155815282745
-0.2026809684368725,-0.8540856491775813,0.5339021667081758
-0.2011204076900924,-0.7967384764820671,0.5669215978359437
-0.09995558772106886,-0.7976587829590424,0.5669215978359292
-0.2027237426712008,-0.9718247779513689,0.4781570337919358
-0.2034936519270464,-0.913071381453995,0.5031644505722843
-0.1007342512946595,-0.9140836050811469,0.5031644505722659
-0.1950291826685173,-1.087435059906196,0.4462239982705365
-0.1995765488119163,-1.029867533151324,0.4596155942303449
-0.09944904623137235,-1.030972039949949,0.4596155942303309
-0.1906510462299919,-1.206257975448509,0.4219296321801865
-0.1918305607370723,-1.145476489439035,0.4346143008153449
-0.0969075805611177,-1.1466723413803,0.4346143008153337
-0.1894292487697344,-1.339392513849135,0.3882213588441726
-0.1900824490760286,-1.273362694108906,0.405824198093059
-0.09633402354923135,-1.274659591712902,0.4058241980930455
-0.1880249637348977,-1.439056201610203,0.3600712727149381
-0.1887233142619114,-1.393129009826442,0.3733657875067311
-0.09588809019147873,-1.394520537392889,0.3733657875067194
-0.1819758488108215,-1.855470795679887,0.1838424241379439
-0.184533147761392,-1.708231269738838,0.2603852948420101
-0.09451329278528263,-1.709871766431911,0.260385294842003
0.1948990508476828,1.211120743012331,1.047163924835206
0.1960169569914786,1.242987082079297,1.047009509345181
0.302859536852775,1.24207619657789,1.047009509345206
0.1964078400411672,1.285865154566292,1.046367831610789
0.1964072535172141,1.359241525632375,1.044914221607574
0.3034189535935474,1.358209612334578,1.044914221607596
0.1825398013480109,-1.580031683023203,0.3118371493679775
0.1844317880708841,-1.493133760535906,0.3422557195991161
0.2862543738253965,-1.491196181358441,0.3422557195991283
0.1747442826933539,2.786440996325108,0.5186875960130271
0.1748445519900889,2.819501885793271,0.4137594914924948
-0.2759543785275315,2.819501885793271,0.4137594914924948
0.272512872152463,2.816949754530991,0.4137594914925017
-0.3769602202041827,2.676253151624865,0.7378102773518442
0.1771730898343357,2.678658656701236,0.7378102773518308
-0.3754665294979585,2.734756818482719,0.6327028925119809
0.1761309646159202,2.737223292831666,0.6327028925119698
-0.2772407911533629,2.737223292831666,0.6327028925119698
0.2743567029605261,2.734756818482719,0.6327028925119809
-0.3821367877956732,2.50833731036887,0.9108764964928
0.1807847020706873,2.510567822880745,0.9108764964927787
-0.3791632690101943,2.598853222203382,0.8328511517149164
0.1787101233772089,2.60117806537174,0.8328511517148993
-0.2798199499146515,2.601178065371741,0.8328511517148993
0.278053442472762,2.598853222203382,0.8328511517149164
-0.386818424021198,2.357105895896864,0.9807007747444585
0.1840510082435357,2.359178803427268,0.9807007747444339
-0.3847997849200681,2.425825037062478,0.9591468722864105
0.1826426345384568,2.42796955986546,0.9591468722863863
-0.2837524610758994,2.42796955986546,0.9591468722863863
0.2836899583826359,2.425825037062478,0.9591468722864105
-0.390403956259923,2.227781244934821,1.007991955247853
0.1865525793866421,2.2297193774961,1.007991955247833
-0.3886060240152521,2.292639253156196,0.9943546345634492
0.1852981894882741,2.294644977131723,0.9943546345634262
-0.2864080160257167,2.294644977131722,0.9943546345634262
0.2874961974778199,2.292639253156196,0.9943546345634492
-0.3942177017916191,2.097067011036347,1.025235957865444
0.1892133714626978,2.098868920482321,1.02523595786542
-0.3922816445544073,2.16278477713726,1.018563313110108
0.1878626138642293,2.164655173989407,1.018563313110087
-0.2889724404016719,2.164655173989407,1.018563313110087
0.291171818016975,2.16278477713726,1.018563313110108
-0.3978195875968488,1.958737904506566,1.032034395969252
0.191726352239669,1.960395655039873,1.032034395969225
-0.3960999299581908,2.029209363273229,1.029393812631886
0.1905265733397814,2.030940555247201,1.02939381263186
-0.291636399877224,2.030940555247201,1.02939381263186
0.2949901034207585,2.029209363273229,1.029393812631886
-0.4004268068055962,1.813231405441984,1.035103718937195
0.1935453693066233,1.814737517182738,1.035103718937174
-0.3992713898064136,1.886123359412537,1.033768821879145
0.192739252493004,1.887705435099629,1.033768821879121
-0.2938490790304467,1.887705435099629,1.033768821879121
0.2981615632689812,1.886123359412537,1.033768821879145
-0.4021924401576502,1.663438045880417,1.038212699278867
0.1947772247603551,1.664788051300676,1.038212699278849
-0.4013340639329985,1.743322672820412,1.036441230293055
0.1941783487635572,1.744755929562442,1.036441230293036
-0.2952881753009997,1.744755929562442,1.036441230293036
0.3002242373955663,1.743322672820412,1.036441230293055
-0.4041139062052713,1.450712926206314,1.042957058012954
0.1961178023084451,1.451841241320622,1.042957058012935
-0.4032331135799003,1.557834709726406,1.040597476183789
0.1955032867308436,1.559074661214449,1.040597476183771
-0.2966131132682861,1.559074661214449,1.040597476183771
0.3021232870424681,1.557834709726406,1.040597476183789
-0.3979835314688506,1.027506447677537,1.052132618633926
0.1918407333780841,1.028193720502865,1.052132618633907
-0.40002615306121,1.148047584252108,1.048775280269323
0.1932658393014237,1.148860478355672,1.048775280269303
-0.2943756658388663,1.148860478355672,1.048775280269303
0.2989163265237778,1.148047584252108,1.048775280269323
-0.3956195139382484,0.7511481649212566,1.046038520262851
0.1901913944117567,0.7515474324919641,1.046038520262832
-0.3965505146360941,0.8838799568933058,1.051811415410368
0.1908409393955639,0.8844175501662934,1.05181141541035
-0.2919507659330066,0.8844175501662933,1.05181141541035
0.2954406880986619,0.8838799568933057,1.051811415410368
-0.394980005874805,0.4875489937153085,1.032003821817146
0.189745219392044,0.4876735528688692,1.032003821817122
-0.3950712266568376,0.619652999367036,1.039449473107123
0.18980886274003,0.6199152299788391,1.039449473107102
-0.2909186892774727,0.619915229978839,1.039449473107102
0.2939614001194053,0.619652999367036,1.039449473107123
-0.3969724956834988,0.2416822329179722,0.997690782365263
0.1911353491347162,0.2415505633877401,0.9976907823652428
-0.3956138604765126,0.3608032873297568,1.018985122225086
0.1901874500777512,0.3607957591469961,1.018985122225062
-0.2912972766151939,0.3607957591469961,1.018985122225063
0.2945040339390804,0.3608032873297568,1.018985122225086
-0.4007575192982263,0.01870542713259804,0.9298865472208178
0.1937761023674764,0.01834138355848387,0.9298865472208013
-0.398787313054478,0.1287513965314547,0.967432062474146
0.1924015195281149,0.1285020367552007,0.9674320624741286
-0.2935113460655575,0.1285020367552007,0.9674320624741286
0.2976774865170458,0.1287513965314547,0.9674320624741462
-0.4044864373101963,-0.2201835200870881,0.8404377561604026
0.1963907122530243,-0.2207965204552007,0.8404377561603876
-0.4025501262735814,-0.09363194340531017,0.8890981457069753
0.1950267769066834,-0.09411305874829797,0.8890981457069598
-0.296136603444126,-0.09411305874829797,0.8890981457069597
0.3014402997361492,-0.09363194340531017,0.8890981457069753
-0.4114771168161671,-0.5512372957895158,0.6893349721176104
0.2014055472121441,-0.5521953020174569,0.6893349721175948
-0.4075420472085392,-0.37961864479566,0.77060326593497
0.198574567367193,-0.3803977995964487,0.770603265934955
-0.2996843939046356,-0.3803977995964487,0.770603265934955
0.3064322206711069,-0.37961864479566,0.7706032659349701
-0.4175537391104556,-0.7418923868172035,0.596061253091503
0.2058012988614901,-0.7430490831929029,0.5960612530914868
-0.4148363730277256,-0.6749700877027104,0.6294155815283189
0.2038314027530931,-0.6760570413748315,0.6294155815283031
-0.3049412292905357,-0.6760570413748316,0.6294155815283031
0.3137265464902932,-0.6749700877027104,0.6294155815283189
-0.4246503392117945,-0.8514476989469767,0.5339021667082231
0.2109484041705015,-0.8527185677847639,0.5339021667082002
-0.4209523347041935,-0.7942243110628586,0.566921597835983
0.2082658143150203,-0.795435544863726,0.566921597835964
-0.3093756408524629,-0.795435544863726,0.566921597835964
0.3198425081667612,-0.7942243110628586,0.566921597835983
-0.4246921512861711,-0.9689326858831463,0.4781570337919815
0.2110219326937081,-0.9703259910497389,0.4781570337919595
-0.4265609917991323,-0.9103061095542961,0.5031644505723345
0.212345399763884,-0.9116383173588878,0.5031644505723103
-0.3134552263013266,-0.9116383173588878,0.5031644505723103
0.3254511652617,-0.9103061095542961,0.5031644505723345
-0.4062561429623558,-1.084293421151048,0.4462239982705683
0.1977950534144625,-1.085806948869343,0.4462239982705529
-0.4171462961469654,-1.026850154845448,0.4596155942303831
0.2056119348211044,-1.028303818381728,0.4596155942303647
-0.306721761358547,-1.028303818381728,0.4596155942303647
0.3160364696095331,-1.026850154845448,0.4596155942303831
-0.3957308563945597,-1.202859855484266,0.4219296321802213
0.1902690763449165,-1.204496946555779,0.4219296321802046
-0.3985846464199688,-1.142209567307721,0.4346143008153758
0.1922966511494317,-1.143783452017143,0.4346143008153609
-0.2934064776868743,-1.143783452017143,0.434614300815361
0.2974748198825366,-1.142209567307721,0.4346143008153758
-0.3927205299727038,-1.335707020803479,0.3882213588442086
0.1881688175250647,-1.337482557812959,0.3882213588441913
-0.3943299179480131,-1.269819727510501,0.4058241980930963
0.1892916629630763,-1.27152660044199,0.4058241980930785
-0.2904014895005189,-1.27152660044199,0.4058241980930785
0.2932200914105809,-1.269819727510501,0.4058241980930963
-0.3892605814282906,-1.43515558286235,0.3600712727149662
0.1857548642096107,-1.437034759640298,0.3600712727149527
-0.3909812128026128,-1.389327525674193,0.3733657875067632
0.1869553224700163,-1.391158942996016,0.3733657875067477
-0.2880651490074589,-1.391158942996016,0.3733657875067478
0.2898713862651806,-1.389327525674193,0.3733657875067631
-0.374356465912327,-1.850671339211286,0.1838424241379577
0.175356490187037,-1.852983543434663,0.183842424137951
-0.3806572685002322,-1.703749632198259,0.2603852948420294
0.1797524640293803,-1.705908722777945,0.2603852948420202
-0.2808622905668229,-1.705908722777945,0.2603852948420201
0.2795474419627999,-1.703749632198259,0.2603852948420294
-0.6573144000807012,1.204165145644212,1.047163924835246
0.5562045735432689,1.204165145644212,1.047163924835246
0.5591377319731179,1.235768584608201,1.047009509345224
-0.6602475585105502,1.235768584608201,1.047009509345224
-0.7114570940569767,1.192169798053962,1.044424870559626
0.6136909655788165,1.223502165511477,1.044228192088012
-0.6612731561590131,1.278292909221968,1.046367831610832
0.5601633296215807,1.278292909221968,1.046367831610832
0.5601617907019789,1.351063918766312,1.044914221607612
-0.6612716172394112,1.351063918766312,1.044914221607612
-0.715969835071345,1.265685246803437,1.043585275413783
0.6148582074788966,1.337883841968238,1.042173211597091
-0.6616010522178835,-1.564664567606583,0.3115462646016269
0.5604912256804511,-1.564664567606583,0.3115462646016268
0.5660024138037889,-1.477779020153134,0.3422557195991373
-0.6671122403412211,-1.477779020153134,0.3422557195991373
-0.7563542628310298,-1.554876655263986,0.3048492023456203
0.6617972708215107,-1.467999561945427,0.3359072312528354
-0.6367605269323799,2.768836087381088,0.5151609653262188
0.5356507003949477,2.768836087381087,0.5151609653262188
0.5308810004251701,2.802857216085035,0.4102948605354259
-0.6319908269626023,2.802857216085035,0.4102948605354259
-0.7282498193089775,2.746335375765006,0.5123865110994319
0.6122525471316205,2.783667793130658,0.4051791666019263
-0.6409287353548128,2.659595742335483,0.7378102773518538
0.5398189088173805,2.659595742335483,0.737810277351854
0.5409275460806817,2.718146658904169,0.631997566374624
-0.642037372618114,2.718146658904169,0.6319975663746241
-0.7242868601926109,2.637567973363499,0.7368786584586367
0.6299758674644096,2.695247035868275,0.6321004846927096
-0.6295208873298619,2.492891672693626,0.9108764964928156
0.5284110607924296,2.492891672693626,0.9108764964928157
0.5345363199273122,2.58275437270626,0.8328511517149286
-0.6356461464647445,2.58275437270626,0.8328511517149289
-0.6891506696232859,2.471312027884628,0.909136404874912
0.6071778012292382,2.561294841163284,0.830857786156709
-0.6288513418997415,2.342751625979728,0.9807007747444767
0.5277415153623092,2.342751625979728,0.9807007747444766
0.5258941628543704,2.410974852620608,0.9591468722864283
-0.6270039893918027,2.410974852620608,0.9591468722864284
-0.6787690691643498,2.321555150854946,0.9792778209877119
0.5774571951381695,2.389391657848915,0.9577748350297209
-0.6354149559625055,2.214360251710756,1.007991955247868
0.5343051294250732,2.214360251710756,1.007991955247868
0.531013865372957,2.278750209433007,0.994354634563466
-0.6321236919103892,2.278750209433007,0.9943546345634658
-0.6863110157486816,2.194205723951078,1.005780432146362
0.5814207201204159,2.258073222178943,0.992594531065562
-0.6423963333807006,2.084589322488105,1.025235957865461
0.5412865068432684,2.084589322488105,1.025235957865461
0.5377423935394652,2.149832833611583,1.018563313110123
-0.6388522200768974,2.149832833611583,1.018563313110123
-0.6943202330526318,2.065487089306686,1.022501665444541
0.5891460385162685,2.130201645155485,1.015997289679619
-0.6489898840029326,1.947258473677471,1.03203439596927
0.5478800574655004,1.947258473677471,1.03203439596927
0.544732081569947,2.017221372246949,1.029393812631905
-0.6458419081073791,2.017221372246949,1.029393812631905
-0.7018761082518308,1.929269549200493,1.029361170782331
0.5971591815506447,1.998665274449588,1.026644917550035
-0.6537626149460318,1.802802028282142,1.03510371893721
0.5526527884085996,1.802802028282142,1.03510371893721
0.5505377017884643,1.875167954451753,1.033768821879162
-0.6516475283258963,1.875167954451753,1.033768821879162
-0.7073547595253884,1.785983987365504,1.032540649281817
0.6038146548474493,1.857763392747091,1.031167316604978
-0.6569947531971018,1.654089658695932,1.03821269927888
0.5558849266596695,1.654089658695932,1.03821269927888
0.5543135978068935,1.733397794921251,1.036441230293068
-0.6554234243443258,1.733397794921251,1.036441230293068
-0.7110706618348994,1.638476758668057,1.035703955901561
0.608155432371251,1.717142218420288,1.03391886587698
-0.6605121561185084,1.442899678647163,1.042957058012968
0.5594023295810763,1.442899678647163,1.042957058012968
0.5577899656480945,1.549248413385475,1.040597476183803
-0.6588997921855267,1.549248413385475,1.040597476183803
-0.7150999062361896,1.428992433842349,1.040287768591076
0.6121443211089592,1.534485068403483,1.038023127221992
-0.6492899968542836,1.022747287176289,1.052132618633939
0.5481801703168515,1.022747287176289,1.052132618633939
0.5519193585086953,1.142418533652682,1.048775280269337
-0.6530291850461274,1.142418533652682,1.048775280269337
-0.7022799182355823,1.012253119142442,1.049108000072068
0.6054543608729978,1.130944559606032,1.045982442312596
-0.6449624667484603,0.7483833553988605,1.046038520262864
0.543852640211028,0.7483833553988606,1.046038520262864
0.5455569141837529,0.880157282903798,1.051811415410382
-0.646666740721185,0.8801572829037979,1.051811415410382
-0.697319497063957,0.7401219818098487,1.043014874894242
0.5981597856099259,0.8708225098847658,1.048694414937212
-0.6437917942125575,0.486686458515492,1.032003821817163
0.5426819676751252,0.486686458515492,1.032003821817163
0.5428489548803439,0.6178371301460557,1.039449473107138
-0.6439587814177761,0.6178371301460557,1.039449473107138
-0.6959800525471795,0.4805574120169389,1.028314086215283
0.5950632473317874,0.6106398876919038,1.036262908887298
-0.6474392120176495,0.2425940053675325,0.9976907823652779
0.5463293854802173,0.2425940053675325,0.9976907823652779
0.5438422910805552,0.3608554177628072,1.018985122225103
-0.6449521176179873,0.3608554177628072,1.018985122225103
-0.7001189344683483,0.2384449449863984,0.9929872782006792
0.5961865256446328,0.3557485709827565,1.014726016531865
-0.6543680115853128,0.02122632092436638,0.9298865472208295
0.5532581850478805,0.02122632092436638,0.9298865472208298
0.5496515591560964,0.1304781390330921,0.967432062474159
-0.6507613856935287,0.1304781390330921,0.9674320624741589
-0.7079673279477859,0.01886706803650645,0.9248889238150116
0.6027759771733134,0.1272356786241456,0.9625174182953278
-0.660829994099803,-0.2159386743262575,0.8404377561604136
0.5597201675623709,-0.2159386743262575,0.8404377561604136
0.5565397007529616,-0.09030036233230881,0.8890981457069866
-0.6576495272903939,-0.09030036233230879,0.8890981457069866
-0.7152658660473297,-0.2163779608559174,0.8345852887128763
0.6105564124143773,-0.09175743909178333,0.8838272216845295
-0.6697747910010298,-0.5446033867625544,0.6893349721176215
0.5686649644635976,-0.5446033867625545,0.6893349721176216
0.5638572704607787,-0.3742232288624637,0.770603265934981
-0.6649670969982108,-0.3742232288624636,0.770603265934981
-0.7255839894452915,-0.5423745498583212,0.6818293746693263
0.6189203095736002,-0.3733781811310191,0.7639436515932442
-0.6768565914939277,-0.7338826074395473,0.596061253091515
0.5757467649564958,-0.7338826074395474,0.596061253091515
0.5725134746169815,-0.6674432558648,0.6294155815283304
-0.6736233011544136,-0.6674432558648,0.6294155815283302
-0.7337664225301398,-0.7301154415591539,0.5875968071478814
0.6288035532407367,-0.6642162830451668,0.6213160599353157
-0.6882559026016641,-0.8426473091276788,0.53390216670824
0.5871460760642318,-0.8426473091276787,0.53390216670824
0.5806825385071172,-0.7858368761892199,0.5669215978359967
-0.6817923650445494,-0.7858368761892199,0.5669215978359967
-0.7506036458947276,-0.8379948768320377,0.5244874719156031
0.6395435682766608,-0.7816469311281377,0.557984213826168
-0.6954875664277971,-0.959284460795953,0.4781570337919976
0.5943777398903649,-0.9592844607959531,0.4781570337919976
0.5924702361936353,-0.9010809655802228,0.5031644505723523
-0.6935800627310675,-0.9010809655802227,0.5031644505723523
-0.7671567491755388,-0.9536818621402015,0.4693854379148361
0.6590557706511204,-0.8959526231028384,0.4938123677878967
-0.6852091168111003,-1.07381269054598,0.4462239982705794
0.584099290273668,-1.07381269054598,0.4462239982705794
0.5909811705786993,-1.016783965947774,0.4596155942303966
-0.6920909971161315,-1.016783965947774,0.4596155942303966
-0.7715014999371224,-1.067276249417717,0.4382046832983339
0.6695538548616851,-1.010712633911466,0.4513539688682849
-0.6789347284420719,-1.191523485301433,0.4219296321802336
0.5778249019046398,-1.191523485301433,0.4219296321802336
0.579257039581051,-1.13131088243826,0.4346143008153867
-0.6803668661184834,-1.13131088243826,0.4346143008153867
-0.7734844170892391,-1.184026362980776,0.4142886485457984
0.6711040108643573,-1.12430529069379,0.4267637399333006
-0.6763679669950171,-1.323411953557009,0.3882213588442212
0.5752581404575849,-1.323411953557009,0.3882213588442212
0.5770189034462372,-1.258000138641454,0.4058241980931095
-0.6781287299836695,-1.258000138641454,0.4058241980931095
-0.7731595382351586,-1.31483727226045,0.381201370161106
0.6730272264420412,-1.249960094726019,0.3984682699527355
-0.6705837231228262,-1.422142840954167,0.3600712727149761
0.5694738965853941,-1.422142840954167,0.3600712727149761
0.5725451580097948,-1.376645503836352,0.3733657875067744
-0.6736549845472271,-1.376645503836352,0.3733657875067745
-0.7669314841152888,-1.412771586869326,0.3536111152533438
0.6693194416933306,-1.367635124270838,0.3666674989687261
-0.6338148669499579,-1.841315069988973,0.1815174880681021
0.5327050404125256,-1.841315069988973,0.1815174880681021
0.5498958214394688,-1.693730353566176,0.2583491014774482
-0.6510056479769009,-1.693730353566176,0.2583491014774482
-0.7112365132337037,-1.837471636862777,0.1713524729246875
0.6419392487574709,-1.68665241291876,0.2494393218080055
-0.7524142875463495,1.164703227932294,1.032477205045774
0.6513044610089174,1.164703227932294,1.032477205045774
-0.7558836845533954,1.195792698528181,1.032096176825353
0.6547738580159632,1.195792698528181,1.032096176825353
-0.7915018983771335,1.15827453656607,0.9808388168933144
0.6903920718397012,1.15827453656607,0.9808388168933144
-0.7570962318208482,1.237751452284185,1.03144785593592
0.6559864052834159,1.237751452284186,1.03144785593592
-0.7570941609358212,1.309616533874101,1.030217015231315
0.6559843343983889,1.309616533874101,1.030217015231315
-0.7924634301835334,1.27204019849713,0.9794272055099376
0.691353603646101,1.27204019849713,0.9794272055099376
-0.8229765667417399,-1.568790216131157,0.2759960771760542
0.7218667402043076,-1.568790216131157,0.2759960771760542
-0.8307609918856626,-1.480214075287676,0.3082153319154199
0.7296511653482303,-1.480214075287676,0.3082153319154199
-0.8600402829960634,-1.514198305200356,0.2571213416964707
0.7589304564586314,-1.514198305200356,0.2571213416964707
-0.7979119347755498,2.716979413918485,0.5046587808764772
0.6968021082381175,2.716979413918485,0.5046587808764773
-0.7755269906120484,2.762269403294116,0.3863331526297191
0.6744171640746161,2.762269403294117,0.3863331526297191
-0.806503286004961,2.74459513377857,0.3547109407387515
0.7053934594675287,2.74459513377857,0.3547109407387515
-0.7813426998088711,2.609607403364603,0.7328149671978922
0.6802328732714388,2.609607403364603,0.7328149671978922
-0.7936624450877637,2.664708084186741,0.6334242807881103
0.6925526185503315,2.664708084186741,0.6334242807881103
-0.8211543434169291,2.6329727825201,0.6193511597877879
0.7200445168794968,2.6329727825201,0.6193511597877878
-0.7328166760145095,2.440350376053257,0.9015461819285414
0.6317068494770772,2.440350376053257,0.9015461819285414
-0.7589032645964817,2.533528561199927,0.8221627905341612
0.6577934380590494,2.533528561199927,0.8221627905341612
-0.7872975771469174,2.504227578223042,0.7881421068077286
0.686187750609485,2.504227578223042,0.7881421068077286
-0.7174546760235132,2.287801503765449,0.9730709430595067
0.6163448494860809,2.287801503765449,0.9730709430595067
-0.7180774415331713,2.355979294897824,0.9517900532159431
0.616967614995739,2.355979294897824,0.9517900532159431
-0.7527391487527042,2.318024366259796,0.9146571669527631
0.6516293222152718,2.318024366259796,0.9146571669527631
-0.7255381204799377,2.161180193734756,0.9961338404274143
0.6244282939425057,2.161180193734756,0.9961338404274143
-0.7214921017574107,2.224682927746535,0.9849170169506014
0.6203822752199785,2.224682927746536,0.9849170169506015
-0.7568792974863881,2.185927056523989,0.9434421422955702
0.6557694709489559,2.185927056523989,0.9434421422955702
-0.7340676340833373,2.033193798708837,1.010574770985758
0.632957807545905,2.033193798708837,1.010574770985758
-0.7297458134093663,2.097540630427052,1.00480437907495
0.6286359868719341,2.097540630427052,1.00480437907495
-0.7651160149207383,2.058952394433045,0.957165581583879
0.6640061883833062,2.058952394433045,0.9571655815838791
-0.7420781869810768,1.897749898278804,1.017700649608644
0.6409683604436446,1.897749898278804,1.017700649608644
-0.7382554083588604,1.966751491653988,1.014654326759931
0.6371455818214282,1.966751491653989,1.014654326759931
-0.7734801876727261,1.928330783902199,0.9651453442002739
0.6723703611352938,1.928330783902199,0.9651453442002738
-0.7479267108939314,1.75527728576326,1.021360622947949
0.6468168843564993,1.75527728576326,1.021360622947949
-0.7453222455832587,1.826649603541994,1.019819635354148
0.6442124190458266,1.826649603541994,1.019819635354148
-0.7804633826474728,1.788408340240888,0.9709040996963192
0.6793535561100406,1.788408340240888,0.9709040996963194
-0.751917993309101,1.608605915461864,1.024760899022735
0.6508081667716689,1.608605915461864,1.024760899022735
-0.7499835607368732,1.686825716623299,1.022916394470808
0.6488737341994411,1.686825716623299,1.022916394470808
-0.7852326452415119,1.648761899660347,0.9744472233784669
0.6841228187040798,1.648761899660347,0.9744472233784669
-0.7561831548563811,1.400283339505972,1.0286444150963
0.6550733283189489,1.400283339505972,1.0286444150963
-0.7542346245347029,1.505203232158579,1.026793900921001
0.6531247979972708,1.505203232158579,1.026793900921001
-0.7895561473738436,1.467432262734316,0.9775596726475356
0.6884463208364116,1.467432262734316,0.9775596726475357
-0.742763955876614,0.9859414484407767,1.035914712445071
0.6416541293391819,0.9859414484407767,1.035914712445071
-0.7473032313233259,1.103916598299479,1.033800174133931
0.6461934047858937,1.103916598299479,1.033800174133931
-0.7838158388686508,1.066743693906656,0.9823684496254151
0.6827060123312185,1.066743693906656,0.9823684496254153
-0.7374994868633921,0.7153933864842549,1.029825832304486
0.6363896603259598,0.7153933864842549,1.029825832304486
-0.739554490273822,0.8453291614729211,1.035098160422863
0.6384446637363899,0.8453291614729211,1.035098160422863
-0.7766237180119578,0.8083924722943005,0.981159747029609
0.6755138914745257,0.8083924722943005,0.981159747029609
-0.7360884183448684,0.4573502228289859,1.0122195797288
0.6349785918074363,0.4573502228289859,1.012219579728799
-0.736300206266008,0.5866721146296023,1.022363219576307
0.6351903797285758,0.5866721146296023,1.022363219576307
-0.773652511559638,0.5501221101224728,0.9680475855274031
0.6725426850222057,0.5501221101224729,0.968047585527403
-0.7403005266656558,0.2166180011381825,0.9724707462714597
0.6391907001282235,0.2166180011381825,0.9724707462714597
-0.7374264022056859,0.333259473767626,0.9961479362565427
0.6363165756682537,0.333259473767626,0.9961479362565426
-0.7745828924343345,0.2970841643048743,0.935755547017634
0.6734730658969022,0.2970841643048743,0.9357555470176339
-0.7482268978202702,-0.001733620658629319,0.903089453337786
0.647117071282838,-0.001733620658629319,0.903089453337786
-0.744121250253456,0.1060303096407544,0.9410799005028154
0.6430114237160236,0.1060303096407544,0.9410799005028153
-0.7802723469415381,0.07012366479922509,0.8790347060799536
0.6791625204041059,0.07012366479922509,0.8790347060799535
-0.7559040423303146,-0.2356542687175551,0.8090570163758701
0.6547942157928824,-0.2356542687175551,0.8090570163758701
-0.7518836605397881,-0.1117383343280099,0.8608356228214593
0.6507738340023558,-0.1117383343280099,0.8608356228214594
-0.7865547972070985,-0.1473967714558794,0.8003279908267438
0.6854449706696661,-0.1473967714558794,0.8003279908267437
-0.7713439786115783,-0.5597831471194189,0.6490902031267917
