-0.7071361256121513,-0.1305094492232117,-0.1525718721569762
-0.7102290159820062,-0.01937979363450876,-0.1527229555057204
-0.8040439375961337,-0.02287454030432572,-0.1458294955416902
0.5624569282137644,-0.01937979363450875,-0.1527229555057204
0.5593640378439095,-0.1305094492232117,-0.1525718721569762
0.6527229838723437,-0.1331247382244461,-0.1456784424347574
-0.7052999308532726,-0.3584037473162949,-0.1525633881108838
-0.7054887724080401,-0.2441863963471427,-0.1525718721569762
-0.7986048520503341,-0.2459020689286233,-0.1456784424347574
0.5577166846397983,-0.2441863963471427,-0.1525718721569762
0.5575278430850308,-0.3584037473162949,-0.1525633881108837
0.6506162444767289,-0.3592155268310429,-0.1456674512335106
-0.7052273908670175,-0.5711126626472917,-0.1524527772212085
-0.7055869698296093,-0.4680318371388613,-0.1525294519265141
-0.7987183381838948,-0.4679760420734868,-0.1456234864285236
0.5578148820613675,-0.4680318371388613,-0.152529451926514
0.5574553030987757,-0.5711126626472917,-0.1524527772212086
0.6505347014746679,-0.5702411067303518,-0.1455319488254572
-0.7000479114965247,-0.7635651206268752,-0.1521048111025238
-0.7029588281436706,-0.668859882498292,-0.1523157593218351
-0.7957046982142219,-0.6672147748086484,-0.1453856224381264
0.5551867403754289,-0.6688598824982919,-0.1523157593218351
0.552275823728283,-0.7635651206268752,-0.1521048111025238
0.6445932520297625,-0.7628775277620961,-0.145181843152669
-0.7052056958080173,-0.9619747968825954,-0.1513912651598955
-0.7002902664213173,-0.8585979662463608,-0.1518103629846678
-0.7926442506023959,-0.8639862744911215,-0.1449224987275453
0.5525181786530757,-0.8585979662463609,-0.1518103629846678
0.5574336080397755,-0.9619747968825954,-0.1513912651598955
0.6497717618019965,-0.9751393769477386,-0.1444944427275242
-0.7230409521339645,-1.214011919468941,-0.153933975453236
-0.714038179940824,-1.086358778373953,-0.1507747875900714
-0.804713437979075,-1.098776650135547,-0.1436694945236829
0.5662660921725823,-1.086358778373953,-0.1507747875900714
0.5752688643657228,-1.21401191946894,-0.153933975453236
0.6688884948361936,-1.220700723849488,-0.1458861114788746
-0.6789984822207882,-2.142095278390348,-0.1384366875192372
-0.6849464424512041,-2.068186203420991,-0.1418837241963358
-0.7743726029731103,-2.055434613989827,-0.1369330663070975
0.5371743546829623,-2.06818620342099,-0.1418837241963358
0.5312263944525463,-2.142095278390348,-0.1384366875192372
0.620016031441289,-2.129122263993025,-0.133948395786275
-0.6579479983631054,-2.28886773965221,-0.09221730341789759
-0.6697089337986459,-2.221630103100354,-0.1226559248494204
-0.7553175901926763,-2.210013551666629,-0.1186830938646106
0.5219368460304041,-2.221630103100354,-0.1226559248494204
0.5101759105948635,-2.28886773965221,-0.09221730341789759
0.5817062485373261,-2.277785779522193,-0.09088898707706997
-0.7017182793879804,-1.904251419055999,-0.1585881308013687
-0.701014943344438,-1.873170433401998,-0.185269805688075
-0.7694945613624017,-1.860906411003677,-0.1895978828167851
0.5532428555761961,-1.873170433401998,-0.1852698056880751
0.5539461916197387,-1.904251419055999,-0.1585881308013687
0.6412580112972846,-1.88593123283944,-0.1584891325815811
-0.265887188801064,1.545815868388491,0.1293578502863974
-0.2633223023111996,1.531195359212617,0.1526537003885994
-0.3485426608730377,1.515074870536417,0.152653700388621
0.1155502145429571,1.531195359212617,0.1526537003885994
0.1181151010328214,1.545815868388491,0.1293578502863974
0.2038809494594535,1.529577072066396,0.1293578502864168
-0.2682001519747914,1.55610964295081,0.09969875553353182
-0.2675153255939092,1.553553911309734,0.1123255302750725
-0.3536454328925694,1.537252499545811,0.1123255302750905
0.1197432378256666,1.553553911309734,0.1123255302750725
0.1204280642065488,1.55610964295081,0.09969875553353182
0.2067282522515047,1.53978755047117,0.09969875553354918
-0.2734926811718157,1.529504317177171,-0.1144517101628903
-0.2745398935066246,1.546401617614696,-0.09373093879860522
-0.3622312759426869,1.530158081470533,-0.09373093879860528
0.126767805738382,1.546401617614696,-0.09373093879860522
0.1257205934035732,1.529504317177171,-0.1144517101628903
0.2130741694730459,1.513397512237961,-0.1144517101628948
-0.2688801847671387,1.557002039959827,0.08007611588936754
-0.268499379740207,1.556606619679422,0.0903748065602195
-0.3548846810138686,1.540280505715574,0.09037480656023639
0.1207272919719644,1.556606619679422,0.09037480656021951
0.1211080969988961,1.557002039959827,0.08007611588936753
0.2076036765831171,1.540672726296027,0.08007611588938361
-0.2748012312783883,1.556111646039237,-0.06346685461459795
-0.2738293347812235,1.561092503756179,-0.0243104783003173
-0.3616790418451925,1.544730090483016,-0.02431047830030967
0.126057247012981,1.561092503756178,-0.0243104783003173
0.1270291435101458,1.556111646039237,-0.06346685461459795
0.215001877692391,1.539789537350808,-0.06346685461459374
-0.2719127770925238,1.561182716337414,0.02020886944847833
-0.2699462330878158,1.558629096549335,0.05855982714767211
-0.3567568086315641,1.54228661691214,0.05855982714768639
0.1221741453195732,1.558629096549335,0.05855982714767211
0.1241406893242813,1.561182716337414,0.02020886944847833
0.2115124602081513,1.544819573073391,0.02020886944848946
-0.6035042659706975,1.483539719849377,0.1290233491343817
-0.6078502909033139,1.469785615944762,0.1522052873327255
-0.6810426580969624,1.454130963876414,0.151945536048135
0.4600782031350721,1.469785615944762,0.1522052873327255
0.4557321782024557,1.483539719849377,0.1290233491343817
0.5381420277765154,1.462974059611722,0.131197536534137
-0.6036591415914993,1.492377453855879,0.09969875553356188
-0.6036049210195764,1.490128071186933,0.1122586300446938
-0.6872102122382511,1.468441717779406,0.1138171513523575
0.4558328332513346,1.490128071186933,0.1122586300446938
0.4558870538232575,1.492377453855879,0.09969875553356189
0.5397648928035841,1.47038938464571,0.1008605641556643
-0.596615643626782,1.468609981759174,-0.1146942487604821
-0.5965416941479212,1.483958488101097,-0.09399270873687718
-0.6793273440382663,1.463139058615314,-0.09420629958983051
0.4487696063796796,1.483958488101096,-0.09399270873687719
0.4488435558585403,1.468609981759174,-0.1146942487604821
0.5224557267139611,1.45206783630151,-0.1148421683194636
-0.6037624105801567,1.493242663155161,0.08007611588939537
-0.6036904405436656,1.492859289723524,0.09037480656024871
-0.687539175899987,1.470853986505217,0.09127195822565978
0.4559183527754238,1.492859289723524,0.09037480656024871
0.4559903228119149,1.493242663155161,0.08007611588939537
0.5398045521678268,1.471223647672399,0.0807727464505397
-0.6007831939099324,1.492578055019802,-0.06351920860224503
-0.6034012739719024,1.497208507145201,-0.0243104783003041
-0.6865096802723045,1.47504764380056,-0.02355879674047217
0.4556291862036606,1.497208507145201,-0.02431047830030411
0.4530111061416907,1.492578055019802,-0.06351920860224504
0.5357240195270366,1.470756313900867,-0.06290629216328632
-0.6043023677340941,1.497295971315759,0.02020886944849758
-0.6040667473268161,1.494820149943511,0.05855982714769682
-0.6877981311603155,1.472744711886227,0.05915451678488357
0.4562946595585743,1.494820149943511,0.05855982714769682
0.4565302799658523,1.497295971315759,0.02020886944849758
0.5400489087651845,1.47513197960661,0.0208525406887433
-0.2125084324674448,0.3582430748110094,1.018847340256222
-0.2118930097169133,0.3981883939652274,1.003740177418881
-0.1191625931639113,0.4028317158709404,1.005848710357316
-0.2105225348613067,0.4268935207751227,0.9917225272939972
-0.2079467916350447,0.46256153685204,0.9759467718377232
-0.1178679401268393,0.4675527587852992,0.9780553047761533
-0.2010711108218689,-2.124881009077633,0.4482470426683611
-0.2078558549241403,-2.043192881043137,0.488797475985546
-0.1178381061221007,-2.051743828901899,0.4887974759855369
-0.1837083843791472,1.508059530451198,0.2053016497790308
-0.1831718811873508,1.528232521862484,0.17892342085725
-0.1097399268268002,1.538983086099291,0.1789234208572323
-0.1853424804923826,1.446176800490713,0.2748109809167324
-0.1846413409328913,1.482635599117852,0.2360614401307399
-0.1102220189167331,1.493139738060388,0.2360614401307188
-0.1881451164535448,1.319688613771964,0.3844374035275641
-0.1863765932862483,1.390463995957267,0.3236823899547756
-0.110791310750776,1.400470000090149,0.3236823899547455
-0.193616533268201,1.190236003804057,0.5359898695155129
-0.190886134043758,1.250452649056214,0.4584673763827203
-0.1122707755234735,1.259701971920182,0.4591262929259528
-0.1929107540061936,1.088598976990842,0.6349948605455156
-0.1941320045000143,1.137396486882159,0.5960486501688569
-0.1133356624498789,1.146034805837187,0.5980253997986247
-0.1949862072670125,0.9858229907411922,0.6980856468435763
-0.1931135039475898,1.038815422664078,0.6664870178081002
-0.113001518516092,1.0469209673375,0.6685955507465288
-0.1953160701741569,0.8724427547844931,0.7659515401260006
-0.1958600476892305,0.9302040663668604,0.7312532802632632
-0.1139025891418904,0.9377226287654821,0.7333618132016919
-0.1959410785714012,0.753179632141357,0.8340537212964748
-0.195185180916849,0.8129248813362372,0.8006411379381488
-0.1136811826462644,0.819809616802178,0.8027496708765771
-0.1980288244980467,0.6368228455217475,0.8954370452460982
-0.1967002542509452,0.695879554096233,0.8651918738881532
-0.1141782393858264,0.7021317264971255,0.8673004068265777
-0.2046738307789803,0.5084077936746781,0.955296485064022
-0.2010442794033159,0.5695260701411058,0.9273626777904023
-0.115603402729554,0.5750953742124847,0.9294712107288253
-0.2139808238129785,0.1966961716884877,1.060199186162759
-0.2131414412668534,0.2918948629314163,1.039466267761299
-0.1195721715663652,0.2959637290824975,1.041574800699732
-0.2141697998169905,-0.02999996990300975,1.087080362495029
-0.214413015532174,0.08493987062761808,1.076794728730525
-0.1199893425007401,0.08789026338599043,1.078903261668966
-0.2128002073191229,-0.2668529471787384,1.084828481526163
-0.2135860108752795,-0.1481529265925007,1.089706314087485
-0.1197180234634977,-0.1464622671163317,1.091814847025925
-0.2106586516271842,-0.4877727400656934,1.058536564182473
-0.2117546721648323,-0.3807383504483851,1.074108434216394
-0.1191172081577542,-0.3803046821915116,1.076216967154831
-0.2100813012991477,-0.6881251162590093,1.012908714110987
-0.20998835511942,-0.5892450045725056,1.038432086067668
-0.1185377247942316,-0.5899381955532154,1.040540619006111
-0.2128617287757392,-0.8992559743081463,0.9353161249283306
-0.2111363180683411,-0.7890641311637375,0.9798746621471804
-0.11891434202304,-0.7908372302634031,0.9819831950856257
-0.2157118497986888,-1.161527969330926,0.802404549494862
-0.214475352216846,-1.028437439696615,0.8732972781238522
-0.1200097935697021,-1.031504214650819,0.8754058110622995
-0.2177479078539443,-1.315242526967179,0.7061522648124352
-0.2168227255398189,-1.258629653210265,0.745746618894179
-0.1207799066092455,-1.262940485450347,0.7478551518326286
-0.2179225986350708,-1.413681766118043,0.6254734358001417
-0.2181157495499305,-1.362264571867573,0.666170364378074
-0.1212041146552705,-1.367135491582635,0.6676199807732551
-0.2171266098369558,-1.519246092491786,0.5947679775241406
-0.2175327983150865,-1.466568084865875,0.6008576383682869
-0.1210128632923204,-1.472002705426017,0.6009894216769303
-0.2162533082329112,-1.622901705231064,0.5953840442671003
-0.2167002124889141,-1.571286942609927,0.5952983048613162
-0.1207397132164466,-1.577287508715996,0.5952983048613054
-0.2152896708868609,-1.729437749514928,0.5863035849929041
-0.2157891217046114,-1.674941366762577,0.592802191922453
-0.1204408076753754,-1.681502125759676,0.5928021919224423
-0.2140564705929533,-1.854670737893678,0.5596079775429359
-0.2147157671096875,-1.789603511701655,0.5756129016285527
-0.1200886675357925,-1.796783954026188,0.5756129016285342
-0.2118378076933183,-1.981474468582822,0.5152621590958272
-0.2133439477151081,-1.920446256419864,0.5383867437144787
-0.1196386087431306,-1.928333828961285,0.5383867437144569
-0.1954800095959235,-2.350821849407358,0.2893415971182174
-0.1958398094163053,-2.236500994672722,0.3785296830948915
-0.1138959494831174,-2.246096662348508,0.3785296830948867
0.1644413618824342,0.3519730678274156,1.015861299708684
0.1633832924819367,0.391612661979729,1.000754136871341
0.2666078470308218,0.3847135584537105,0.9966795861775303
0.1610270950426703,0.4200980915851866,0.9887364867464583
0.1565987324433143,0.4554931193742703,0.9729607312901891
0.2577387073561839,0.4480771018036329,0.9688861805963844
0.1447776753411413,-2.112146208205138,0.4482470426683702
0.1564423889361775,-2.031083287419656,0.4887974759855589
0.2569791908532489,-2.018378186261232,0.4895076603223637
0.1149266996624093,1.492989302427205,0.2053016497790569
0.1140043132052647,1.513007898080284,0.178923420857275
-0.2617764009735072,1.513007898080284,0.178923420857275
0.1989502900937303,1.497034580455751,0.1789234208572982
-0.3517732465142902,1.416265784260876,0.2748109809168032
0.1177361295923121,1.431580197365346,0.2748109809167691
-0.3500913780721639,1.452152779422169,0.2360614401307978
0.1165306910336379,1.467759955381075,0.2360614401307699
-0.2643027788018805,1.467759955381075,0.2360614401307699
0.2023192903039221,1.452152779422169,0.2360614401307978
-0.3586907732111019,1.291761381601852,0.3839961165750655
0.1225545789406321,1.30606009907207,0.3842507759933873
-0.3543218951837333,1.361426754397014,0.3236823899548576
0.1195140344599943,1.376293795665389,0.323682389954818
-0.2672861222282369,1.376293795665389,0.3236823899548181
0.2065498074154915,1.361426754397014,0.3236823899548576
-0.37239546523727,1.164339048379997,0.5311357130371439
0.1319613464089396,1.17759826600285,0.5339369666391098
-0.3654870962609969,1.223611282742244,0.4562609416198759
0.1272670905205592,1.237354037881753,0.4575342387116542
-0.2750391782888015,1.237354037881753,0.4575342387116542
0.2177150084927551,1.223611282742244,0.4562609416198759
-0.3717622876099314,1.064296051166674,0.6279342693041895
0.1307479310127907,1.076739127084212,0.632008819997988
-0.3741778662830247,1.112328242771871,0.5894293458801307
0.1328475735377673,1.125163160955817,0.5932492371555586
-0.2806196613060092,1.125163160955817,0.5932492371555586
0.2264057785147829,1.112328242771871,0.5894293458801306
-0.3762327745541673,0.9631319574465344,0.6910250556022408
0.134316166970169,0.9747497458550396,0.6950996062960437
-0.3722427194982279,1.015293279805263,0.659426426566766
0.1310965101135123,1.027336595554691,0.6635009772605685
-0.2788685978817541,1.027336595554691,0.6635009772605686
0.224470631729986,1.015293279805263,0.6594264265667661
-0.3763590590823493,0.8515299263215658,0.7588909488846662
0.1348832858296966,0.8622372754735699,0.7629654995784687
-0.3778656877100191,0.9083853353674268,0.7241926890219281
0.1358185225637317,0.9195565057941694,0.7282672397157309
-0.2835906103319735,0.9195565057941693,0.728267239715731
0.2300935999417773,0.9083853353674268,0.7241926890219282
-0.3778833517830783,0.734137273069694,0.8269931300551441
0.1359578354130635,0.7438869435946337,0.8310676807489448
-0.3760148539720205,0.7929455045392635,0.7935805466968153
0.1346582536580848,0.8031749272873092,0.7976550973906174
-0.2824303414263266,0.8031749272873092,0.7976550973906174
0.2282427662037787,0.7929455045392635,0.7935805466968153
-0.3828718755365679,0.6196053741690627,0.8883764540047816
0.1395472056127988,0.6284207038416907,0.8924510046985756
-0.3797631460227505,0.6777358637808928,0.8581312826468298
0.1372630529329451,0.6870254167199689,0.8622058333406272
-0.2850351407011869,0.6870254167199689,0.8622058333406271
0.2319910582545088,0.6777358637808928,0.8581312826468299
-0.3980929896527498,0.49320432647124,0.9482358938226945
0.1509716740873515,0.5009884878512664,0.9523104445164936
-0.3898002341208894,0.5533640512676927,0.9203020865490834
0.1447315452575227,0.5616389902309074,0.9243766372428784
-0.2925036330257644,0.5616389902309074,0.9243766372428783
0.2420281463526476,0.5533640512676927,0.9203020865490834
-0.4191601538067878,0.1863814499321312,1.053138594921402
0.1669727798823717,0.1916625780897516,1.057213145615215
-0.4171444573883321,0.280087087546139,1.032405676519955
0.1655296662070979,0.2861326578037777,1.036480227213762
-0.3133017539753397,0.2861326578037777,1.036480227213762
0.2693723696200903,0.280087087546139,1.032405676519955
-0.4196258993657239,-0.03675929092384282,1.080019771253657
0.1672976780553767,-0.03329852470903787,1.084094321947478
-0.4202253227676655,0.07637788463553799,1.069734137489155
0.1677158281899526,0.08076161367602883,1.073808688182974
-0.3154879159581944,0.08076161367602883,1.073808688182974
0.2724532349994237,0.07637788463553799,1.069734137489155
-0.416250435762454,-0.269897572202959,1.077767890284804
0.164942997615154,-0.2683387269597619,1.081842440978619
-0.4181871076610345,-0.1530591895675761,1.082645722846119
0.1662939952779043,-0.1505471873867721,1.086720273539937
-0.3140660830461461,-0.1505471873867721,1.086720273539937
0.2704150198927927,-0.1530591895675761,1.082645722846119
-0.4109724108727367,-0.4873525580199329,1.051475972941107
0.1612611146409794,-0.4875676908451918,1.055550523634925
-0.4136736358276251,-0.3819968478230205,1.067047842975034
0.1631454547831024,-0.3813524983118597,1.071122393668849
-0.3109175425513442,-0.3813524983118598,1.071122393668849
0.2659015480593833,-0.3819968478230205,1.067047842975034
-0.4095494876151565,-0.6845626972934567,1.005848122869611
0.1602685014902062,-0.6863866525636645,1.009922673563434
-0.4093204147725248,-0.5872333769850128,1.031371494826296
0.1601087031912677,-0.5882633284801579,1.035446045520116
-0.3078807909595095,-0.5882633284801579,1.035446045520116
0.261548327004283,-0.5872333769850127,1.031371494826296
-0.4164846737146586,-0.892382273541628,0.9282555336869485
0.1650487687629765,-0.8959016020821932,0.9323300843807739
-0.4121496557022311,-0.783918629904342,0.9728140709058011
0.1620823456477893,-0.7865531218691237,0.9768886215996253
-0.3098544334160311,-0.7865531218691236,0.9768886215996252
0.2643775679339893,-0.783918629904342,0.9728140709058011
-0.4242079947659894,-1.150540912079968,0.7953439582534729
0.1699488570998038,-1.156166275399311,0.7994185089473016
-0.42079202471266,-1.019537714694154,0.8662366868824666
0.1678230009236921,-1.024094365800776,0.8703112375762938
-0.3155950886919338,-1.024094365800776,0.8703112375762938
0.2730199369444182,-1.019537714694154,0.8662366868824667
-0.4284120876050966,-1.301844679451135,0.6995329605236313
0.1734493626044213,-1.308704365193496,0.7033528517990966
-0.4267676729539335,-1.246119696646324,0.7386860276527877
0.1718587371431229,-1.252524783028779,0.7427605783466176
-0.3196308249113647,-1.252524783028779,0.7427605783466177
0.2789955851856917,-1.246119696646324,0.7386860276527877
-0.4286522558214598,-1.398740041671298,0.623334350049077
0.1737497008189239,-1.406390190997964,0.6245402981290387
-0.4289882062974004,-1.348129251662972,0.6613162078996251
0.174081776733431,-1.355366522751115,0.6641174615016295
-0.3218538645016728,-1.355366522751115,0.6641174615016295
0.2812161185291586,-1.348129251662972,0.6613162078996252
-0.4269131797938198,-1.502648744438042,0.5955088166545313
0.1723811921154401,-1.511146571545638,0.5947679775241557
-0.4278697221805832,-1.450796915086469,0.600753096474982
0.1730795341887118,-1.458871739669044,0.6006710108340782
-0.3208516219569535,-1.458871739669045,0.6006710108340782
0.2800976344123414,-1.450796915086469,0.6007530964749819
-0.4247608623828238,-1.604678668979949,0.5964616284567466
0.1708797628883813,-1.614008846965973,0.5953840442671154
-0.4258622914959601,-1.55387340917478,0.5963085400391114
0.1716481058165886,-1.562789122455303,0.5952983048613314
-0.3194201935848304,-1.562789122455303,0.5952983048613314
0.2780902037277183,-1.55387340917478,0.5963085400391114
-0.422385905749074,-1.709543849668409,0.5873811691825546
0.1692230233737112,-1.719729508295567,0.5863035849929215
-0.4236168398112605,-1.655902163771319,0.5938797761120992
0.170081707305787,-1.665650218385962,0.5928021919224682
-0.3178537950740287,-1.665650218385962,0.5928021919224682
0.2758447520430188,-1.655902163771319,0.5938797761120992
-0.4193465909790911,-1.832812739956024,0.5606855617326203
0.167102836080438,-1.844004015019425,0.559607977542971
-0.4209714767750223,-1.768765998992487,0.5766904858182208
0.1682363357269958,-1.779434786547071,0.5756129016285794
-0.3160084234952376,-1.779434786547071,0.5756129016285793
0.2731993890067806,-1.768765998992487,0.5766904858182208
-0.4140158437406074,-1.95762773773505,0.5162662633149182
0.1632883860587326,-1.9698372422396,0.5152621590958474
-0.4175905248175074,-1.897556664713956,0.5394643279041551
0.1658778266807182,-1.909276114848427,0.5383867437145095
-0.31364991444896,-1.909276114848427,0.5383867437145096
0.2698184370492656,-1.897556664713956,0.5394643279041551
-0.3754754400389015,-2.321230020712799,0.288934893775273
0.135165139702594,-2.336357790506575,0.2893415971182231
-0.3767138020610412,-2.208677512179023,0.3782185498106803
0.1357837277868363,-2.222911900455444,0.3785296830948984
-0.2835558155550781,-2.222911900455444,0.3785296830948985
0.2289417142927994,-2.208677512179023,0.3782185498106803
-0.6669940175329656,0.325924041607542,0.9800751278732778
0.5192219297647238,0.325924041607542,0.9800751278732777
0.5202944898584793,0.3642934874790754,0.9649679650359302
-0.6680665776267212,0.3642934874790753,0.9649679650359302
-0.7236583602883859,0.3146610237387363,0.9613503196692084
0.5786162120958277,0.35270581163528,0.9463241820038866
-0.6684286821272659,0.3918661751603469,0.9529503149110501
0.5206565943590242,0.3918661751603469,0.9529503149110501
0.5204358677523222,0.4261270608206931,0.9371745594547889
-0.668207955520564,0.4261270608206931,0.9371745594547888
-0.728586699609613,0.3800460495282185,0.9344544799547443
0.5834258972973124,0.4140282663732723,0.9189321708462064
-0.6612720187587537,-2.078704868417614,0.4267447267311843
0.5134999309905117,-2.078704868417614,0.4267447267311843
0.524932881203024,-2.002061144220874,0.4738660215842458
-0.6727049689712659,-2.002061144220874,0.4738660215842458
-0.7393901601014516,-2.090022731220396,0.3939236456564293
0.6006916306381653,-2.016455065880467,0.4396355112583689
-0.6217516562387729,1.431666968497949,0.2046145610761595
0.4739795684705311,1.431666968497949,0.2046145610761595
0.4678522515677019,1.45185941831504,0.1781929377606918
-0.6156243393359437,1.45185941831504,0.1781929377606918
-0.7104141532749249,1.414968857108716,0.2016138062525409
0.5437708091329035,1.438282846646741,0.1748759751811822
-0.6295804693162728,1.370937952702697,0.2751215226493521
0.481808381548031,1.370937952702697,0.2751215226493521
0.4782949108993925,1.406215945277417,0.2359240223902303
-0.6260669986676343,1.406215945277416,0.2359240223902303
-0.7226683486459196,1.352078396121367,0.27371584073806
0.5695946678988169,1.387911768036201,0.2337594295173706
-0.6451139207701294,1.24943982134574,0.3856647409876026
0.4973418330018876,1.24943982134574,0.3856647409876026
0.4877682163697078,1.317423060766427,0.3252350986175061
-0.6355403041379496,1.317423060766427,0.3252350986175061
-0.7430216340161309,1.230992778322975,0.3877223241877087
0.5831986958709172,1.298620329188447,0.3255403009697983
-0.6696883639934077,1.125094215495984,0.5166259456102287
0.521916276225166,1.125094215495984,0.5166259456102287
0.5096158307662381,1.182935268202261,0.4521823943814812
-0.6573879185344798,1.182935268202261,0.4521823943814812
-0.7660616327566938,1.107578896000044,0.5137303327151369
0.6078921073196484,1.164954577871786,0.453183677286849
-0.6799339793577762,1.027466846847361,0.6018228587968527
0.5321618915895343,1.027466846847361,0.6018228587968527
0.5298087031818184,1.074339257785262,0.5668992236741792
-0.6775807909500602,1.074339257785262,0.5668992236741792
-0.7721531512497407,1.010770681323963,0.5919475840315196
0.6239248957477582,1.057253234691238,0.5600524684733494
-0.6755451351638919,0.9287454515800858,0.6607505812562289
0.5277730473956502,0.9287454515800858,0.6607505812562289
0.5311478675518455,0.9796472916784605,0.6311342824249554
-0.6789199553200873,0.9796472916784607,0.6311342824249554
-0.7635322989243361,0.912820234479772,0.6451907675946179
0.6213408194640799,0.9633299086719176,0.6183205003289346
-0.6630627544211369,0.8198381523381555,0.7271793277430717
0.5152906666528953,0.8198381523381556,0.7271793277430718
0.5218782376712134,0.8753207361591111,0.6927684972394501
-0.6696503254394552,0.8753207361591111,0.6927684972394501
-0.7470547230812452,0.8048014544602133,0.709841641055364
0.6078685622043214,0.8598216214631658,0.6756926653473283
-0.6598151757819359,0.7052800507728754,0.7952815089135511
0.5120430880136941,0.7052800507728754,0.7952815089135511
0.5118239843391516,0.7626683043555842,0.7618689255552211
-0.6595960721073932,0.7626683043555842,0.7618689255552211
-0.7377315452936737,0.6912110067209193,0.7778025833472857
0.593006632243845,0.7481145404315041,0.744534310136562
-0.6625168916487396,0.5935136280601021,0.8566648328631935
0.5147448038804978,0.5935136280601021,0.8566648328631934
0.513264122245491,0.6502405044746212,0.8264196615052395
-0.6610362100137328,0.6502405044746213,0.8264196615052395
-0.7363940946324188,0.5803414594714537,0.8389771071679637
0.5889747184532311,0.6366363010556326,0.8088136667824258
-0.6671804381737823,0.4701646478725799,0.9165242726811026
0.5194083504055405,0.47016464787258,0.9165242726811027
0.5171697767697516,0.5288717617546143,0.8885904654074947
-0.6649418645379934,0.5288717617546143,0.8885904654074945
-0.7336957416656266,0.4577515884729811,0.8985410039389089
0.5876843011239836,0.516104406163384,0.8707872448644706
-0.6679401833180291,0.1707502869269702,1.021426973779799
0.5201680955497874,0.1707502869269702,1.021426973779799
0.5187436777000478,0.2621933172501096,1.000694055378357
-0.6665157654682896,0.2621933172501096,1.000694055378357
-0.7206003634241901,0.1607996487177976,1.002519133305458
0.5733699797448858,0.2514694420363995,0.981888736892262
-0.6675310580016656,-0.04700251911519525,1.04830815011205
0.5197589702334238,-0.04700251911519525,1.04830815011205
0.5210926037809189,0.06340285711164719,1.038022516347548
-0.6688646915491606,0.06340285711164719,1.038022516347548
-0.7182213678093097,-0.05510700708107563,1.029143843632624
0.5724268911362164,0.05436136410346962,1.018992581939612
-0.6615400332546529,-0.2745114659333931,1.046056269143201
0.5137679454864113,-0.2745114659333932,1.046056269143201
0.5171863835161966,-0.1604942516197406,1.050934101704514
-0.6649584712844384,-0.1604942516197406,1.050934101704514
-0.7117332123185548,-0.2806845203516309,1.026581150018345
0.5675599403983279,-0.1676348793294046,1.031630539849558
-0.6523745038069764,-0.4867158046295155,1.019764351799501
0.5046024160387346,-0.4867158046295155,1.019764351799501
0.5092706712495202,-0.3839040032527778,1.035336221833431
-0.6570427590177621,-0.3839040032527778,1.035336221833431
-0.7025047047780119,-0.491095091456687,0.999662450337941
0.5593928391538312,-0.3891510510744149,1.015595011529783
-0.65011753318886,-0.6791641268948474,0.9741365017280013
0.5023454454206182,-0.6791641268948474,0.9741365017280014
0.5018118752150222,-0.5841849109702235,0.9996598736846873
-0.649583962983264,-0.5841849109702235,0.9996598736846873
-0.7005001234267896,-0.6819217256500529,0.9532560507663468
0.5519955170630971,-0.5877427604896465,0.979164780960153
-0.6635754008227882,-0.8819657116925842,0.8965439125453373
0.5158033130545464,-0.8819657116925842,0.8965439125453374
0.5070472245790235,-0.7761210207366613,0.941102449764191
-0.6548193123472652,-0.7761210207366613,0.9411024497641909
-0.7153958992032357,-0.8830124871296247,0.8749674213575831
0.5580081065406256,-0.7780612029002251,0.9198630399790405
-0.6862122953017332,-1.134770164284993,0.7635952643030346
0.5384402075334914,-1.134770164284993,0.7635952643030345
0.5275418136523025,-1.00605086982318,0.8345250657408543
-0.675313901420544,-1.00605086982318,0.8345250657408543
-0.739703064190359,-1.1347429234022,0.7413956459670008
0.5800733800484755,-1.006048952154856,0.8126057601981547
-0.6866740158902234,-1.291472976625122,0.6688983989560459
0.5389019281219818,-1.291472976625122,0.6688983989560459
0.541925354215398,-1.231558263330554,0.7067890424670494
-0.6896974419836398,-1.231558263330554,0.7067890424670494
-0.7461760602185037,-1.300911779886655,0.6473694970941128
0.597846698931191,-1.234965677907619,0.6845356923004343
-0.6884797342869535,-1.393589076533917,0.6079116059160952
0.5407076465187117,-1.393589076533917,0.6079116059160952
0.5377524185838771,-1.341195255246691,0.6364727969811457
-0.6855245063521188,-1.341195255246691,0.6364727969811457
-0.752723712388134,-1.409674196085147,0.5918917325679174
0.6001195483531896,-1.355099080734435,0.6173856425030397
-0.6933575140597508,-1.502152175181197,0.5929961425542063
0.5455854262915092,-1.502152175181196,0.5929961425542064
0.543846764431106,-1.447701444086123,0.5934641012972655
-0.6916188521993478,-1.447701444086123,0.5934641012972655
-0.7627030485174795,-1.524431692805372,0.5754702651370047
0.6102998458363474,-1.466412505812034,0.578014393215147
-0.6949611662155237,-1.606203434610757,0.5965388944762345
0.5471890784472819,-1.606203434610757,0.5965388944762345
0.5466757875361981,-1.555133900775588,0.5959901730096466
-0.6944478753044397,-1.555133900775588,0.5959901730096466
-0.7696550013938284,-1.632435081688089,0.5762475104234048
0.6189788222659505,-1.580191742972467,0.5765660037916407
-0.6923894240471229,-1.707838017970164,0.585418399873649
0.5446173362788811,-1.707838017970164,0.585418399873649
0.5465156041527016,-1.656281773213165,0.593345267256538
-0.6942876919209434,-1.656281773213165,0.593345267256538
-0.7682724213499301,-1.732452262317117,0.5623360801443134
0.6223883483989614,-1.682186573794475,0.5720999320628467
-0.6868252898902476,-1.826519722037882,0.5529990225508629
0.5390532021220058,-1.826519722037882,0.5529990225508629
0.5420279129507279,-1.764889375129989,0.5720735490711839
-0.6898000007189697,-1.764889375129989,0.5720735490711839
-0.7617920018370998,-1.848387015575591,0.5230362575074647
0.6174841695941785,-1.788219368464757,0.5457964305059498
-0.6795861063117739,-1.944472583973985,0.5045369298820399
0.5318140185435321,-1.944472583973985,0.5045369298820398
0.5358383367819947,-1.88792840403323,0.5296655884045391
-0.6836104245502365,-1.88792840403323,0.5296655884045394
-0.7539895578023514,-1.9611852818036,0.4705364348553485
0.6102788491679563,-1.907361959326097,0.4970294875396834
-0.6347910290986742,-2.285680563888953,0.2718529008774723
0.4870189413304325,-2.285680563888953,0.2718529008774723
0.4996636963702628,-2.182949448531453,0.3539584318998734
-0.6474357841385046,-2.182949448531453,0.3539584318998734
-0.6998725357886556,-2.281220804281184,0.2553845486451262
0.5773337459566832,-2.187426089528955,0.3266110654733383
-0.7756103066221962,0.2904400038863861,0.9379542284572466
0.6278382188539546,0.290440003886386,0.9379542284572466
-0.7810925299082527,0.3282831511985274,0.923281519952559
0.633320442140011,0.3282831511985274,0.923281519952559
-0.8347393792592573,0.2953192878145704,0.8736462367399021
0.6869672914910155,0.2953192878145704,0.8736462367399019
-0.7849579972461358,0.3554822081483194,0.9120571625897433
0.637185909477894,0.3554822081483194,0.9120571625897433
-0.7893373169519189,0.3893333394914948,0.8976403781928775
0.6415652291836772,0.3893333394914947,0.8976403781928775
-0.8442027078870574,0.3563256464764047,0.8521472045359605
0.6964306201188155,0.3563256464764047,0.8521472045359605
-0.7974117558808203,-2.102918734544234,0.3587361889281808
0.6496396681125783,-2.102918734544234,0.3587361889281807
-0.8057026509714028,-2.030009061038248,0.4042160350952289
0.6579305632031611,-2.030009061038248,0.4042160350952289
-0.8414612552315248,-2.037237857419514,0.3747178102504225
0.6936891674632831,-2.037237857419515,0.3747178102504225
-0.7819026113710037,1.400690540848146,0.1893768599398772
0.6341305236027619,1.400690540848147,0.1893768599398772
-0.7441495620768576,1.431691140565,0.1623733459096195
0.5963774743086158,1.431691140565,0.1623733459096195
-0.7677618178478443,1.432135827492792,0.142375190940547
0.6199897300796025,1.432135827492792,0.142375190940547
-0.8069708414622903,1.327799316043572,0.2661643542815848
0.6591987536940483,1.327799316043572,0.2661643542815848
-0.7973094623776849,1.366901959109051,0.2244879956199331
0.6495373746094432,1.366901959109051,0.2244879956199331
-0.8555846313660787,1.346448764153164,0.2059446320717302
0.7078125435978369,1.346448764153164,0.2059446320717302
-0.8286203678384397,1.204667292221425,0.3836476709671634
0.6808482800701979,1.204667292221425,0.3836476709671633
-0.8169262863958072,1.272895212646159,0.319771844909635
0.6691541986275654,1.272895212646159,0.319771844909635
-0.8837676307550295,1.244385638295359,0.3020863709765573
0.7359955429867875,1.244385638295359,0.3020863709765573
-0.8455969178177883,1.081381649815641,0.5078254495885345
0.6978248300495467,1.081381649815641,0.5078254495885344
-0.8389026893396065,1.13855824038415,0.4491003303955271
0.6911306015713649,1.13855824038415,0.4491003303955271
-0.8980191960184883,1.108260003899656,0.4332549481840322
0.7502471082502464,1.108260003899656,0.4332549481840322
-0.8450290451090297,0.9850563618933172,0.5815459840842434
0.697256957340788,0.9850563618933172,0.5815459840842434
-0.8475007835605271,1.031322020263735,0.5519057833924448
0.6997286957922854,1.031322020263735,0.5519057833924448
-0.8989422046719869,1.001246651858305,0.5369412869295265
0.7511701169037451,1.001246651858305,0.5369412869295265
-0.8341109952378434,0.8873439415747366,0.6290289457167847
0.6863389074696017,0.8873439415747366,0.6290289457167847
-0.8402134892581686,0.9377541952863182,0.605072601371641
0.6924414014899269,0.9377541952863181,0.605072601371641
-0.8888353151584606,0.9071398198106326,0.5860266383652869
0.7410632273902189,0.9071398198106326,0.5860266383652869
-0.819132797438953,0.779753613962304,0.6924961287063564
0.6713607096707113,0.779753613962304,0.6924961287063564
-0.8268035347129799,0.8345129224406381,0.6581750883362583
0.6790314469447381,0.8345129224406381,0.6581750883362583
-0.8797390054859928,0.8035968850116775,0.6332513248162985
0.731966917717751,0.8035968850116775,0.6332513248162984
-0.8084177817894436,0.6667579365156106,0.7598409916114707
0.6606456940212018,0.6667579365156104,0.7598409916114706
-0.812700191261588,0.72336364661423,0.7272021945630842
0.6649281034933463,0.7233636466142299,0.7272021945630842
-0.872295108232453,0.6925396862142171,0.6981144855625399
0.7245230204642112,0.6925396862142172,0.6981144855625399
-0.8047551866344003,0.5562627915740761,0.8201047360721629
0.6569830988661586,0.5562627915740761,0.8201047360721627
-0.8065082923938123,0.6124686854303383,0.7902978035255681
0.6587362046255705,0.6124686854303383,0.7902978035255681
-0.8685389851916923,0.5817721736952745,0.7556444914374483
0.7207668974234506,0.5817721736952746,0.7556444914374483
-0.7944361635840955,0.4330797685373751,0.8783794837008295
0.6466640758158537,0.4330797685373751,0.8783794837008295
-0.8002094959447276,0.4917454123067175,0.8514110890053301
0.6524374081764857,0.4917454123067175,0.85141108900533
-0.8590029603338706,0.4599234754910319,0.8116569894724968
0.7112308725656288,0.459923475491032,0.8116569894724968
-0.7654440796667282,0.1373914759572485,0.9783246612936289
0.6176719918984864,0.1373914759572485,0.9783246612936289
-0.769313912374753,0.2275828781640834,0.9581414624530731
0.6215418246065112,0.2275828781640834,0.9581414624530731
-0.8159081814893688,0.1947249981816253,0.9054070610488126
0.668136093721127,0.1947249981816253,0.9054070610488127
-0.7597580002940029,-0.07735485569940126,1.003830675262093
0.6119859125257612,-0.07735485569940126,1.003830675262093
-0.7628413918736261,0.03152098809724239,0.9942655401671785
0.6150693041053843,0.03152098809724239,0.9942655401671784
-0.8034542493516385,-0.00125102131562767,0.9378647093630819
0.6556821615833968,-0.001251021315627671,0.937864709363082
-0.7537473692401309,-0.3017088526655247,0.9999122270144984
0.6059752814718891,-0.3017088526655247,0.9999122270144984
-0.7567013232835704,-0.1892707513348104,1.005709944067805
0.6089292355153286,-0.1892707513348104,1.005709944067805
-0.7960925501214617,-0.2217395662648227,0.9469649900101015
0.6483204623532202,-0.2217395662648227,0.9469649900101014
-0.7474565168277001,-0.5110119655794171,0.9702595232015054
0.5996844290594584,-0.5110119655794171,0.9702595232015056
-0.7505407366035755,-0.4095987715024958,0.9877654074731068
0.6027686488353337,-0.4095987715024958,0.9877654074731068
-0.7937406029313225,-0.4417682034753116,0.9274814588669447
0.645968515163081,-0.4417682034753116,0.9274814588669447
-0.7464403702694715,-0.7008564102390661,0.920457116075079
0.5986682825012299,-0.7008564102390662,0.9204571160750789
-0.7456002943802053,-0.6071617385527242,0.9480467663445111
0.5978282066119636,-0.6071617385527242,0.9480467663445111
-0.7927416739837759,-0.6391212496577102,0.8855640601847561
0.6449695862155342,-0.6391212496577102,0.8855640601847561
-0.7616200736522939,-0.9009038886550008,0.8391323818765547
0.6138479858840522,-0.9009038886550008,0.8391323818765546
-0.7518077620445602,-0.7964993166153065,0.8854983385943015
0.6040356742763187,-0.7964993166153066,0.8854983385943015
-0.797980037390729,-0.8320864120060578,0.8209041120870925
0.6502079496224872,-0.8320864120060578,0.8209041120870925
-0.7861058966603904,-1.151903149907715,0.7030120610692572
0.6383338088921488,-1.151903149907715,0.7030120610692572
-0.773881495437257,-1.023293652328397,0.775275375669497
0.6261094076690152,-1.023293652328397,0.775275375669497
-0.8186975064192341,-1.062440572510423,0.7112144673040868
0.6709254186509923,-1.062440572510423,0.7112144673040868
-0.8011963993519401,-1.322644132151029,0.6122372029425749
0.6534243115836983,-1.322644132151029,0.6122372029425749
-0.795316825498992,-1.253977939967148,0.6465957905204335
0.6475447377307502,-1.253977939967148,0.6465957905204335
-0.8425725883152291,-1.284750809895907,0.5923670772835363
0.6948005005469875,-1.284750809895907,0.5923670772835363
-0.8110996404575899,-1.428820875152058,0.5694520824830283
0.6633275526893481,-1.428820875152058,0.5694520824830283
-0.8060853048396953,-1.376908387173836,0.5881042237301809
0.6583132170714536,-1.376908387173836,0.5881042237301809
-0.8592076007015372,-1.399417872364274,0.5505984402889083
0.7114355129332954,-1.399417872364273,0.5505984402889084
-0.8209502021319193,-1.54105334847139,0.5547128017341531
0.6731781143636775,-1.54105334847139,0.5547128017341532
-0.8161309165758272,-1.483475275604201,0.5586233130061722
0.6683588288075855,-1.483475275604201,0.5586233130061722
-0.8642769341452729,-1.492788960828079,0.53642823519842
0.7165048463770313,-1.492788960828078,0.5364282351984199
-0.8281184468138859,-1.648940043003483,0.5516757481177405
0.6803463590456442,-1.648940043003483,0.5516757481177403
-0.8252081246306859,-1.59682493411737,0.5535677877309966
0.6774360368624441,-1.59682493411737,0.5535677877309965
-0.867233970873865,-1.598118855161594,0.5296479373640297
0.7194618831056234,-1.598118855161594,0.5296479373640297
-0.8262697401518923,-1.748335344148178,0.5349183805275302
0.6784976523836505,-1.748335344148178,0.5349183805275303
-0.8284580666602175,-1.698428855688676,0.5461643980724353
0.6806859788919758,-1.698428855688676,0.5461643980724354
-0.8660016858221702,-1.697917213038902,0.5187223328560564
0.7182295980539285,-1.697917213038902,0.5187223328560564
-0.8189510972588971,-1.863460721315627,0.4917781377754574
0.6711790094906555,-1.863460721315627,0.4917781377754573
-0.8228620812746357,-1.8037172717735,0.5165792661698717
0.6750899935063939,-1.8037172717735,0.5165792661698716
-0.8594790040690885,-1.804636163825051,0.4888245540670335
0.7117069163008467,-1.804636163825051,0.4888245540670335
-0.8105230525945232,-1.975226774799662,0.4357674544626476
0.6627509648262815,-1.975226774799662,0.4357674544626476
-0.8147397446862799,-1.921921813614387,0.4637683706441937
0.6669676569180383,-1.921921813614387,0.4637683706441937
-0.850676262133712,-1.925401973890797,0.4361961286231202
0.7029041743654703,-1.925401973890797,0.4361961286231202
-0.7395869646858873,-2.289996961181984,0.2289837945116044
0.5918148769176456,-2.289996961181984,0.2289837945116044
-0.7796020032137236,-2.199140301768611,0.2929269950094826
0.6318299154454817,-2.19914030176861,0.2929269950094825
-0.8063744115452451,-2.213669270823925,0.26035215169511
0.6586023237770033,-2.213669270823925,0.26035215169511
-0.8439754830493464,1.384527446991839,0.1477357083802219
0.6962033952811048,1.384527446991839,0.1477357083802218
-0.7749466404339133,1.43359815374536,0.1236082590735683
0.6271745526656716,1.43359815374536,0.1236082590735683
-0.7767640417950208,1.434427660046236,0.1086724896289134
0.628991954026779,1.434427660046236,0.1086724896289134
-0.9128953050728343,1.2859595681773,0.217180213920491
0.7651232173045925,1.2859595681773,0.217180213920491
-0.8881852372055461,1.333954927268788,0.1799698043894592
0.7404131494373043,1.333954927268788,0.1799698043894592
-0.8993673936710043,1.330877278700958,0.1514222469605753
0.7515953059027626,1.330877278700958,0.1514222469605754
-0.9320941858163815,1.155914686424071,0.3317946572698491
0.7843220980481397,1.155914686424071,0.3317946572698491
-0.9257802826263393,1.226415581532633,0.267863204230775
0.7780081948580974,1.226415581532633,0.267863204230775
-0.945241843534379,1.221923067341952,0.2241472091076152
0.7974697557661372,1.221923067341952,0.2241472091076152
-0.9347736645249587,1.033656532129235,0.4622469226556063
0.7870015767567169,1.033656532129235,0.4622469226556063
-0.9346704505684764,1.089766109214911,0.4000300696793321
0.7868983628002346,1.089766109214911,0.400030069679332
-0.9535317011813598,1.086432123208556,0.355420903489463
0.805759613413118,1.086432123208556,0.3554209034894629
-0.9276247676824641,0.9361019435493976,0.5325749914316283
0.7798526799142223,0.9361019435493976,0.5325749914316283
-0.9320995670449821,0.9836500932519008,0.5067446819498185
0.7843274792767404,0.9836500932519008,0.5067446819498185
-0.9520291625888665,0.9818299289299619,0.4635801738202179
0.8042570748206248,0.9818299289299619,0.4635801738202179
-0.9210232596249026,0.8368052446314516,0.5650403980240246
0.7732511718566609,0.8368052446314516,0.5650403980240246
-0.923606746186085,0.8876582468698413,0.5495416730892087
0.7758346584178432,0.8876582468698414,0.5495416730892087
-0.9485210178631631,0.8832259940281674,0.4974361508921846
0.8007489300949213,0.8832259940281675,0.4974361508921846
-0.9186981949718099,0.7291231842570367,0.6071016047055073
0.7709261072035682,0.7291231842570368,0.6071016047055073
-0.9195723423883528,0.78386925582255,0.5840586864508333
0.771800254620111,0.7838692558225502,0.5840586864508333
-0.9480766634434141,0.7794784081662346,0.5147560443976057
0.8003045756751723,0.7794784081662347,0.5147560443976057
-0.9164703869540145,0.616233786874965,0.651580073404183
0.7686982991857728,0.616233786874965,0.6515800734041829
-0.917591183976588,0.6727865185743905,0.6301917652450353
0.7698190962083462,0.6727865185743907,0.6301917652450352
-0.9476003762426376,0.6684272181390853,0.53248680853251
0.7998282884743959,0.6684272181390853,0.5324868085325101
-0.9148944608817959,0.5053514230904243,0.6915658466234005
0.7671223731135543,0.5053514230904243,0.6915658466234005
-0.9165835924054304,0.5619945567199896,0.6717457273954942
0.7688115046371887,0.5619945567199896,0.6717457273954942
-0.9476667730965509,0.5576316524486511,0.5516818288771505
0.7998946853283091,0.5576316524486511,0.5516818288771503
-0.8984035355889966,0.3793892388547313,0.7287261327938271
0.7506314478207549,0.3793892388547311,0.7287261327938273
-0.907278284502236,0.4394276258553482,0.7119237151514528
0.7595061967339944,0.4394276258553482,0.7119237151514528
-0.9412618603143558,0.4351956511984385,0.569351320667608
0.7934897725461141,0.4351956511984385,0.569351320667608
-0.8892461560023768,0.3014305483621369,0.7473346888911788
0.7414740682341351,0.3014305483621368,0.7473346888911787
-0.8929611189593869,0.3352132892831397,0.739630746798837
0.7451890311911452,0.3352132892831396,0.739630746798837
-0.9306397762007391,0.3313466977694103,0.5806496326869414
0.7828676884324974,0.3313466977694103,0.5806496326869414
-0.8763823701714998,0.2365866611210278,0.76350340208705
0.7286102824032581,0.2365866611210278,0.76350340208705
-0.8848406057811978,0.2743461323548112,0.7538594459470577
0.7370685180129561,0.2743461323548113,0.7538594459470576
-0.9253533435214494,0.2708017693209593,0.5864697752279677
0.7775812557532078,0.2708017693209593,0.5864697752279676
-0.8568771060995458,0.0831234213754454,0.7900276010605984
0.7091050183313041,0.0831234213754454,0.7900276010605984
-0.8653273045993379,0.1736566290894277,0.7769656871427554
0.7175552168310964,0.1736566290894277,0.7769656871427553
-0.9115534151654716,0.1699789245403635,0.5975732502705985
0.7637813273972298,0.1699789245403635,0.5975732502705986
-0.8459378901792805,-0.1318166546638546,0.8055663529020255
0.6981658024110389,-0.1318166546638546,0.8055663529020255
-0.8508327369741233,-0.02299944229945219,0.7999607356426814
0.7030606492058817,-0.02299944229945219,0.7999607356426814
-0.8992339718495183,-0.02774978268746743,0.6076866969698893
0.7514618840812766,-0.02774978268746743,0.6076866969698893
-0.8425568443967096,-0.3558478274047284,0.8009727220033618
0.694784756628468,-0.3558478274047284,0.8009727220033618
-0.8431559220159726,-0.2435670736542714,0.8060229690292013
0.695383834247731,-0.2435670736542714,0.8060229690292013
-0.8921366989173556,-0.2484422063005535,0.6107958442344512
0.7443646111491138,-0.2484422063005535,0.6107958442344512
-0.8442315945450212,-0.5649416332602988,0.7754614495528376
0.6964595067767794,-0.5649416332602988,0.7754614495528376
-0.8433173248455563,-0.4636143142467676,0.7905213715922413
0.6955452370773146,-0.4636143142467675,0.7905213715922412
-0.8925949772945734,-0.4684940977385514,0.6038587392985062
0.7448228895263316,-0.4684940977385514,0.6038587392985062
-0.8430395782803191,-0.7584772485165285,0.7342300413877736
0.6952674905120775,-0.7584772485165283,0.7342300413877737
-0.8437114483360559,-0.6610245842735999,0.757272259631412
0.6959393605678143,-0.6610245842736,0.7572722596314119
-0.8912194742021939,-0.6659186737264924,0.5881438821092959
0.7434473864339523,-0.6659186737264923,0.5881438821092959
-0.8544994110146121,-0.9927521123962366,0.6584560373572047
0.7067273232463704,-0.9927521123962366,0.6584560373572046
-0.846369573660175,-0.8693329886205209,0.7014079701952807
0.6985974858919333,-0.8693329886205208,0.7014079701952807
-0.8904986603754873,-0.8964022686950977,0.5508574893250775
0.7427265726072456,-0.8964022686950978,0.5508574893250775
-0.8758939583055133,-1.223391265263943,0.5633753408720339
0.7281218705372716,-1.223391265263943,0.5633753408720339
-0.864871454139244,-1.115021872833558,0.6096010501067326
0.7170993663710022,-1.115021872833558,0.6096010501067326
-0.9067277914149465,-1.164264213957344,0.4913492108043739
0.7589557036467047,-1.164264213957344,0.4913492108043739
-0.8963309540102418,-1.363592088922707,0.519305172763002
0.7485588662420001,-1.363592088922707,0.519305172763002
-0.8869410702606919,-1.306071027360425,0.5326167672762603
0.7391689824924503,-1.306071027360425,0.5326167672762603
-0.9235811069583974,-1.311163675182697,0.4761911353808367
0.7758090191901556,-1.311163675182697,0.4761911353808367
-0.9019720654014775,-1.451071793994041,0.5124388925146746
0.7541999776332358,-1.451071793994041,0.5124388925146746
-0.9013257908178136,-1.408805571877161,0.5145623865962867
0.7535537030495719,-1.408805571877161,0.5145623865962867
-0.9291508551053684,-1.404105470882768,0.4815140359301423
0.7813787673371269,-1.404105470882768,0.4815140359301424
-0.899987107524365,-1.545552484643042,0.5059074452122293
0.7522150197561233,-1.545552484643042,0.5059074452122292
-0.9011005659337225,-1.496260268887479,0.5099138287312575
0.7533284781654807,-1.496260268887479,0.5099138287312575
-0.9257473451128613,-1.496427029216324,0.4779085033970635
0.7779752573446195,-1.496427029216324,0.4779085033970635
-0.8961029851913128,-1.644589257150714,0.4956677600472869
0.7483308974230711,-1.644589257150714,0.4956677600472869
-0.8983525322205499,-1.595441903817727,0.5012811036768855
