-0.8064004061199253,-1.202535022330407,0.3503180844859974
0.2624292044785138,2.09341717927773,0.2356969922468501
-0.07432011037291134,2.210849153962608,0.2371029612214552
0.9410088621561481,-1.198883149886518,0.4064928539271605
-0.8276471608723585,-1.198883149886518,0.4064928539271604
0.9570312784113854,-1.161579221904905,0.5027219948179601
-0.8436695771275956,-1.161579221904905,0.5027219948179601
0.9573298219935562,-1.161896080741911,0.5335218992083541
-0.8439681207097665,-1.161896080741911,0.5335218992083541
0.2633653184627762,2.205590617427617,0.2404671254676356
-0.07357421347166093,2.319562465907931,0.2425788775545126
-0.2181961174338263,2.90821435720797,0.3304152092672065
0.1019598557142448,2.916320389466584,0.3212336387123436
0.3950110149190942,2.900553438529722,0.3337324136085965
-0.4448105389184699,2.868354980185694,0.3434640250984373
0.613183587248137,2.857575081493984,0.3466329740012835
-0.5376740219539186,2.851107311031519,0.3481253756183405
0.8184746439016841,2.792616087356984,0.3400852377606497
-0.703978162261673,2.80197065118105,0.3519973724790996
0.9038991430788612,2.73122918821189,0.3422137057352659
-0.7905374417950715,2.73122918821189,0.3422137057352659
0.9498480027198266,2.53716830529095,0.3399258901810945
-0.8364863014360369,2.53716830529095,0.3399258901810946
0.9552958671275558,2.327482610901027,0.3308587230592399
-0.8419341658437658,2.327482610901027,0.3308587230592399
0.9584706255076998,2.198880657936707,0.3241683609026376
-0.8451089242239099,2.198880657936707,0.3241683609026376
0.9728056601774772,2.086468783572482,0.3245100631608595
-0.8594439588936875,2.086468783572482,0.3245100631608595
0.9642479169231872,1.986468340879058,0.3264139957992045
-0.8508862156393975,1.986468340879058,0.3264139957992045
0.962567885520543,1.893593296756502,0.326399493920325
-0.8492061842367531,1.893593296756502,0.326399493920325
0.9695955321365407,1.753571731657598,0.3282288954068697
-0.8562338308527511,1.753571731657598,0.3282288954068697
0.9521434417350044,1.537320226184249,0.3337244176610651
-0.8387817404512147,1.537320226184249,0.3337244176610651
0.9465250570134948,1.374929893067848,0.3339171299525764
-0.8331633557297051,1.374929893067848,0.3339171299525765
-0.8227870218629669,1.170031907215766,0.3339150250508224
0.9361487231467567,1.170031907215766,0.3339150250508224
-0.7991732210408644,0.9394018875320163,0.3339150250508224
0.9125349223246543,0.9394018875320161,0.3339150250508224
0.9261781570271486,0.6979832188434731,0.3309698457732521
-0.8128164557433586,0.697983218843473,0.3309698457732521
0.9509874785077759,0.4496779185978784,0.3222549060609955
-0.8376257772239859,0.4496779185978784,0.3222549060609955
-0.8404036420968405,0.1871313871862023,0.3178197518656485
0.9537653433806301,0.1871313871862023,0.3178197518656485
-0.8513736508862789,-0.01140332168226427,0.3228442818131664
0.9647353521700685,-0.01140332168226428,0.3228442818131664
0.9841281796006495,-0.2276416111873508,0.3320233454636844
-0.8707664783168599,-0.2276416111873507,0.3320233454636844
0.9803583724878414,-0.3089880776659719,0.3340129879442055
-0.8669966712040517,-0.3089880776659719,0.3340129879442055
0.9740518144562466,-0.3966986161669639,0.3340476897667467
-0.8606901131724567,-0.3966986161669639,0.3340476897667467
0.9674839367472343,-0.5112293612963523,0.3340487281486481
-0.8541222354634446,-0.5112293612963523,0.3340487281486481
-0.2093009174533137,-1.518097265836889,0.3095898271731115
0.1004945972465903,-1.550288190150862,0.3057660805576302
0.3840624276592969,-1.50584466962007,0.3107621829379901
-0.4285948458545582,-1.468620691158482,0.3137717970837308
0.5953166812927162,-1.456460485778965,0.3147387965676036
-0.5238211550428596,-1.443281862961104,0.3161767970729519
-0.7277849980675902,-1.31670128293115,0.3315558413348171
0.8406488411248163,-1.319635497462009,0.3468116274337525
0.9259097691935047,-1.125267340537256,0.3503185180689231
-0.8125480679097147,-1.125267340537256,0.3503185180689231
0.9381866808065369,-0.9978436637792901,0.3503279066015467
-0.8248249795227471,-0.99784366377929,0.3503279066015466
0.9515727682624811,-0.8562958209308842,0.3503437867236612
-0.8382110669786912,-0.8562958209308842,0.3503437867236611
0.9602780788791888,-0.7280556538390038,0.3503448251055626
-0.8469163775953992,-0.728055653839004,0.3503448251055626
0.9608914552237329,-0.6192625645288076,0.3340487281486481
-0.8475297539399431,-0.6192625645288076,0.3340487281486481
-0.2061038243980515,-1.254018474266499,0.5865942898115654
0.380127310700722,-1.240284439268335,0.5886216331748411
-0.2082212177966228,-1.131138585441911,0.6276808289325272
0.3827334877893053,-1.120372883640235,0.6277559521112973
-0.2103069139275494,-1.002117949906842,0.669767517411079
0.3853006505441503,-0.9927538975509752,0.6697962390851215
-0.2122110103422137,-0.8758108241410201,0.7100784990944926
0.3876442927098905,-0.8667543714412793,0.7105500266973408
-0.2138212995387682,-0.7627042986721486,0.7379520582753349
0.3896263045612946,-0.7548218364085058,0.7383950584532479
-0.2152716667027552,-0.6498312321468951,0.7671865250487522
0.3914114776308653,-0.6424917257200964,0.7674928293390967
-0.2156020155125975,-0.5268417093824325,0.7944164756925989
0.3918180848773187,-0.5217683259984733,0.7944394498000327
-0.2061851879002772,-0.4229303454590883,0.8115158791842543
0.3802274563304811,-0.4198979873781021,0.8114038135807199
-0.2022017909236581,-0.271903732192852,0.8512664773541384
0.3753245233458971,-0.2675624661886469,0.8510857742448278
-0.2008342795910073,-0.1128475356449771,0.927762123572367
0.3736413327276882,-0.108391245341302,0.9272784622293714
-0.1920327976596552,0.07440052212401381,1.005058170162251
0.3628080975950268,0.07805494141357069,1.004271658288426
0.3585190592939139,0.2387236925475075,1.064266370637929
-0.1885481605546865,0.2359513874586711,1.065234473794863
0.3564027700529134,0.4078764568809608,1.108234784259315
-0.1868287774444628,0.4061266708711752,1.109380009281898
-0.1779869083280493,0.5975212902083126,1.153439686922778
0.3455198246696909,0.5981210581545156,1.152167884906042
-0.1730991997055364,0.7701889660767449,1.16933802502226
0.3395038267751768,0.7697512390978891,1.167987189790394
-0.172527265736895,0.9946807199817197,1.171144039188386
0.3387998663272689,0.9928941067436208,1.169767520438959
-0.1786704660175008,1.23398714018996,1.154229346609826
0.34636117630051,1.230762624951668,1.15284328940782
-0.1811162103646892,1.446565335521042,1.10821364889572
0.3493715015836977,1.442063518102567,1.106808490820882
-0.180131120567366,1.614827760848555,1.062712125147928
0.3481590115184537,1.609314917993633,1.061286517609042
-0.1822604037634529,1.837330226311026,0.997939514372842
0.3507798230712294,1.830480450080654,0.9964862162504977
-0.1834489748646822,1.984123117490838,0.9556900729035085
0.3522427665064295,1.976391318155287,0.9542129607090091
-0.182468347573214,2.080271222871966,0.9379403191397053
0.3510357690815825,2.071961705843246,0.9364446013787418
-0.183661455407401,2.183791625930303,0.935616817597839
0.3525042965190276,2.174860093852891,0.9341020489922631
-0.1833385492076115,2.299107438294579,0.9372044079478686
0.352106849950893,2.289483017003799,0.9356773234561978
-0.1822152635730086,2.416562837790086,0.9294784649791332
0.3507242626212019,2.406206193836451,0.9280141124562018
-0.179916581412655,2.583917498949218,0.9050795962293888
0.3478949476794011,2.572569326675846,0.9039909610870822
-0.179776036382164,2.808244480687343,0.8779057184121488
0.3477219589288801,2.798213707391769,0.8773021311318739
-0.1909959374448756,2.897186869641671,0.8463378095853557
0.3615318863167423,2.888103445257038,0.8459739313039697
-0.1983924491438481,2.905605898394419,0.8148099661398649
0.3706358248377113,2.896501466972459,0.8145547239491622
-0.2004076044385912,2.911066483002701,0.7867157036637729
0.3731161629565702,2.90192501531208,0.7865632082884999
-0.2132650080397312,2.88860724254435,0.7206957987420132
0.3889415975246418,2.87952571821201,0.7208637151664429
-0.2214407528269831,2.87883281159649,0.5867396738991738
0.3990046489920808,2.869762479279935,0.5873170337666297
-0.2212960715512284,2.884744838748053,0.5373273334019662
0.3988265691764579,2.875657070567525,0.5380624411864632
0.2621884927136371,2.313930643753986,0.2451727996300884
-0.07292799586581948,2.394077080198787,0.2503538226420425
-0.2189162312555675,2.926567706922065,0.4121678424982027
0.3958973613791617,2.917766944919568,0.414122145061318
-0.2182968867605831,2.879600284710898,0.2976001304764355
0.395135046056059,2.87148054953586,0.3008402829870139
-0.2209539618804648,2.720711590692013,0.267360376168486
0.3984054861664225,2.710174134765834,0.2700997958275881
-0.2158330284848531,2.485599256445777,0.2600438700425772
0.3921024253857528,2.474772555564341,0.26148476425776
-0.2125904577757954,2.381787133801074,0.2523984768891159
0.3881113326130263,2.371665921411081,0.2533084853227531
-0.2139330193750695,2.307807768942295,0.2474169816436059
0.3897638140472277,2.298131070646871,0.2495702628304821
-0.2154826715782658,2.199875360703338,0.2433776974400495
0.3916711913300546,2.190847187531299,0.2461703763909982
-0.2142499902750089,2.088123963454376,0.2386246333288714
0.3901539551980062,2.079767262269964,0.2414336900033618
-0.214161088963702,1.990958323424367,0.2340100442968819
0.3900445317149495,1.983185453914959,0.2368350015486958
-0.2150961485710646,1.881017137618459,0.2286887115403475
0.3911954425125424,1.87390486321902,0.2315320046097981
-0.2113204865035611,1.76252825833303,0.2300715586437016
0.3865481984145873,1.756127938909042,0.2329100868105484
-0.2096648378144298,1.659388948285392,0.2293589880341108
0.3845103561868424,1.653608354065963,0.2321999715190797
-0.2106157659976783,1.483466026901625,0.2286903379341492
0.3856807986968372,1.478742487149507,0.2315336253995035
-0.2107053766888771,1.300520840707964,0.2286903379341493
0.3857910953145792,1.296896549563237,0.2315336253995034
-0.2033051146141969,1.072168714426973,0.2286903379341521
0.3766825406730163,1.069916505062758,0.231533625399504
-0.2009591121023152,0.8221309416412026,0.2282278399998393
0.3737949818469797,0.8213811149263955,0.2310749718088403
-0.2092387502039727,0.5738754021077928,0.2233378735892472
0.3839859095871382,0.5746172492751297,0.226228594714411
-0.2126661567143771,0.297873462729453,0.2187932792405937
0.3882045060589678,0.3002737014282154,0.2217491576487214
-0.2145499303299739,0.05426416789724803,0.2218008633799663
0.390523134066559,0.05792786877521697,0.2247255053715478
-0.216875881058931,-0.1406996692687917,0.2260886982978713
0.3933860123125466,-0.1386774573834396,0.2289611084909548
-0.2171685863108148,-0.3656646486402546,0.2285876972252741
0.3937462862803926,-0.3645940299667127,0.2314313383616729
-0.2160115944598792,-0.4489740825192982,0.2275972168129284
0.3923222119182057,-0.4460500729954506,0.2304442708665513
-0.2151860329682555,-0.5222077900469966,0.2269419024789086
0.3913060760191482,-0.5131216112335159,0.2297912145616133
-0.2137892735193019,-0.6353854484828607,0.2217552459693006
0.3895868855859508,-0.6227581600320096,0.2246224298131324
-0.2122105095921128,-0.7527341546044677,0.2156279818299092
0.3876436763655488,-0.7394017620485716,0.2185162785044946
-0.2106160461573349,-0.8623709573650396,0.213334675278186
0.3856811435291351,-0.8483797986220636,0.2162308740428382
-0.2087599508974955,-0.9809710860132688,0.2173358045946002
0.3833965832090335,-0.9662673038393872,0.2202182165917557
-0.2069221285411735,-1.091563983072985,0.2223902441514535
0.3811345139491765,-1.076195689902069,0.2252552399699539
-0.2055858226929762,-1.167407381359521,0.2270259042329919
0.3794897323572147,-1.151583373820378,0.2298749268692521
-0.2027219205218377,-1.334147332700541,0.2290182214364727
0.3759647207899733,-1.317422809286838,0.2317920702924647
-0.2035529387443588,-1.520124126414936,0.2666801980679438
0.3769875730635237,-1.507757949663685,0.2671607660948137
-0.215248683231462,-1.517947752141335,0.3516441317268023
0.3913831886051503,-1.505424738567632,0.3536892369582936
0.2611689342239499,2.388189399462125,0.2514500524235306
-0.074488748297225,2.498824159777219,0.2568063940283368
-0.2225245017669594,-1.516618168388102,0.429177590941662
0.4003385728907046,-1.502422544860488,0.4327270965539576
-0.223960091125744,-1.513619983782795,0.4547585224190122
0.4021055568144302,-1.49833062318964,0.4587892906254998
-0.2234373851822681,-1.490015354855283,0.4757429608081971
0.4014621882959147,-1.473127679429593,0.4796619504890716
-0.2101444975921118,-1.446547039570028,0.5042767748691679
0.3851007416691559,-1.429050144666294,0.5077134832472812
-0.2041757813863041,-1.359355113415493,0.5448622798836977
0.3777541940534286,-1.342670109262729,0.548043513256304
-0.4311297505355333,1.461216979350655,0.2388327733479458
0.1007111851778874,1.491598975991114,0.2194166932366111
0.5994753978467969,1.455398795943334,0.2411780149493775
-0.5317371359372657,1.453502082385173,0.2424591939727487
0.8617799801220514,1.375489754463063,0.2625594965426768
-0.7464697312368742,1.455938704092838,0.2625019857208603
0.9629647136222567,1.374941775313276,0.3676543818572339
-0.8496030123384669,1.374941775313276,0.3676543818572339
0.2636313839890989,2.492478849080047,0.2585421484370559
-0.07695361644209348,2.731808334335233,0.2615438960089925
-0.3771171619143655,1.425366056192436,1.103201238017878
0.0958518819832524,1.45432380024045,1.112796701748721
0.5376293234641641,1.419822900088461,1.102042215156547
-0.4485638225883157,1.417605637646871,1.101161051718567
0.5832774693064938,1.492401453585422,1.069130861120653
-0.4715588964576071,1.414463809259806,1.091208596991863
-0.5747244600023364,1.463264708782177,1.017367813059274
0.688086161286126,1.463264708782177,1.017367813059274
-0.723949737699277,1.453862454684838,0.8558125193777755
0.8373114389830667,1.453862454684838,0.8558125193777757
-0.7977413139542927,1.454399671779452,0.7440176372584575
0.9111030152380825,1.454399671779452,0.7440176372584575
-0.8648070930841849,1.454749604099055,0.6501068626480401
0.9781687943679747,1.454749604099055,0.6501068626480402
-0.8929302690500273,1.454792555770024,0.5202048321510879
1.006291970333817,1.454792555770024,0.5202048321510879
-0.8917647192800444,1.454715284349406,0.4747957681816989
1.005126420563834,1.454715284349406,0.4747957681816989
0.2675202864584248,2.726703251271463,0.2646396414344866
-0.07567468166289644,2.885845556517472,0.291346284168417
-0.3614671602327133,0.9863368667120487,1.166233789105723
0.09443707131326612,0.9978532618016915,1.175633682236243
0.5204589260198946,0.984161685640087,1.165098388948128
-0.4311125869427384,0.9832916132113025,1.164222718231131
-0.4544988134681054,0.9801307883987152,1.154327836745566
0.5724304734843918,1.09817878568948,1.149580678478241
0.6726681920700337,1.0688370871212,1.096529870647443
-0.559306490786244,1.0688370871212,1.096529870647443
0.8179707999831061,1.059088798204987,0.9211410972024333
-0.7046090986993164,1.059088798204987,0.9211410972024334
0.8896730791838081,1.059319422936087,0.8065614286404785
-0.7763113779000181,1.059319422936087,0.8065614286404785
0.9546324994852493,1.059469647208398,0.7144525164940978
-0.8412707982014593,1.059469647208398,0.7144525164940978
0.9820223566009727,1.059488086155458,0.5845504859971458
-0.8686606553171828,1.059488086155458,0.5845504859971459
0.9807440843521451,1.059410717784677,0.5362472534787408
-0.8673823830683551,1.059410717784677,0.5362472534787408
-0.4177999798645202,1.06162044624962,0.2388327733479458
0.09950694088136178,1.076127638336389,0.2194166932366286
0.5847619134147939,1.058867733609647,0.2411780149493775
-0.5164465003602241,1.057766648553658,0.2424705798077118
0.831660566684399,0.939401887532016,0.262573874248131
-0.7263847274608577,1.057766648553658,0.262573874248131
-0.8149962362414492,0.9394273498827206,0.3684897593772651
0.9283579375252392,0.9394273498827206,0.3684897593772651
0.2655024695495781,2.883302577880535,0.2946303595768866
-0.07562617818036373,2.914234430717652,0.3240478924900665
0.2654259440310099,2.911758109682031,0.3273888002778727
-0.07597279187024619,2.93289636955706,0.4079936510765622
0.09707610718009303,0.2314240118642186,1.068392031663151
-0.3907247861531571,0.2491922230621894,1.061781103756591
0.5532104715321798,0.2526719843363944,1.060982578870955
-0.4696697409480556,0.2540638888460763,1.060078843780424
-0.5519643685390792,0.2513894111912355,1.047143031900149
0.6481895789663006,0.3260216316156269,1.069043506007056
0.7699182210293951,0.2864635187392865,1.022630394624691
-0.6565565197456054,0.2864635187392866,1.022630394624691
0.8731234743559583,0.2018582499123579,0.9094585925697056
-0.7597617730721684,0.2018582499123579,0.9094585925697056
0.9302725604350807,0.1220189664615743,0.825848779814365
-0.8169108591512908,0.1220189664615743,0.825848779814365
0.9942845771369321,0.07922539474803851,0.7411648287103229
-0.8809228758531422,0.0792253947480385,0.741164828710323
1.020845498988466,0.08009191376254413,0.6103210780930028
-0.9074837977046764,0.08009191376254413,0.6103210780930028
1.019617384445081,0.08029137445162071,0.5595037349930058
-0.9062556831612917,0.08029137445162071,0.5595037349930059
-0.4383134141408726,0.07153973023735667,0.2322335026644379
0.1013592389163529,0.0479674139413294,0.2122618733805722
0.6075073137397778,0.07615723082700462,0.2346458482860225
-0.5408840055108561,0.078281329839757,0.235977158828172
0.8784203651695777,-0.01140332168226435,0.2571691337798066
-0.7597181959071917,0.07873383543079472,0.254878895796897
-0.8681131332461521,-0.01138460682463613,0.3568600379204641
0.9814748345299418,-0.01138460682463613,0.3568600379204641
0.2659728076988627,2.930405794327037,0.4102170652289255
-0.07711828470944138,2.891147544932334,0.53567565502399
0.2677800889281579,2.888655587009115,0.5365611930214127
-0.07718792440990561,2.885214522864301,0.5854424317402767
-0.4286338312984955,0.5775028164208438,0.2336495120248723
0.1004843567697673,0.5727774273465711,0.2139095196288826
-0.5297395041830723,0.5788484327512065,0.2373465114825531
0.5968672721198343,0.5784639709425314,0.236033878545487
-0.744822711387422,0.5788484327512067,0.2571705704095339
0.8664796148124018,0.4496779185978784,0.2541369199693017
0.9675219593372163,0.4497033866749899,0.3546664590020198
-0.8541602580534264,0.4497033866749899,0.3546664590020198
0.2678899617437324,2.882732600878067,0.5861379407684744
-0.07325267836589167,2.89495271485569,0.7203185153920502
-0.3714432863003072,0.6004760151762952,1.148902977226367
0.09533640888348167,0.5966632842709467,1.157587786674457
0.5316820742237196,0.6012609327605125,1.147853951042861
-0.4435262274086946,0.6015748997941997,1.147034231474985
0.5744759831852688,0.6818826722145104,1.149414356653662
-0.4708295305731234,0.5984040772123422,1.13722007969459
0.6750871577221836,0.6490567648434701,1.097253500769287
-0.5617254564383939,0.6490567648434701,1.097253500769288
0.8174602583819391,0.6165650338876796,0.9331666233277854
-0.7040985570981493,0.6165650338876796,0.9331666233277856
0.9022953980076758,0.5930530797870057,0.8265714006835396
-0.7889336967238858,0.5930530797870057,0.8265714006835396
0.9773238682169081,0.5805790738964303,0.7373007973846797
-0.8639621669331181,0.5805790738964304,0.7373007973846797
1.003849433121855,0.5805703436771471,0.6065982365740072
-0.8904877318380646,0.5805703436771472,0.6065982365740071
1.002539295252605,0.5804928646290288,0.5566085701453137
-0.889177593968815,0.5804928646290288,0.5566085701453138
0.2616811963419326,2.892494342619462,0.7205207937209545
-0.06706400100691021,2.917405694427317,0.7870583381990255
-0.439446686991516,-1.467039680602726,0.3590472784088
0.101474340725,-1.550391764142789,0.3451192422686545
0.6073649604532054,-1.454490231671355,0.360772577840434
-0.5330068780505329,-1.44289079043669,0.3617519712415926
0.2519171192195392,2.914960139661694,0.7868746366356674
-0.7327052272459486,-1.317426953963525,0.3648705337665632
-0.06609404265961971,2.911896094456976,0.8153834575603656
0.2503867844550827,2.909474523392849,0.8150759833869283
-0.06253386628911092,2.903482704755549,0.8471553902208465
0.2447697786500344,2.90105456361359,0.8467170489987651
-0.05713337099232649,2.817362076091465,0.8792618896853973
0.2362492419475676,2.813374533519277,0.8785347861466624
-0.05720101978636764,2.597671575475504,0.9075255982497726
0.2363559736454636,2.591085678264444,0.9062141881352437
-0.05830744863332499,2.429163962438089,0.9327686483384999
0.2381016223463859,2.423124064896602,0.9310046351855383
-0.05884812174200144,2.310799187341624,0.9406355407551402
0.2389546598574558,2.305197455392859,0.9387959583548602
0.8171918289203494,2.81215113359317,0.3717262333964647
-0.05900354676790133,2.194649051471123,0.9390202784321093
0.9039952442032637,2.749126249675563,0.3732646136288923
-0.7906335429194739,2.749126249675563,0.3732646136288922
0.9550904086311204,2.549353359354202,0.36965179749115
-0.8417287073473306,2.549353359354202,0.36965179749115
0.9706654932586192,2.328677653876984,0.3599499866320738
-0.8573037919748293,2.328677653876984,0.3599499866320738
0.9749854762890832,2.19891380400937,0.3556937299272672
-0.8616237750052933,2.19891380400937,0.3556937299272672
0.9894083467702315,2.086494200611193,0.3560112427457812
-0.8760466454864417,2.086494200611193,0.3560112427457812
0.9807723095958194,1.986493767867394,0.3580039458721518
-0.8674106083120295,1.986493767867394,0.3580039458721519
0.9791573419156833,1.893618732106394,0.3579209442744721
-0.8657956406318934,1.893618732106394,0.3579209442744722
0.9862796467983005,1.751807224224053,0.3614012011452908
-0.8729179455145107,1.751807224224053,0.3614012011452908
0.9685471266683197,1.537126465404294,0.367034988063134
-0.8551854253845297,1.537126465404294,0.3670349880631339
-0.8390463099239861,1.170057366844804,0.3681951482797135
0.952408011207776,1.170057366844804,0.3681951482797135
0.9422536970172737,0.6980086840274462,0.3652706325842844
-0.8288919957334837,0.6980086840274463,0.3652706325842845
-0.8569897701827486,0.1871568584603567,0.3492772067891037
0.9703514714665384,0.1871568584603567,0.3492772067891037
1.00100555416877,-0.2276386719164857,0.3671170384817901
-0.8876438528849806,-0.2276386719164857,0.3671170384817901
0.9970951972305266,-0.3089403591511101,0.3690809510168649
-0.8837334959467367,-0.3089403591511102,0.3690809510168649
0.9906620322550168,-0.3966682777291737,0.3689648441918163
-0.8773003309712271,-0.3966682777291738,0.3689648441918163
0.9839747913570071,-0.5112039186574803,0.3688217319516796
-0.8706130900732172,-0.5112039186574803,0.3688217319516796
0.9772631705736787,-0.6192371321417576,0.3686469446524139
-0.8639014692898889,-0.6192371321417576,0.3686469446524139
-0.4131673844234713,-0.09163369102435012,0.9260368305821054
0.09909993351249917,-0.1202191269397493,0.9293396297175645
0.5783873133005186,-0.08606509230699692,0.9256378900189914
-0.4993143668300294,-0.08383765282005565,0.9252535700243574
0.7180638363862495,-0.002998208954028424,0.9550866466083015
-0.6255723078700766,-0.087534104920602,0.9187907928230124
0.8645646703516157,-0.01553588415506294,0.9203721734202527
-0.7512029690678259,-0.01553588415506293,0.9203721734202526
0.8795623368953272,0.05068385907637712,0.9088250514916338
-0.7662006356115375,0.05068385907637713,0.9088250514916338
0.8536256393441448,0.4042714031432955,0.9211814838822785
-0.740263938060355,0.4042714031432956,0.9211814838822785
-0.4086732404407055,2.857268409927987,0.8138994787320497
0.09869770391146551,2.913935933910229,0.815642462121134
0.5730123182793155,2.844112871841396,0.8136889461667203
-0.49385468790308,2.836699800234483,0.8133911517749943
0.7556530470215227,2.792947019949568,0.7981080393231511
-0.633582034681231,2.788631935281526,0.8107216164382963
0.8302364231047855,2.648778564452504,0.8207089578754133
-0.7168747218209957,2.648778564452504,0.8207089578754132
0.8474696532131102,2.42458254902406,0.8357483961802347
-0.7341079519293204,2.42458254902406,0.8357483961802346
0.8620653492236842,2.257064440900301,0.8356881394164479
-0.7487036479398944,2.257064440900301,0.8356881394164479
0.8666226454504167,2.138686471366589,0.8295536468511628
-0.7532609441666267,2.138686471366589,0.8295536468511628
0.861626442553037,2.03266375671248,0.8169047847675199
-0.7482647412692473,2.03266375671248,0.81690478476752
0.8568978309596415,1.941152194198403,0.8052354897091366
-0.7435361296758516,1.941152194198403,0.8052354897091366
0.8530640028944533,1.834507795914562,0.8076912416997808
-0.7397023016106636,1.834507795914562,0.8076912416997807
0.8399474915385878,1.646114422215283,0.828714741459853
-0.7265857902547979,1.646114422215283,0.828714741459853
-0.7247458900791778,1.278270233128611,0.892165712942631
0.8381075913629676,1.278270233128611,0.8921657129426309
0.8104674680721022,0.8220044504523544,0.9327064472255437
-0.6971057667883125,0.8220044504523544,0.9327064472255437
-0.8750824497082057,0.187513456298519,0.4037341487806129
-0.7543570328342119,0.3135782533263969,0.2522955963046197
-0.5369988733768627,0.3135782533263968,0.2331138345901124
-0.4348822178251606,0.3093527100144384,0.2293373435361596
0.1010489350167096,0.2939744994624127,0.2091524087833796
0.6037551198332717,0.3123709552372659,0.2317754540318394
0.8689952800574547,0.1871313871862022,0.2526667278813901
0.9930959327760902,0.0790956489720023,0.409305328087231
1.005130769774599,0.3147184170645458,0.4932407772685324
1.0138082674161,0.3152228864524517,0.548818081790491
1.015134798661406,0.3152637079050535,0.599414890145514
0.9889696024219997,0.3151923440804192,0.7311150889285033
0.9235901557413317,0.3460764590637033,0.8212843798296712
0.7167889419260444,0.4698634113272415,1.064791272840949
0.6012677950805722,0.5075915268139407,1.116020109179056
0.5496615298876058,0.4167376951198942,1.104350197711328
0.09679288244462705,0.4033263085502085,1.113115266475428
-0.3875817287482344,0.4145262799807202,1.105294818822864
-0.4637131824035651,0.4176222611755638,1.103489888521697
-0.5108202586877161,0.4144496301179105,1.092158954810639
-0.6034272406422545,0.4698634113272414,1.064791272840949
-0.8102284544575419,0.3460764590637033,0.8212843798296713
-0.87560790113821,0.3151923440804192,0.7311150889285032
-0.9017730973776167,0.3152637079050534,0.5994148901455141
-0.9004465661323109,0.3152228864524517,0.548818081790491
-0.8917690684908095,0.3147184170645458,0.4932407772685324
0.6044396068918092,-0.7300108053998035,0.7431419395251551
0.6010636216170953,-0.8353876766392367,0.7126664525518568
0.5970716669599456,-0.9605096691556664,0.6687322170142653
0.5926989869217249,-1.080249412239781,0.6271021164860031
0.5880084722031941,-1.186958001571131,0.5986545769189644
0.5846961698537121,-1.255985866777582,0.5721851146312044
0.5912462866511405,-1.345946788636514,0.53043968563692
0.6226287233017421,-1.393905205525364,0.5056513068939248
0.6250501315536633,-1.433235585267088,0.4833614537519114
0.2391998789651274,2.189446140739227,0.9371955322032552
0.6232837048870521,-1.439879390764051,0.4641420498183819
0.5836929867152693,-1.456799476890716,0.2687908458222103
0.5823640921625158,-1.240559799630779,0.2412009250936949
0.5883788987339821,-1.079293878220641,0.235998188330297
0.5911804755412297,-1.006173382702182,0.2196151391172473
0.5950334860599363,-0.899550952582725,0.2020547837340863
0.5989248058794401,-0.7852087636614388,0.1917474416002231
0.6022676123072532,-0.6795081024829212,0.1929093111494372
0.6055775045811656,-0.5683538105297312,0.2024549443672261
0.6085058228870315,-0.4740420316873109,0.2167243101824682
0.6102366197184959,-0.4255134359096856,0.230361828534896
0.6126622631743766,-0.357027520350192,0.2402685059773728
0.612178877685773,-0.1305962365557481,0.2387042819078911
0.580066538657414,0.8178067282027617,0.2407324013162184
0.5997190274054045,1.279021642896225,0.2411780149493775
0.5974817686584336,1.625005795039517,0.2389074538930853
0.6007806069640715,1.724442234182494,0.2236302177121313
0.6083518281761107,1.83867716777613,0.2100320936129271
0.6063570188870209,1.94467128414792,0.2090955973791704
0.6064418676228882,2.038348517854144,0.212598665169648
0.6088231274028602,2.146087856100199,0.2206777069515036
0.6055539613839759,2.250145313324321,0.2311699166544957
0.6027392693403085,2.321468697281596,0.2448113136186038
0.6091285981549514,2.421195257555928,0.2653989741918415
0.6190471818264018,2.655333695155865,0.279905903230865
0.6133948510161628,2.82572271659125,0.3133889207090131
0.6146514634028978,2.867502634902078,0.4210803053669958
0.6195025171067307,2.823552645674124,0.5405559160535988
0.6197973581276518,2.817744798170154,0.5892754300034302
0.6032145295299997,2.827376880242233,0.7214332852253542
0.577121616616245,2.849358872987949,0.7860459462031536
0.5577519563743921,2.835866323633145,0.8447396614888059
0.5342684577552666,2.743815595432165,0.8752547718939628
0.5344615779965694,2.516247790692939,0.9002983265863631
0.5390777178242314,2.354879730498827,0.9230470500885997
0.5414123891781275,2.241757338859754,0.9304974751669743
0.5421908984629519,2.130581553864814,0.9289639760087785
0.5398926048043048,2.030777703577167,0.9313711485819072
0.541968805157736,1.938081473351981,0.9492026177218345
0.5397066135814127,1.79655868845376,0.991556650248214
0.5355548878333629,1.58204442753906,1.056450877661368
0.5327805990503808,1.214876611681074,1.148141803625138
0.5217137505152795,0.7677295550105501,1.163405176415966
0.5603633549415003,0.09639176958104911,1.001603821501224
0.5812734967575256,-0.244030501272832,0.850472831937767
0.5892588979308072,-0.3969448777190889,0.8110236886905755
0.608248208416367,-0.4940463701216731,0.7959227405434766
0.6074803142374374,-0.6184664569418139,0.7727546823538214
-0.4368393068150955,-0.7360068748748398,0.742076901462479
-0.4338909272185815,-0.8430276909715558,0.7121569984557667
-0.4304045975389159,-0.9683598659681058,0.6690134292612213
-0.4265857655364964,-1.090076078863745,0.6272743979708837
-0.4225736486106461,-1.199194395664548,0.5964704829673215
-0.4197410331561347,-1.270594454877882,0.5689864227012167
-0.4279811345098639,-1.368681362074452,0.5236523006493328
-0.4536838062719993,-1.41429365554124,0.4987253413476658
-0.4553334868848322,-1.449180411501154,0.477250691993225
-0.05842926601345708,2.090379666084389,0.9413009755461234
-0.4529248456562759,-1.456692065515377,0.4448794369545424
-0.4181093282484821,-1.469365510554687,0.2683944567329292
-0.4166253413854457,-1.259640257951177,0.2389129588530566
-0.4218700043084422,-1.097232797799974,0.236866926802726
-0.4243167305896332,-1.023547028176162,0.2312139233711129
-0.4276817149346763,-0.9161003298625532,0.2250777547306789
-0.4310801562860852,-0.8008741934503698,0.2205470081579524
-0.4339995595016977,-0.6943563900156438,0.2227124239312971
-0.4368902175031281,-0.5805262025797783,0.2290835659924541
-0.4394476320777058,-0.4811426489230745,0.2350393077624838
-0.4409592044479477,-0.4304565908759676,0.236867669297793
-0.4430776134728039,-0.3599086090886778,0.2386579013660377
-0.4425535241044292,-0.1336464934809805,0.2363350188758247
-0.4135248129167186,0.8186958656139163,0.2383839887675056
-0.4312988934644033,1.283476303850824,0.2388327733479458
-0.4293886364181195,1.632135162732394,0.2392269237014916
-0.4324044090540804,1.732340317182584,0.2384780973600191
-0.4392861887919777,1.847458369106168,0.2359998651670053
-0.4375709977457993,1.95427189635421,0.240694218718324
-0.4377245424081563,2.048673322560772,0.2451573892519217
-0.4399630753427887,2.157245563505404,0.2501609323150066
-0.4371238737585914,2.262107459835426,0.2527613110459652
-0.4346656934299694,2.333982224931071,0.2545915318272553
-0.4405655607518431,2.43454982149718,0.2650952769256216
-0.4498674812715294,2.669038842388019,0.2775113905847448
-0.4449950438059156,2.837202171593398,0.3103073016866412
-0.4461252360998261,2.880120435160633,0.41938190897738
-0.450470062201369,2.836634676954167,0.539949573790017
-0.4507341969125289,2.830805201774841,0.5887992036644911
-0.4358154116533103,2.840470980634115,0.7212947819649674
-0.412352415503772,2.862558590099972,0.7861717296501117
-0.3951529108565207,2.848983475563363,0.8450398008499276
-0.3746132460118469,2.75743787634066,0.8757526315078853
-0.3748613484022544,2.530288548233276,0.9011962704121679
-0.3790516892380113,2.367674254821018,0.9242548985730643
-0.3811065373689713,2.253654640285659,0.9317570671436534
-0.3817069969351755,2.141619386383205,0.9302134094176782
-0.3795409215497948,2.041043980435517,0.9326048681968708
-0.3813382596952774,1.947631141573606,0.9504209908236461
-0.3791829082429666,1.805014283597061,0.9927553806816718
-0.3753126640326202,1.588841672912377,1.057626767946199
-0.3726644404656361,1.218835385335181,1.149285071427528
-0.3625194191342812,0.7682315597980242,1.164519391922136
-0.3970911462467605,0.09181782223241627,1.002252563631228
-0.4156729907928182,-0.2499231989653826,0.8506218820969643
-0.4229331855937233,-0.4028926394770928,0.8111161242668743
-0.4401065783199673,-0.5012332191320499,0.7955348546144538
-0.4394948751210266,-0.6243161065169233,0.7714694625247458
0.856349476942283,1.54710233295297,0.2569490633212532
0.8348928879726439,-1.168753860406129,0.2625595076612186
0.8315846481642527,-1.035429615579592,0.254445475695387
0.8042692837596418,-0.8842390242766076,0.07983629008872251
0.7949109358202496,-0.9672419043357714,0.1754242240551364
0.8112690036063217,-0.76783920283442,0.006067025940582657
0.8353025459983153,2.343064813900098,0.2311339852519785
0.8120315662557465,2.285755877121914,0.121427574852133
0.8248778565652023,2.196563074937711,0.03852384954407956
0.8282153656622885,2.086468783572482,-0.009121206758202931
0.8248543496620852,1.986468340879058,-0.02089669215442374
0.8283382502496368,1.891157763561048,-0.001100954775551629
0.8269798986825933,1.775401904040532,0.0614129500814754
0.853591307718417,-0.3289486943667909,0.2207103659560502
0.8245212771297326,-0.3704361950096662,0.1253070876955898
0.8185224195903906,1.684646077050786,0.1677015406474643
0.828214559171327,-0.4495477228116624,0.04289347026920545
0.8227876778069533,-0.5527980285196623,-0.007901492039434251
0.8172452482885304,-0.6596542608429666,-0.0197675513139913
0.8400320461665061,2.724961015609608,0.3044906746235601
0.8705580821233312,2.51531422927917,0.2899721235829076
0.8530432631271067,1.170031907215766,0.2625738742481309
0.8440144411835056,0.6979832188434729,0.2602514286338614
0.8902107135765938,-0.2347688115615291,0.2615989157188824
0.09912049650091623,0.8235523727736698,0.2189416566204123
0.09954776361793154,-1.551504306674391,0.2651127810591449
0.09941087445410174,-1.368694790290389,0.2199710571772927
0.1001027521386768,-1.123913610114206,0.213045795654973
0.09988262966096553,-1.200526700408422,0.217733553745802
0.1004054867343627,-1.012198367921016,0.2079345516227355
0.1010364655375458,2.399036638740228,0.2494304003269863
0.1012576184914978,2.324306498901016,0.2403938561579472
0.1015128843672091,2.215278745333822,0.2342691170868612
0.1013098314036474,2.102393245984307,0.2294626355175717
0.1012951871686147,2.004241526503194,0.2247961852839339
0.1014492145103778,1.893184609414919,0.2194150485645312
0.1008272699978844,1.773493253111788,0.2208134368378532
0.1016000109897453,-0.4475688051671172,0.218311287039839
0.1014640206839445,-0.5397014676027787,0.2176486079354024
0.1005545438909362,1.669307240194629,0.2200928579814143
0.1012339400096474,-0.6631055760543627,0.2124036610260982
0.1009738787161622,-0.7816451882172861,0.2062075354390499
0.1007112313272005,-0.892394633247836,0.203888455490672
0.1024141406022907,2.736108662332983,0.2589361576899752
0.1015705967767336,2.504169208409067,0.2553442604669839
0.1007259462652632,1.306797181960285,0.2194166932366124
0.1017423802744709,-0.147712353652215,0.2167200671338383
0.1017905960368134,-0.3667301412248898,0.2193128989969604
-0.5115547389651936,0.8174510732382999,0.2420266173499698
-0.5116267566009035,-1.443200089136388,0.2693010337550745
-0.5106067036498657,-1.22484451511439,0.2424543006203785
-0.5169668621734804,-0.9956708468956637,0.1772669521435875
-0.5149104181137916,-1.067878950218317,0.2270939617832208
-0.5214275988182481,-0.8893798745130599,0.1240652181186709
-0.529742070249176,2.316430806645088,0.212410654831576
-0.5328019955014999,2.245362269365926,0.1592638884960528
-0.5366840659117984,2.141624773138117,0.1227312786363757
-0.5344696007949832,2.034218595971493,0.1050293689620442
-0.5346538119470177,1.940831039265404,0.1044868460680017
-0.5370781337558923,1.835164156260021,0.1229420020299858
-0.5293715199631607,1.721296247732228,0.1711775353829395
-0.5394099954094676,-0.420050323409383,0.2038580805082045
-0.5371561866469179,-0.4760118565078423,0.1534836100474103
-0.5278870588487327,1.622361794448941,0.23162271719072
-0.5337434158494292,-0.5643199152231173,0.1132545199148695
-0.5298777869738943,-0.6700164179948963,0.09376757199759769
-0.5259737176014475,-0.7753902222709305,0.09571825634416678
-0.5483059272440222,2.648562013259572,0.2811343142023445
-0.5383281454375037,2.415289096064991,0.2633261095042218
-0.5324624039363421,1.277239778514386,0.2424705798077118
-0.5461711685623517,-0.1252533280893876,0.2400124239811331
-0.5451213404856753,-0.3498210733826276,0.2392086711319811
-0.7200641355130848,0.8174510732382997,0.262109385125277
-0.7160245662148409,-1.315209733948507,0.2852168742515543
-0.7222503701881626,-1.104083732485295,0.2624712306185983
-0.6807565574807023,-0.9351953534814965,0.127844515938613
-0.702427855416774,-0.9893850959543646,0.2231053262787912
-0.6944812461663439,-0.8265129581668567,0.03670808745710699
-0.6996150588907839,2.312819150250544,0.1727511556029265
-0.7082272342782453,2.246630840053795,0.07707285992212497
-0.7145862855448029,2.141624773138117,0.009746392500959758
-0.7127039957688139,2.034218595971493,-0.01880525938955554
-0.7125090222816706,1.940874871472198,-0.01547354174324164
-0.7166105420726465,1.835270786670565,0.02389212367516257
-0.7016314683825986,1.722080244508622,0.1090989559905646
-0.7149975524551805,-0.349773173157772,0.1711254842430225
-0.7170483142285652,-0.4028057029380515,0.08232773019234674
-0.7290020959887218,1.636737140864494,0.2260940753422056
-0.7122114470059592,-0.4998708332078886,0.0124199282867883
-0.7066489634771808,-0.6067718250161928,-0.01816842668450727
-0.7010343146415974,-0.7121565740985166,-0.01237032176764347
-0.7530293230221167,2.630557026589516,0.2951328602471338
-0.7447363073560541,2.409473941821641,0.2734995966097121
-0.7478812509483922,1.277239778514386,0.2625738742481309
-0.7726353552353474,-0.1174415585987383,0.2594440088746067
-0.7655312949559475,-0.3026531317880898,0.2540355189176584
0.8988647786986642,-1.249881796715822,0.5379901311685627
0.8675402529893656,-1.297079004997955,0.4914594470260749
0.2382938175805955,2.085534781994912,0.9394991786685631
0.835556729780182,-1.316388143744262,0.309122335868228
0.8871072980254788,-1.290200091212422,0.4000624532131658
0.1006335556673371,-1.482491830283155,0.502836164783486
0.1028232215707149,-1.526254112928069,0.4739862634491759
0.1029093241104497,-1.549790892638577,0.452756020474879
-0.05890127312349065,1.993535917818242,0.9590089253561485
0.1026728471938383,-1.551351675686606,0.4245066152565386
-0.5143290493239398,-1.332355743245601,0.5341404583513283
-0.5459887501495693,-1.382319358918332,0.5083969569483765
-0.546424150049926,-1.422074834924186,0.4863786169527567
0.239038518517056,1.989023563185074,0.9572295414313806
-0.5449908957333594,-1.430009591082613,0.4653629564758379
-0.7445643261172714,-1.238312592651228,0.5588765825672704
-0.7858241345640196,-1.264218474529359,0.5193920859512212
-0.05832917604293652,1.845680962753623,1.00120486013041
0.2381359023856916,1.841676293218348,0.9994541635168246
-0.7546355239183369,-1.300106668621001,0.4737706489775781
0.673463363963462,2.761461009517175,0.8571913818197942
0.7317654711830015,2.782829124209903,0.8253336833902234
0.7783058690987038,2.789243177634375,0.7600496131991115
0.8216337877367058,2.764661348427767,0.6564769275686408
0.8262278439222219,2.767483805598559,0.5556799969109576
-0.05730428430621645,1.621568665704972,1.065915254263343
0.8231290787663967,2.789350622256171,0.4984120452206878
0.09747931630671594,2.905528078592728,0.8475246322109061
0.09902964960866512,2.919465736839413,0.7872130814159863
0.1011475805759165,2.897023554218005,0.7201481238136449
0.1024943270577435,2.887305199641214,0.5848565613618155
0.1024704944890688,2.893246675601233,0.5349297114622851
0.1019764549036521,2.887987665096999,0.288579903827617
0.1020784761924007,2.934994335497747,0.4061207314765152
-0.4760783431373024,2.828472292427696,0.8443881655679983
-0.4987935653470741,2.84192773483761,0.7857996808555472
-0.52702468624725,2.819980978714713,0.7213477111234462
-0.5448232641549461,2.810357932358417,0.5893951978301381
-0.54450302281542,2.816157128792244,0.5407516132451585
-0.538645160000769,2.818924421766611,0.314940907014366
-0.5392303762053292,2.860292810428793,0.4218455338732487
-0.5949003973267384,2.776892773208622,0.8418688655710536
-0.6495612068204559,2.79507295903597,0.7830122457717362
-0.6899339523610933,2.774418924326461,0.7203931921191816
-0.7128622466973853,2.765331060845708,0.5903809429745675
-0.7124543576455281,2.770766975489602,0.54205129030203
-0.7066532244933371,2.774850686231695,0.323051827030256
-0.7057293741317466,2.811799414054464,0.4237531514625319
-0.8567679048492427,1.170413801651337,0.4144428728539097
-0.8841449911083552,1.27837943428159,0.4727750624905367
-0.8927306872244573,1.278883678915995,0.5092136061790238
-0.8940431480539709,1.278960994050806,0.5562436403133403
-0.8658938096276275,1.278929095006368,0.6861456708102923
-0.7989325198043721,1.278669209736213,0.7786066178449644
-0.5748206613303096,1.28782851205754,1.063638016819468
-0.4672926818252879,1.210142223903486,1.137267628956734
-0.4437683560254363,1.21329310221943,1.147261206955635
0.09544900766651002,1.239588268323067,1.158750100201789
0.5853577497821204,1.317057669169978,1.116601285776036
0.6881823626140994,1.28782851205754,1.063638016819468
0.9122942210881618,1.278669209736213,0.7786066178449643
0.9792555109114174,1.278929095006368,0.6861456708102923
1.007404849337761,1.278960994050806,0.5562436403133402
1.006092388508247,1.278883678915995,0.5092136061790238
0.997506692392145,1.27837943428159,0.4727750624905367
0.9548800837915303,1.058148562908619,0.4170013376484372
0.614025109173566,2.610635168881275,0.8808375025351976
0.5868374419453792,2.41882531315098,0.9059702951327673
0.588767775921656,2.289158922865935,0.9198383081420773
0.5891386663189351,2.177250533569421,0.9207707805270334
0.5881207343975693,2.070728144341739,0.9187000125383479
0.5888946533677729,1.978680211765809,0.928212949854748
0.5899946950031823,1.872302730092732,0.9550291008970651
0.582688832109958,1.684347416903006,1.014178112749631
0.5685865592044346,0.8635067225488542,1.153996940378323
0.7514044367830136,-0.1591063609811325,0.882273243798044
0.676321415947014,0.1802014251914487,1.022675076051274
0.8051012914348374,-1.143998175354611,0.6045358571904562
0.7663392847429551,-1.04316117643058,0.6297177034554446
0.7768324314076154,-0.8087537342666327,0.7070101821917815
0.7689460012993871,-0.9373832199410142,0.6627130328399971
0.7613539597789171,-0.2848613650811728,0.8256358883193971
0.784921154527368,-0.3725487580598186,0.8081771851839429
0.7941684936880449,-0.4819031287668735,0.7907920471795499
0.7890904544711325,-0.5975182781297306,0.768280783893557
0.7837043260880769,-0.6918081464910921,0.7425574096128219
0.8464922365242278,-1.236406365474078,0.5620609751206881
0.09563112232857041,2.820721030441708,0.8798743740790549
0.09565427355580138,2.603219285045211,0.9086302803012881
0.09603292310918785,2.434251742632211,0.9342545859922701
0.09621795591241907,2.315517873489187,0.9421851350714861
0.09627114651460185,2.199031785779396,0.9405573753213687
0.09607461227583292,2.094460812352839,0.942818740773847
0.09623614573720365,1.997336953907645,0.9605078107640532
0.09604035881006301,1.849054344206805,1.002679580437391
0.09568961343728488,1.624293826320208,1.0673618758168
0.09765011271520684,0.0683832741500563,1.007623451287435
0.09453128292091145,0.7710832673026038,1.173743898905255
0.09996795729680101,-1.287326492420836,0.5849093386688544
0.10031674412716,-1.162669290686535,0.626526540225634
0.1009739612020341,-0.9047062033804475,0.7090775356151424
0.1006603096370406,-1.032181341975514,0.6685200398357538
0.09932519630188784,-0.2773146955851101,0.8518558572365169
0.09998135986907095,-0.4204227578842799,0.8118813915015507
0.1015325432519768,-0.5333173093058238,0.7957376542065979
0.1014781266686552,-0.6746714301172745,0.7704993572519148
0.1012392154836458,-0.790327162352263,0.739963644645804
0.09965036113761921,-1.394281799412982,0.5428248947739287
-0.4471623239812814,2.736898861752302,0.8748117066052615
-0.4437453271349564,2.510498673805255,0.8996870577069234
-0.4478436283419547,2.349761920769951,0.9222785096917616
-0.4504020214726582,2.236998418289392,0.9296792471373323
-0.4514630456260805,2.126166420857457,0.9281264290140089
-0.4495262767562253,2.026671192833827,0.9305189015475318
-0.4520282060894993,1.934261606063332,0.948336933671812
-0.4500543989207189,1.79317645039644,0.9906821381479436
-0.446114357239242,1.579325529389732,1.055571264217063
-0.4784204047306966,0.09822134852050224,1.001009722571244
-0.4327515720303432,0.7675287530955604,1.162546850773182
-0.5095027128131668,-1.177510788595319,0.6004744357489675
-0.5135791602303007,-1.07185071836084,0.6279529436400176
-0.5233889527351137,-0.8275910996504599,0.7135599943868515
-0.5187080553009931,-0.9528799314951795,0.6695080824063768
-0.5035045423932339,-0.2408017448589656,0.8503416265586891
-0.5119180214743641,-0.3907431155535152,0.8111723225078003
-0.5319941779556978,-0.4866621627440848,0.7963643316088134
-0.5308872038370807,-0.6120720403461859,0.7733565801440191
-0.5273338641209142,-0.7231942038011199,0.7437685979699733
-0.5078364674351066,-1.246375832818744,0.5745628548784771
-0.5278908381055507,2.707370566745004,0.869517340175939
-0.479155718498435,2.507024432264497,0.8934941503310266
-0.4740575419479253,2.347592675736885,0.9150915987932382
-0.476097175723575,2.233633996029423,0.9213452549857403
-0.4751618452406016,2.122363870678786,0.9192967353651127
-0.4748665595343257,2.023496293333862,0.9213525475243208
-0.4765572350465915,1.931150749083297,0.9388265031154789
-0.4733483744130311,1.790054954961209,0.9809472467947601
-0.4686871502975512,1.576191054204326,1.045715549752531
-0.5797482079232348,0.09365363607259548,0.9914255530477181
-0.4573565163000794,0.7643601353044656,1.152776260210736
-0.669107084537373,-1.095340130319368,0.6169257595658522
-0.6517473293496466,-0.9929424721641108,0.6440451918694844
-0.6671335172678142,-0.7454952923496165,0.7262685105874029
-0.6595556510431813,-0.8745842654950299,0.6850836650924123
-0.6446423552607784,-0.2268583869994271,0.8483488304112397
-0.6569582083807439,-0.3310272049301061,0.8141256577417048
-0.6804542056093411,-0.422253478498224,0.8011170810635383
-0.6782876549550534,-0.5421937798809562,0.7795688767126687
-0.6731235656256038,-0.6459662450765241,0.7562274040028483
-0.7028167404809849,-1.178343773996956,0.5929046138719272
0.7486648444570647,2.605494755897577,0.856955777338717
0.744086479256781,2.407212681979672,0.8803459141147394
0.755554111401784,2.263715593971428,0.8870977501724195
0.753845462579904,2.143076665668028,0.8844908157745631
0.744679938680328,2.039250126963984,0.8809801902112956
0.7305835316568273,1.949911086978771,0.8875617165453763
0.7131412017228458,1.843439988776421,0.9109964292037028
0.6959894242720535,1.655324388251084,0.9657957760365263
0.6676153310203057,0.8337789847619415,1.102346631482118
0.9107410353350439,-0.1538847063075496,0.8612223878793456
0.8056112483004119,0.1457673153441372,0.9807284900141513
0.94069291277854,-1.071512883168481,0.6146035300445876
0.9012832107246226,-0.9892171762795555,0.639956952108766
0.9225224644700768,-0.7765583138326789,0.7116713008877755
0.9109922930721408,-0.9008570170538741,0.6713613905214875
0.9350746102157413,-0.2680745502239957,0.8206835356712019
0.9487229841404996,-0.3409382794338309,0.8046507459816743
0.9483533490962678,-0.4475774255094045,0.7905376985108719
0.942247452031123,-0.5597026460015619,0.7707892684637095
0.935388377852493,-0.6597230206786161,0.7441108039389044
0.9283795193143134,-1.231289152612847,0.542149415219066
0.8666346459017859,2.666078118096263,0.7879463875320412
