-0.6234953999519348,-3.198687314987183,0.3296557068824768
-2.194883584976196,-3.198687314987183,0.3296557068824768
-0.7121025919914246,-3.197211503982544,0.5139272809028626
-2.106276273727417,-3.197211503982544,0.5139272809028626
-0.4605922400951386,-3.183284759521484,0.949600100517273
-2.357786655426025,-3.183284759521484,0.949600100517273
-0.5989702343940735,-3.194033622741699,0.9495249390602112
-2.219408750534058,-3.194033622741699,0.9495249390602112
-0.449602335691452,-3.18390965461731,0.8747528195381165
-2.368776559829712,-3.18390965461731,0.8747528195381165
-0.447847455739975,-3.184347629547119,0.7939346432685852
-2.370531320571899,-3.184347629547119,0.7939346432685852
-0.5782544016838074,-3.193681001663208,0.7939346432685852
-2.240124464035034,-3.193681001663208,0.7939346432685852
-0.4499945342540741,-3.184606313705444,0.7310819029808044
-2.36838436126709,-3.184606313705444,0.7310819029808044
-0.450710266828537,-3.1846923828125,0.7101309895515442
-2.367668628692627,-3.1846923828125,0.7101309895515442
-0.5806154608726502,-3.193068981170654,0.7101309895515442
-2.237763404846191,-3.193068981170654,0.7101309895515442
-0.454614132642746,-3.192116498947144,0.1711878478527069
-2.363764762878418,-3.192116498947144,0.1711878478527069
-0.4534208476543427,-3.195096731185913,0.0387309156358242
-2.364958047866821,-3.195096731185913,0.0387309156358242
-0.5838353037834168,-3.200493097305298,0.1711878478527069
-2.234543561935425,-3.200493097305298,0.1711878478527069
-2.531877517700195,-3.160309553146362,0.1711878478527069
-0.2865012586116791,-3.160309553146362,0.1711878478527069
-0.4512566030025482,-3.185059547424316,0.6599240899085999
-2.367122411727905,-3.185059547424316,0.6599240899085999
-0.4528954923152924,-3.186160802841187,0.5093034505844116
-2.365483283996582,-3.186160802841187,0.5093034505844116
-0.4541967809200287,-3.188635349273682,0.3296557068824768
-2.364181995391846,-3.188635349273682,0.3296557068824768
-0.5824177861213684,-3.194537401199341,0.5093034505844116
-2.235961198806763,-3.194537401199341,0.5093034505844116
-2.412867546081543,5.45665979385376,1.207348942756653
-0.4055112302303314,5.45665979385376,1.207348942756653
-0.5436144471168518,5.453982353210449,1.248158693313599
-2.2747642993927,5.453982353210449,1.248158693313599
-0.2279283702373505,5.404206275939941,1.152589797973633
-2.590450525283814,5.404206275939941,1.152589797973633
-2.394174814224243,5.470756053924561,0.02389523759484291
-0.4242040812969208,5.470756053924561,0.02389523759484291
-0.551953136920929,5.47861385345459,0.03282049298286438
-2.266425609588623,5.47861385345459,0.03282049298286438
-1.608629941940308,5.495361328125,1.347891211509705
-1.209748983383179,5.495361328125,1.347891211509705
-1.603564262390137,5.499166965484619,1.400798678398132
-1.21481454372406,5.499166965484619,1.400798678398132
-1.786383628845215,5.488120079040527,1.388261795043945
-1.031995177268982,5.488120079040527,1.388261795043945
-1.409189462661743,5.505039691925049,1.407463312149048
-1.611634135246277,5.499555110931397,1.218155860900879
-1.20674467086792,5.499555110931397,1.218155860900879
-1.612266063690186,5.497860908508301,1.256834149360657
-1.206112861633301,5.497860908508301,1.256834149360657
-1.802043676376343,5.489432334899902,1.205609202384949
-1.016335129737854,5.489432334899902,1.205609202384949
-1.409189462661743,5.504936218261719,1.224825620651245
-1.609622478485107,5.498840808868408,1.038302779197693
-1.208756327629089,5.498840808868408,1.038302779197693
-1.610124588012695,5.500869274139404,1.156468152999878
-1.208254337310791,5.500869274139404,1.156468152999878
-1.798139929771423,5.48979377746582,1.024827599525452
-1.020238876342773,5.48979377746582,1.024827599525452
-1.409189462661743,5.503650188446045,1.045466184616089
-1.610129833221436,5.49390983581543,0.7110949754714966
-1.208249092102051,5.49390983581543,0.7110949754714966
-1.610002040863037,5.494922637939453,0.8691793084144592
-1.20837676525116,5.494922637939453,0.8691793084144592
-1.799124360084534,5.485936164855957,0.6976047158241272
-1.019254446029663,5.485936164855957,0.6976047158241272
-1.409189462661743,5.498148441314697,0.7182664275169373
-1.610131621360779,5.494349479675293,0.5585302114486694
-1.208247303962708,5.494349479675293,0.5585302114486694
-1.610131144523621,5.494239330291748,0.5966714024543762
-1.208247661590576,5.494239330291748,0.5966714024543762
-1.79912793636322,5.489559173583984,0.5464127659797669
-1.019250988960266,5.489559173583984,0.5464127659797669
-1.409189462661743,5.496896266937256,0.564971923828125
-1.208604454994202,5.450398921966553,-0.3296881020069122
-1.609774470329285,5.450398921966553,-0.3296881020069122
-1.609660744667053,5.481572151184082,-0.1750501543283463
-1.208718061447144,5.481572151184082,-0.1750501543283463
-1.609660744667053,5.486543655395508,-0.04668925702571869
-1.208718061447144,5.486543655395508,-0.04668925702571869
-1.798214316368103,5.478503227233887,-0.1795442402362824
-1.020164608955383,5.478503227233887,-0.1795442402362824
-1.409189462661743,5.483203887939453,-0.1726610809564591
-1.208686709403992,5.490041255950928,0.1871130019426346
-1.609692215919495,5.490041255950928,0.1871130019426346
-1.609849095344544,5.491894721984863,0.3535603880882263
-1.208529710769653,5.491894721984863,0.3535603880882263
-1.610061049461365,5.493735790252686,0.5072877407073975
-1.208317875862122,5.493735790252686,0.5072877407073975
-1.798579692840576,5.487991333007813,0.3432872891426086
-1.019799113273621,5.487991333007813,0.3432872891426086
-1.409189462661743,5.493969917297363,0.3590216338634491
-0.5962669253349304,5.449339389801025,1.30746054649353
-2.222111940383911,5.449339389801025,1.30746054649353
-0.6182432770729065,5.46354866027832,1.360377073287964
-2.200135469436646,5.46354866027832,1.360377073287964
-0.7064852118492127,5.468522071838379,1.366021394729614
-2.111893653869629,5.468522071838379,1.366021394729614
-0.5836136937141419,5.466917514801025,1.177702784538269
-2.23476505279541,5.466917514801025,1.177702784538269
-0.5810820460319519,5.460289001464844,1.216387867927551
-2.23729681968689,5.460289001464844,1.216387867927551
-0.6770122051239014,5.471475124359131,1.183351397514343
-2.141366720199585,5.471475124359131,1.183351397514343
-0.5916375517845154,5.469671249389648,0.9948557615280151
-2.226741313934326,5.469671249389648,0.9948557615280151
-0.5897029042243958,5.472811222076416,1.115510702133179
-2.228675842285156,5.472811222076416,1.115510702133179
-0.6842578053474426,5.47374439239502,1.000922441482544
-2.134120941162109,5.47374439239502,1.000922441482544
-0.5894096493721008,5.468201160430908,0.6675994992256165
-2.228969097137451,5.468201160430908,0.6675994992256165
-0.5899706482887268,5.463217258453369,0.823482871055603
-2.228408336639404,5.463217258453369,0.823482871055603
-0.6823965311050415,5.471790790557861,0.6736729145050049
-2.135982275009155,5.471790790557861,0.6736729145050049
-0.5894016623497009,5.478903770446777,0.519460916519165
-2.228977203369141,5.478903770446777,0.519460916519165
-0.5894036889076233,5.4762282371521,0.5564955472946167
-2.228975057601929,5.4762282371521,0.5564955472946167
-0.6823899149894714,5.48106050491333,0.5249162912368774
-2.13598895072937,5.48106050491333,0.5249162912368774
-2.227463483810425,5.431929111480713,-0.3360239267349243
-0.5909152626991272,5.431929111480713,-0.3360239267349243
-0.5914693474769592,5.471676826477051,-0.1895400881767273
-2.226909399032593,5.471676826477051,-0.1895400881767273
-0.5914693474769592,5.4782395362854,-0.06737583875656128
-2.226909399032593,5.4782395362854,-0.06737583875656128
-0.684117317199707,5.473058700561523,-0.1875167936086655
-2.134261608123779,5.473058700561523,-0.1875167936086655
-2.227047443389893,5.479737281799316,0.1588191688060761
-0.5913315415382385,5.479737281799316,0.1588191688060761
-0.5906422734260559,5.479310035705566,0.3204376399517059
-2.227736473083496,5.479310035705566,0.3204376399517059
-0.5897118449211121,5.479005336761475,0.4697050750255585
-2.22866702079773,5.479005336761475,0.4697050750255585
-0.6834263205528259,5.481067180633545,0.3250626921653748
-2.134952545166016,5.481067180633545,0.3250626921653748
-0.4174384772777557,5.451807975769043,1.308200836181641
-2.400940418243408,5.451807975769043,1.308200836181641
-0.4430521428585053,5.462296485900879,1.380529403686523
-2.375326633453369,5.462296485900879,1.380529403686523
-0.5801427960395813,5.463339805603027,1.363735795021057
-2.238235950469971,5.463339805603027,1.363735795021057
-0.4067421853542328,5.46570634841919,1.056662440299988
-2.411636829376221,5.46570634841919,1.056662440299988
-0.4024166762828827,5.462396144866943,1.126484155654907
-2.415962219238281,5.462396144866943,1.126484155654907
-0.5426241755485535,5.466715812683106,1.157529354095459
-2.275754690170288,5.466715812683106,1.157529354095459
-0.4205604493618012,5.465806007385254,0.8460906744003296
-2.397818326950073,5.465806007385254,0.8460906744003296
-0.4157414138317108,5.467471122741699,0.9679834842681885
-2.402637481689453,5.467471122741699,0.9679834842681885
-0.5515032410621643,5.469027042388916,0.9700615406036377
-2.266875505447388,5.469027042388916,0.9700615406036377
-0.4212320744991303,5.464961051940918,0.5660343766212463
-2.397146701812744,5.464961051940918,0.5660343766212463
-0.4210478961467743,5.463047027587891,0.6985232830047607
-2.39733099937439,5.463047027587891,0.6985232830047607
-0.5495308041572571,5.467660903930664,0.6506719589233398
-2.268847942352295,5.467660903930664,0.6506719589233398
-0.4212647378444672,5.469211101531982,0.4410847127437592
-2.397114276885986,5.469211101531982,0.4410847127437592
-0.4212565124034882,5.468148708343506,0.4723221361637116
-2.397122383117676,5.468148708343506,0.4723221361637116
-0.5495287775993347,5.477288246154785,0.5063982009887695
-2.268850088119507,5.477288246154785,0.5063982009887695
-0.4073270261287689,5.429435729980469,-0.3331956565380096
-2.411051750183106,5.429435729980469,-0.3331956565380096
-0.4188424050807953,5.46489143371582,-0.1810515224933624
-2.399536609649658,5.46489143371582,-0.1810515224933624
-0.4228636920452118,5.468642711639404,-0.06793127208948135
-2.395515203475952,5.468642711639404,-0.06793127208948135
-0.5510595440864563,5.470545768737793,-0.1881253272294998
-2.267319440841675,5.470545768737793,-0.1881253272294998
-2.562916994094849,5.403428554534912,-0.1912478357553482
-0.2554617822170258,5.403428554534912,-0.1912478357553482
-0.4240081012248993,5.47194766998291,0.1328875124454498
-2.394370794296265,5.47194766998291,0.1328875124454498
-0.4230283200740814,5.471432685852051,0.2719506621360779
-2.395350456237793,5.471432685852051,0.2719506621360779
-0.421705573797226,5.469766616821289,0.3988012075424194
-2.396673202514648,5.469766616821289,0.3988012075424194
-0.5509833693504334,5.477997303009033,0.3123564720153809
-2.267395496368408,5.477997303009033,0.3123564720153809
-0.6679149270057678,1.734232187271118,1.428092956542969
-2.150463819503784,1.734232187271118,1.428092956542969
-0.751189649105072,1.736688613891602,1.431839227676392
-2.06718921661377,1.736688613891602,1.431839227676392
-1.591161847114563,1.751823902130127,1.45492160320282
-1.227216958999634,1.751823902130127,1.45492160320282
-1.762316226959229,1.746367812156677,1.446600675582886
-1.056062698364258,1.746367812156677,1.446600675582886
-1.409189462661743,1.754724383354187,1.459344983100891
-2.681452035903931,2.532875537872315,1.378175735473633
-0.1369268596172333,2.532875537872315,1.378175735473633
-2.696516275405884,2.506062984466553,1.271032452583313
-0.1218625009059906,2.506062984466553,1.271032452583313
-2.688616991043091,2.502027750015259,0.8772475719451904
-0.1297617852687836,2.502027750015259,0.8772475719451904
-2.690749168395996,2.501596927642822,0.9934523105621338
-0.1276297271251679,2.501596927642822,0.9934523105621338
-2.682901620864868,2.502810001373291,0.6059784889221191
-0.1354771554470062,2.502810001373291,0.6059784889221191
-2.686640501022339,2.502511501312256,0.7391557693481445
-0.1317382752895355,2.502511501312256,0.7391557693481445
-2.677297353744507,2.502923965454102,0.3797966539859772
-0.1410815417766571,2.502923965454102,0.3797966539859772
-2.678750038146973,2.502895355224609,0.4853015840053558
-0.1396288573741913,2.502895355224609,0.4853015840053558
-2.677194118499756,2.50292444229126,0.2818776667118073
-0.1411846578121185,2.50292444229126,0.2818776667118073
-2.677219867706299,2.50292444229126,0.3063574135303497
-0.1411589086055756,2.50292444229126,0.3063574135303497
-2.677205324172974,2.502431631088257,0.2486870884895325
-0.1411734521389008,2.502431631088257,0.2486870884895325
-2.677238941192627,2.500953435897827,0.1491153389215469
-0.141139954328537,2.500953435897827,0.1491153389215469
-2.684282302856445,1.645031690597534,-0.08857814222574234
-0.1340964734554291,1.645031690597534,-0.08857814222574234
-2.684282302856445,1.645031690597534,-0.1735023111104965
-0.1340964734554291,1.645031690597534,-0.1735023111104965
-2.36189603805542,1.734232187271118,1.425007939338684
-0.456482857465744,1.734232187271118,1.425007939338684
-0.6233474016189575,1.734232187271118,1.427578806877136
-2.195031404495239,1.734232187271118,1.427578806877136
-2.391057252883911,-0.5409049987792969,1.382601261138916
-0.4273216426372528,-0.5409049987792969,1.382601261138916
-0.5658329129219055,-0.5409049987792969,1.385255575180054
-2.252546072006226,-0.5409049987792969,1.385255575180054
-2.362961530685425,-0.02807142212986946,1.390515804290772
-0.4554173648357391,-0.02807142212986946,1.390515804290772
-0.6086435914039612,-0.02807142212986946,1.392462849617004
-2.20973539352417,-0.02807142212986946,1.392462849617004
-1.220645546913147,5.461863994598389,1.441598176956177
-1.597733378410339,5.461863994598389,1.441598176956177
-1.5950767993927,5.333019256591797,1.454629182815552
-1.223302125930786,5.333019256591797,1.454629182815552
-1.769913196563721,5.315457820892334,1.445330500602722
-1.048465609550476,5.315457820892334,1.445330500602722
-1.409189462661743,5.342355251312256,1.459572315216065
-1.593786597251892,5.109395503997803,1.45234215259552
-1.224592328071594,5.109395503997803,1.45234215259552
-1.592054963111877,4.787754058837891,1.447187781333923
-1.226323843002319,4.787754058837891,1.447187781333923
-1.764049291610718,4.760843753814697,1.440080881118774
-1.054329633712769,4.760843753814697,1.440080881118774
-1.409189462661743,4.802060127258301,1.450965881347656
-1.59064519405365,4.486852645874023,1.444520592689514
-1.227733612060547,4.486852645874023,1.444520592689514
-1.590320706367493,4.325448036193848,1.449695110321045
-1.228058218955994,4.325448036193848,1.449695110321045
-1.76068377494812,4.303866863250732,1.441545844078064
-1.057695031166077,4.303866863250732,1.441545844078064
-1.409189462661743,4.336921215057373,1.45402729511261
-1.590651988983154,4.232001304626465,1.457654476165772
-1.227726817131043,4.232001304626465,1.457654476165772
-1.591210007667542,4.134973526000977,1.463342070579529
-1.227168917655945,4.134973526000977,1.463342070579529
-1.762409567832947,4.114850521087647,1.455194354057312
-1.05596935749054,4.114850521087647,1.455194354057312
-1.409189462661743,4.145670890808106,1.467673420906067
-1.591464757919312,4.037984848022461,1.467243313789368
-1.226914167404175,4.037984848022461,1.467243313789368
-1.590886354446411,3.944654703140259,1.469843864440918
-1.227492570877075,3.944654703140259,1.469843864440918
-1.761781454086304,3.925988674163818,1.46169650554657
-1.056597352027893,3.925988674163818,1.46169650554657
-1.409189462661743,3.954577445983887,1.474174976348877
-1.590242624282837,3.857715845108032,1.472118973731995
-1.22813618183136,3.857715845108032,1.472118973731995
-1.590301513671875,3.779900550842285,1.475044012069702
-1.228077292442322,3.779900550842285,1.475044012069702
-1.76064670085907,3.762495994567871,1.466896891593933
-1.057732224464417,3.762495994567871,1.466896891593933
-1.409189462661743,3.789153099060059,1.479375004768372
-1.590750813484192,3.702071905136108,1.477481484413147
-1.227627992630005,3.702071905136108,1.477481484413147
-1.591278433799744,3.615092992782593,1.478293895721436
-1.227100372314453,3.615092992782593,1.478293895721436
-1.762542366981506,3.598950147628784,1.470147013664246
-1.05583643913269,3.598950147628784,1.470147013664246
-1.409189462661743,3.623674392700195,1.482624888420105
-1.591394186019898,3.502858877182007,1.478119373321533
-1.226984739303589,3.502858877182007,1.478119373321533
-1.590607643127441,3.349265336990356,1.477595567703247
-1.227771162986755,3.349265336990356,1.477595567703247
-1.761240720748901,3.335157871246338,1.469448566436768
-1.057138204574585,3.335157871246338,1.469448566436768
-1.409189462661743,3.356764793395996,1.481926560401917
-1.5899658203125,3.046667098999023,1.474444508552551
-1.228412985801697,3.046667098999023,1.474444508552551
-1.589919686317444,2.61574387550354,1.468840599060059
-1.228459119796753,2.61574387550354,1.468840599060059
-1.228107452392578,2.214562177658081,1.462874054908752
-1.590271353721619,2.214562177658081,1.462874054908752
-1.759905695915222,2.605015516281128,1.460585117340088
-1.058473229408264,2.605015516281128,1.460585117340088
-1.409189462661743,2.621447086334229,1.473229289054871
-1.596401453018189,-0.1868281960487366,1.421231985092163
-1.221977472305298,-0.1868281960487366,1.421231985092163
-1.60003936290741,-0.3240053951740265,1.421885132789612
-1.218339562416077,-0.3240053951740265,1.421885132789612
-1.603583097457886,-0.440862387418747,1.423875093460083
-1.214795708656311,-0.440862387418747,1.423875093460083
-1.779543399810791,-0.3244148194789887,1.409362316131592
-1.038835525512695,-0.3244148194789887,1.409362316131592
-1.409189462661743,-0.3237877190113068,1.428542256355286
-1.226142168045044,1.242489099502564,1.445687294006348
-1.592236638069153,1.242489099502564,1.445687294006348
-1.593141078948975,0.7015173435211182,1.435874938964844
-1.225237727165222,0.7015173435211182,1.435874938964844
-1.593939900398254,0.2410502880811691,1.427585124969482
-1.224439024925232,0.2410502880811691,1.427585124969482
-1.766157031059265,0.7005585432052612,1.428647398948669
-1.052221894264221,0.7005585432052612,1.428647398948669
-1.409189462661743,0.7020270824432373,1.439717173576355
-1.595428943634033,-3.080931901931763,1.255604267120361
-1.222949981689453,-3.080931901931763,1.255604267120361
-1.770596504211426,-3.080010414123535,1.248014569282532
-1.047782301902771,-3.080010414123535,1.248014569282532
-1.409189462661743,-3.081421613693237,1.259639024734497
-1.596877336502075,-2.669424295425415,1.412341952323914
-1.221501588821411,-2.669424295425415,1.412341952323914
-1.596091866493225,-2.921457290649414,1.349462628364563
-1.222286939620972,-2.921457290649414,1.349462628364563
-1.773407340049744,-2.668661117553711,1.403513431549072
-1.044971585273743,-2.668661117553711,1.403513431549072
-1.409189462661743,-2.669829845428467,1.417035341262817
-1.599793076515198,-2.071460485458374,1.461481213569641
-1.218585848808289,-2.071460485458374,1.461481213569641
-1.779065489768982,-2.071299552917481,1.451758623123169
-1.039313435554504,-2.071299552917481,1.451758623123169
-1.409189462661743,-2.071546077728272,1.466649770736694
-1.219271183013916,-2.167490482330322,1.462522983551025
-1.599107623100281,-2.167490482330322,1.462522983551025
-1.598417043685913,-2.268145084381104,1.461614847183228
-1.219961762428284,-2.268145084381104,1.461614847183228
-1.59768557548523,-2.41994833946228,1.448355078697205
-1.220693349838257,-2.41994833946228,1.448355078697205
-1.776395320892334,-2.268291711807251,1.453464984893799
-1.041983604431152,-2.268291711807251,1.453464984893799
-1.409189462661743,-2.268067359924316,1.465947389602661
-1.213057160377502,-0.680213987827301,1.429921865463257
-1.605321764945984,-0.680213987827301,1.429921865463257
-1.605106592178345,-0.9304013848304749,1.436079382896423
-1.213272213935852,-0.9304013848304749,1.436079382896423
-1.789376616477966,-0.9307950139045715,1.423536419868469
-1.029002189636231,-0.9307950139045715,1.423536419868469
-1.409189462661743,-0.9301921725273132,1.442747354507446
-1.604443788528442,-1.221671104431152,1.44268012046814
-1.213935017585754,-1.221671104431152,1.44268012046814
-1.603950500488281,-1.375239729881287,1.445297598838806
-1.214428424835205,-1.375239729881287,1.445297598838806
-1.787133097648621,-1.375929713249207,1.432752132415772
-1.031245708465576,-1.375929713249207,1.432752132415772
-1.409189462661743,-1.374872922897339,1.451966762542725
-1.603519558906555,-1.462618827819824,1.446625113487244
-1.214859366416931,-1.462618827819824,1.446625113487244
-1.603043913841248,-1.555320382118225,1.449356198310852
-1.215334892272949,-1.555320382118225,1.449356198310852
-1.78537392616272,-1.555808305740356,1.437161564826965
-1.033004999160767,-1.555808305740356,1.437161564826965
-1.409189462661743,-1.555060982704163,1.455838918685913
-1.602542161941528,-1.6485356092453,1.452738881111145
-1.215836644172669,-1.6485356092453,1.452738881111145
-1.602032899856567,-1.737455606460571,1.456020951271057
-1.216345906257629,-1.737455606460571,1.456020951271057
-1.783411979675293,-1.736716866493225,1.444615244865418
-1.034966826438904,-1.736716866493225,1.444615244865418
-1.409189462661743,-1.737848401069641,1.462084174156189
-1.601517677307129,-1.82172441482544,1.458471179008484
-1.216861248016357,-1.82172441482544,1.458471179008484
-1.600997924804688,-1.900985479354858,1.4593585729599
-1.217381000518799,-1.900985479354858,1.4593585729599
-1.600435733795166,-1.981982946395874,1.459942221641541
-1.21794319152832,-1.981982946395874,1.459942221641541
-1.781403422355652,-1.900091171264648,1.448325395584106
-1.036975383758545,-1.900091171264648,1.448325395584106
-1.409189462661743,-1.901461005210877,1.465223908424377
-1.223605036735535,-3.166162490844727,1.164022922515869
-1.594773888587952,-3.166162490844727,1.164022922515869
-1.594012379646301,-3.195464372634888,1.107974410057068
-1.224366545677185,-3.195464372634888,1.107974410057068
-1.594647169113159,-3.196783304214478,1.060783982276917
-1.223731637001038,-3.196783304214478,1.060783982276917
-1.767847657203674,-3.195354461669922,1.097729563713074
-1.050531148910523,-3.195354461669922,1.097729563713074
-1.409189462661743,-3.195522546768189,1.113420605659485
-2.174631595611572,5.433023452758789,1.403791427612305
-0.6437472105026245,5.433023452758789,1.403791427612305
-0.6551041603088379,5.27639627456665,1.42464816570282
-2.163274765014648,5.27639627456665,1.42464816570282
-0.737556517124176,5.284302711486816,1.428834557533264
-2.080822229385376,5.284302711486816,1.428834557533264
-0.6603243947029114,5.022705554962158,1.429343342781067
-2.15805459022522,5.022705554962158,1.429343342781067
-0.6674182415008545,4.700988292694092,1.424273490905762
-2.150960683822632,4.700988292694092,1.424273490905762
-0.7484838962554932,4.713103771209717,1.427473068237305
-2.069895029067993,4.713103771209717,1.427473068237305
-0.673201858997345,4.411842346191406,1.419083833694458
-2.145176887512207,4.411842346191406,1.419083833694458
-0.6744913458824158,4.25586462020874,1.423420310020447
-2.143887519836426,4.25586462020874,1.423420310020447
-0.7547562718391419,4.265581130981445,1.427089095115662
-2.06362247467041,4.265581130981445,1.427089095115662
-0.6730362176895142,4.164724826812744,1.431382894515991
-2.145342588424683,4.164724826812744,1.431382894515991
-0.6705858707427979,4.07009220123291,1.437072038650513
-2.147793054580689,4.07009220123291,1.437072038650513
-0.751493513584137,4.079151630401611,1.44074022769928
-2.066885232925415,4.079151630401611,1.44074022769928
-0.6693336367607117,3.975497484207153,1.440973877906799
-2.14904522895813,3.975497484207153,1.440973877906799
-0.6714727878570557,3.884471416473389,1.443574905395508
-2.146906137466431,3.884471416473389,1.443574905395508
-0.7525919079780579,3.892874956130981,1.447242975234985
-2.065786838531494,3.892874956130981,1.447242975234985
-0.6738986968994141,3.799678802490234,1.445850491523743
-2.144480228424072,3.799678802490234,1.445850491523743
-0.6735065579414368,3.723784446716309,1.448776006698608
-2.144872188568115,3.723784446716309,1.448776006698608
-0.7546484470367432,3.731620073318481,1.452443838119507
-2.063730478286743,3.731620073318481,1.452443838119507
-0.671533465385437,3.647876977920532,1.451213836669922
-2.14684534072876,3.647876977920532,1.451213836669922
-0.6692163348197937,3.563045024871826,1.45202648639679
-2.149162530899048,3.563045024871826,1.45202648639679
-0.7510642409324646,3.570312738418579,1.455694317817688
-2.067314624786377,3.570312738418579,1.455694317817688
-0.6685295701026917,3.45358157157898,1.451851844787598
-2.14984917640686,3.45358157157898,1.451851844787598
-0.6714475154876709,3.303779602050781,1.451328039169312
-2.146931409835815,3.303779602050781,1.451328039169312
-0.7534061074256897,3.310130834579468,1.45499587059021
-2.064972639083862,3.310130834579468,1.45499587059021
-0.6737395524978638,3.006247043609619,1.448060154914856
-2.144639253616333,3.006247043609619,1.448060154914856
-0.6736034154891968,2.581153154373169,1.442222952842712
-2.144775390625,2.581153154373169,1.442222952842712
-2.146494865417481,2.186629295349121,1.436098694801331
-0.6718840599060059,2.186629295349121,1.436098694801331
-0.7557860016822815,2.585983276367188,1.445939779281616
-2.062592744827271,2.585983276367188,1.445939779281616
-0.6451737880706787,-0.188397228717804,1.38344407081604
-2.173205137252808,-0.188397228717804,1.38344407081604
-0.6300044655799866,-0.3253254890441895,1.381508946418762
-2.188374280929565,-0.3253254890441895,1.381508946418762
-0.6152169108390808,-0.4418351054191589,1.383478999137878
-2.203161954879761,-0.4418351054191589,1.383478999137878
-0.718798041343689,-0.3251411616802216,1.387146830558777
-2.099580764770508,-0.3251411616802216,1.387146830558777
-2.155184030532837,1.23461377620697,1.419739484786987
-0.6631948947906494,1.23461377620697,1.419739484786987
-0.6592227220535278,0.6984258890151978,1.412571787834168
-2.159156084060669,0.6984258890151978,1.412571787834168
-0.6557149291038513,0.2395652085542679,1.404354572296143
-2.16266393661499,0.2395652085542679,1.404354572296143
-0.7439279556274414,0.6988575458526611,1.415825724601746
-2.074450969696045,0.6988575458526611,1.415825724601746
-0.6509889960289002,-3.077960968017578,1.231133460998535
-2.167389869689941,-3.077960968017578,1.231133460998535
-0.7358364462852478,-3.078375816345215,1.234550356864929
-2.082542419433594,-3.078375816345215,1.234550356864929
-0.6446279287338257,-2.666964054107666,1.38387656211853
-2.173750877380371,-2.666964054107666,1.38387656211853
-0.6480771899223328,-2.917089462280273,1.320583820343018
-2.170301675796509,-2.917089462280273,1.320583820343018
-0.7305222153663635,-2.667307376861572,1.387851357460022
-2.087856531143189,-2.667307376861572,1.387851357460022
-0.631822943687439,-2.07094144821167,1.43013346195221
-2.186555862426758,-2.07094144821167,1.43013346195221
-0.719824492931366,-2.071013927459717,1.434510707855225
-2.098554372787476,-2.071013927459717,1.434510707855225
-2.183545827865601,-2.167401552200317,1.4346604347229
-0.6348329782485962,-2.167401552200317,1.4346604347229
-0.6378657817840576,-2.268617391586304,1.435337781906128
-2.180513143539429,-2.268617391586304,1.435337781906128
-0.6410783529281616,-2.420001029968262,1.421848893165588
-2.177300453186035,-2.420001029968262,1.421848893165588
-0.7248728275299072,-2.268551588058472,1.439007043838501
-2.093505859375,-2.268551588058472,1.439007043838501
-2.210765361785889,-0.6813242435455322,1.38949179649353
-0.6076136231422424,-0.6813242435455322,1.38949179649353
-0.6084876656532288,-0.9316704869270325,1.395638108253479
-2.209891080856323,-0.9316704869270325,1.395638108253479
-0.7003293633460999,-0.9314932823181152,1.4012850522995
-2.118049383163452,-0.9314932823181152,1.4012850522995
-0.6113983988761902,-1.223255634307861,1.402234196662903
-2.206980466842651,-1.223255634307861,1.402234196662903
-0.6135650277137756,-1.377464294433594,1.404848217964172
-2.204813957214356,-1.377464294433594,1.404848217964172
-0.7045711278915405,-1.377153754234314,1.410496354103088
-2.113807678222656,-1.377153754234314,1.410496354103088
-0.6154575943946838,-1.465081930160523,1.406457185745239
-2.202921152114868,-1.465081930160523,1.406457185745239
-0.6175462603569031,-1.556893706321716,1.410038113594055
-2.200832605361939,-1.556893706321716,1.410038113594055
-0.7078972458839417,-1.556674003601074,1.415528297424316
-2.11048150062561,-1.556674003601074,1.415528297424316
-0.6197496056556702,-1.648393034934998,1.414623737335205
-2.198629140853882,-1.648393034934998,1.414623737335205
-0.6219862699508667,-1.735073566436768,1.419246673583984
-2.19639253616333,-1.735073566436768,1.419246673583984
-0.7116065621376038,-1.735406160354614,1.424381613731384
-2.106772184371948,-1.735406160354614,1.424381613731384
-0.624249279499054,-1.817966103553772,1.422702074050903
-2.194129467010498,-1.817966103553772,1.422702074050903
-0.6265318989753723,-1.898101806640625,1.423785090446472
-2.191847085952759,-1.898101806640625,1.423785090446472
-0.6290008425712585,-1.980690360069275,1.425320625305176
-2.189378023147583,-1.980690360069275,1.425320625305176
-0.7154041528701782,-1.898504495620728,1.428752303123474
-2.102974653244019,-1.898504495620728,1.428752303123474
-2.164513111114502,-3.165370464324951,1.140821099281311
-0.6538656949996948,-3.165370464324951,1.140821099281311
-0.6572098731994629,-3.195110321044922,1.074942827224731
-2.161169052124023,-3.195110321044922,1.074942827224731
-0.6544217467308044,-3.195831298828125,1.016753911972046
-2.163957118988037,-3.195831298828125,1.016753911972046
-0.7410336136817932,-3.195159673690796,1.079555153846741
-2.077345132827759,-3.195159673690796,1.079555153846741
-0.4723187386989594,5.427768707275391,1.415633797645569
-2.346060276031494,5.427768707275391,1.415633797645569
-0.4829332530498505,5.272597312927246,1.433270692825317
-2.335445642471314,5.272597312927246,1.433270692825317
-0.6208003759384155,5.275763034820557,1.426085233688355
-2.197578430175781,5.275763034820557,1.426085233688355
-0.48361536860466,5.021755695343018,1.436946034431458
-2.334763526916504,5.021755695343018,1.436946034431458
-0.483968585729599,4.700988292694092,1.430090188980103
-2.334410429000855,4.700988292694092,1.430090188980103
-0.6313953995704651,4.700988292694092,1.425242900848389
-2.186983346939087,4.700988292694092,1.425242900848389
-0.4827573001384735,4.411842346191406,1.422972321510315
-2.33562159538269,4.411842346191406,1.422972321510315
-0.4787456691265106,4.25586462020874,1.425861477851868
-2.339633226394653,4.25586462020874,1.425861477851868
-0.6365187168121338,4.25586462020874,1.423827171325684
-2.181860208511353,4.25586462020874,1.423827171325684
-0.473493903875351,4.164724826812744,1.432643532752991
-2.344885110855103,4.164724826812744,1.432643532752991
-0.4685620963573456,4.07009220123291,1.437204003334045
-2.349816799163818,4.07009220123291,1.437204003334045
-0.6311676502227783,4.07009220123291,1.43709397315979
-2.187211275100708,4.07009220123291,1.43709397315979
-0.4657623469829559,3.975497484207153,1.440434813499451
-2.352616548538208,3.975497484207153,1.440434813499451
-0.4669063985347748,3.884471416473389,1.443228006362915
-2.3514723777771,3.884471416473389,1.443228006362915
-0.6311079859733582,3.884471416473389,1.443517088890076
-2.187270879745483,3.884471416473389,1.443517088890076
-0.4684930741786957,3.799678802490234,1.445794701576233
-2.349885940551758,3.799678802490234,1.445794701576233
-0.4670209586620331,3.723784446716309,1.448346495628357
-2.351357936859131,3.723784446716309,1.448346495628357
-0.6324163675308228,3.723784446716309,1.448704361915588
-2.185962438583374,3.723784446716309,1.448704361915588
-0.4639374911785126,3.647876977920532,1.450062394142151
-2.354441404342651,3.647876977920532,1.450062394142151
-0.4606901109218597,3.563045024871826,1.450121760368347
-2.357688903808594,3.563045024871826,1.450121760368347
-0.627347469329834,3.563045024871826,1.451709032058716
-2.191031455993652,3.563045024871826,1.451709032058716
-0.4590148627758026,3.45358157157898,1.449867725372315
-2.359364032745361,3.45358157157898,1.449867725372315
-0.4606479108333588,3.303779602050781,1.45064377784729
-2.357730865478516,3.303779602050781,1.45064377784729
-0.6286075711250305,3.303779602050781,1.451213955879211
-2.189771175384522,3.303779602050781,1.451213955879211
-0.4623559415340424,3.006247043609619,1.447975635528565
-2.356022834777832,3.006247043609619,1.447975635528565
-0.4624848067760468,2.581153154373169,1.441348195075989
-2.355894088745117,2.581153154373169,1.441348195075989
-2.357501029968262,2.186629295349121,1.434216260910034
-0.4608778655529022,2.186629295349121,1.434216260910034
-2.188441276550293,2.581153154373169,1.442077159881592
-0.629937469959259,2.581153154373169,1.442077159881592
-2.583675861358643,2.569165468215942,1.424999952316284
-0.2347030341625214,2.569165468215942,1.424999952316284
-0.4509575068950653,-0.188397228717804,1.380674600601196
-2.367421388626099,-0.188397228717804,1.380674600601196
-0.4427317082881928,-0.3253254890441895,1.379014611244202
-2.375647306442261,-0.3253254890441895,1.379014611244202
-0.4338248670101166,-0.4418351054191589,1.381126642227173
-2.384554147720337,-0.4418351054191589,1.381126642227173
-0.5868238806724548,-0.3253254890441895,1.381093263626099
-2.231554985046387,-0.3253254890441895,1.381093263626099
-2.570902585983276,-0.3289346098899841,1.360692858695984
-0.2474764287471771,-0.3289346098899841,1.360692858695984
-0.4530534446239471,1.23461377620697,1.416033864021301
-2.365325450897217,1.23461377620697,1.416033864021301
-0.4543438851833344,0.6984258890151978,1.409604668617249
-2.36403489112854,0.6984258890151978,1.409604668617249
-0.4564374387264252,0.2395652085542679,1.402253985404968
-2.361941576004028,0.2395652085542679,1.402253985404968
-0.6148589253425598,0.6984258890151978,1.412077307701111
-2.203519821166992,0.6984258890151978,1.412077307701111
-2.580760717391968,0.6918506622314453,1.393022060394287
-0.2376181781291962,0.6918506622314453,1.393022060394287
-0.4733653962612152,-3.069245100021362,1.222686767578125
-2.345013618469238,-3.069245100021362,1.222686767578125
-0.612407386302948,-3.076508283615112,1.22972559928894
-2.205971479415894,-3.076508283615112,1.22972559928894
-0.4719508588314056,-2.665266513824463,1.370924472808838
-2.346427917480469,-2.665266513824463,1.370924472808838
-0.4740749299526215,-2.91278886795044,1.308619856834412
-2.344303846359253,-2.91278886795044,1.308619856834412
-0.606220543384552,-2.666681051254273,1.381717920303345
-2.212158203125,-2.666681051254273,1.381717920303345
-0.4580241143703461,-2.07094144821167,1.419835925102234
-2.360354661941528,-2.07094144821167,1.419835925102234
-0.5919197201728821,-2.07094144821167,1.428417205810547
-2.22645902633667,-2.07094144821167,1.428417205810547
-0.4603535830974579,-2.167401552200317,1.422140240669251
-2.358025312423706,-2.167401552200317,1.422140240669251
-0.4640420377254486,-2.268617391586304,1.422310829162598
-2.354336738586426,-2.268617391586304,1.422310829162598
-0.4682032763957977,-2.419576644897461,1.409016251564026
-2.350175619125366,-2.419576644897461,1.409016251564026
-0.5985761284828186,-2.268617391586304,1.43316662311554
-2.219802618026733,-2.268617391586304,1.43316662311554
-0.422076553106308,-0.6813242435455322,1.384642720222473
-2.396302461624146,-0.6813242435455322,1.384642720222473
-0.4223565757274628,-0.9316704869270325,1.389071822166443
-2.396022319793701,-0.9316704869270325,1.389071822166443
-0.5641438364982605,-0.9316704869270325,1.394543766975403
-2.254235029220581,-0.9316704869270325,1.394543766975403
-0.4274893701076508,-1.223255634307861,1.394545197486877
-2.390889406204224,-1.223255634307861,1.394545197486877
-0.4312767684459686,-1.377464294433594,1.397332429885864
-2.387102127075195,-1.377464294433594,1.397332429885864
-0.5703806281089783,-1.377464294433594,1.403595566749573
-2.247998237609863,-1.377464294433594,1.403595566749573
-0.4345719516277313,-1.465155363082886,1.399462699890137
-2.383806943893433,-1.465155363082886,1.399462699890137
-0.4382281005382538,-1.557187438011169,1.402965188026428
-2.38015079498291,-1.557187438011169,1.402965188026428
-0.5752639174461365,-1.556942701339722,1.408859372138977
-2.243114948272705,-1.556942701339722,1.408859372138977
-0.441985696554184,-1.648833632469177,1.407118320465088
-2.37639307975769,-1.648833632469177,1.407118320465088
-0.4455855786800385,-1.735367298126221,1.411199927330017
-2.372793197631836,-1.735367298126221,1.411199927330017
-0.5806439518928528,-1.735122442245483,1.417905569076538
-2.237734794616699,-1.735122442245483,1.417905569076538
-0.4491347968578339,-1.818039536476135,1.414386630058289
-2.36924409866333,-1.818039536476135,1.414386630058289
-0.4527404010295868,-1.898101806640625,1.415855288505554
-2.365638494491577,-1.898101806640625,1.415855288505554
-0.4558782279491425,-1.980690360069275,1.417155265808106
-2.362500667572022,-1.980690360069275,1.417155265808106
-0.5860890746116638,-1.898101806640625,1.422463417053223
-2.232289791107178,-1.898101806640625,1.422463417053223
-0.4723938405513763,-3.152738094329834,1.136415243148804
-2.345985174179077,-3.152738094329834,1.136415243148804
-0.4737317264080048,-3.181371212005615,1.073095321655273
-2.344647169113159,-3.181371212005615,1.073095321655273
-0.4714682996273041,-3.182431221008301,1.016340732574463
-2.346910715103149,-3.182431221008301,1.016340732574463
-0.6182884573936462,-3.192820549011231,1.074634909629822
-2.200090408325195,-3.192820549011231,1.074634909629822
-0.1733143031597138,5.233800411224365,1.31394350528717
-2.64506459236145,5.233800411224365,1.31394350528717
-0.1971374452114105,5.244521617889404,1.417448401451111
-2.621241331100464,5.244521617889404,1.417448401451111
-0.2898817956447601,5.262744426727295,1.435882329940796
-2.528496980667114,5.262744426727295,1.435882329940796
-0.2625549733638763,5.407270908355713,1.404989361763001
-2.555823802947998,5.407270908355713,1.404989361763001
-0.1589897572994232,4.658525466918945,1.294520258903503
-2.659389019012451,4.658525466918945,1.294520258903503
-0.1809733808040619,4.673360824584961,1.398393392562866
-2.637405395507813,4.673360824584961,1.398393392562866
-0.2781408727169037,4.694128513336182,1.426621794700623
-2.54023814201355,4.694128513336182,1.426621794700623
-0.1894979178905487,4.99269437789917,1.415855169296265
-2.628880977630615,4.99269437789917,1.415855169296265
-0.1424071490764618,4.2043137550354,1.265928506851196
-2.675971746444702,4.2043137550354,1.265928506851196
-0.1621260344982147,4.222354412078857,1.370887517929077
-2.656252861022949,4.222354412078857,1.370887517929077
-0.2600784003734589,4.247543811798096,1.414058566093445
-2.558300495147705,4.247543811798096,1.414058566093445
-0.1717780530452728,4.384066104888916,1.378818869590759
-2.646600723266602,4.384066104888916,1.378818869590759
-0.1276102960109711,4.005087852478027,1.263049244880676
-2.690768480300903,4.005087852478027,1.263049244880676
-0.1457601487636566,4.028002262115479,1.370638012886047
-2.672618627548218,4.028002262115479,1.370638012886047
-0.2442125976085663,4.059640884399414,1.420775055885315
-2.574166297912598,4.059640884399414,1.420775055885315
-0.1530942618846893,4.124805927276611,1.369770169258118
-2.665284633636475,4.124805927276611,1.369770169258118
-0.1253431737422943,3.819230318069458,1.268098115921021
-2.69303560256958,3.819230318069458,1.268098115921021
-0.1426257789134979,3.842276573181152,1.376165270805359
-2.675753116607666,3.842276573181152,1.376165270805359
-0.2410567700862885,3.873994112014771,1.426313281059265
-2.577322244644165,3.873994112014771,1.426313281059265
-0.141733855009079,3.93335485458374,1.372950077056885
-2.676645040512085,3.93335485458374,1.372950077056885
-0.1253711879253388,3.658336639404297,1.272852897644043
-2.693007707595825,3.658336639404297,1.272852897644043
-0.1418177783489227,3.681498765945435,1.381358146667481
-2.676561117172241,3.681498765945435,1.381358146667481
-0.2401035726070404,3.713284492492676,1.431387782096863
-2.578275203704834,3.713284492492676,1.431387782096863
-0.1440992057323456,3.75743556022644,1.379296898841858
-2.674279689788818,3.75743556022644,1.379296898841858
-0.1174869239330292,3.497388601303101,1.272626757621765
-2.700891971588135,3.497388601303101,1.272626757621765
-0.1338647305965424,3.520668029785156,1.381074786186218
-2.684514045715332,3.520668029785156,1.381074786186218
-0.2324893176555634,3.552522420883179,1.431535363197327
-2.585889577865601,3.552522420883179,1.431535363197327
-0.1377499997615814,3.605548858642578,1.382050275802612
-2.680628776550293,3.605548858642578,1.382050275802612
-0.1173864305019379,3.237768888473511,1.277741312980652
-2.700992345809937,3.237768888473511,1.277741312980652
-0.1327888667583466,3.261242628097534,1.385528445243835
-2.685590028762817,3.261242628097534,1.385528445243835
-0.231366366147995,3.293217420578003,1.43395733833313
-2.587012529373169,3.293217420578003,1.43395733833313
-0.1316988170146942,3.411138296127319,1.381283640861511
-2.68668007850647,3.411138296127319,1.381283640861511
-0.1350742280483246,2.961760759353638,1.385165214538574
-2.68330454826355,2.961760759353638,1.385165214538574
-0.117289274930954,1.653424620628357,1.255173444747925
-2.70108962059021,1.653424620628357,1.255173444747925
-0.1329425275325775,1.682386159896851,1.360562443733215
-2.685436248779297,1.682386159896851,1.360562443733215
-0.2302503287792206,1.721358418464661,1.406670928001404
-2.588128566741943,1.721358418464661,1.406670928001404
-2.681750297546387,2.135758876800537,1.370314002037048
-0.1366285979747772,2.135758876800537,1.370314002037048
-0.1329419314861298,1.189025640487671,1.353039979934692
-2.685436964035034,1.189025640487671,1.353039979934692
-0.150472491979599,-0.54844069480896,1.292038798332214
-2.667906284332275,-0.54844069480896,1.292038798332214
-0.2406623065471649,-0.5427761673927307,1.35770320892334
-2.577716588973999,-0.5427761673927307,1.35770320892334
-0.1561011970043182,-0.4489805996417999,1.302970170974731
-2.662277698516846,-0.4489805996417999,1.302970170974731
-0.1370987594127655,-0.01775825396180153,1.292409420013428
-2.681280136108398,-0.01775825396180153,1.292409420013428
-0.1548392474651337,-0.01427232101559639,1.341929435729981
-2.66353964805603,-0.01427232101559639,1.341929435729981
-0.2482335269451141,-0.02464500814676285,1.376683235168457
-2.57014536857605,-0.02464500814676285,1.376683235168457
-0.15455362200737,0.2359213829040527,1.350381135940552
-2.663825273513794,0.2359213829040527,1.350381135940552
-0.1530085504055023,-0.2027659714221954,1.334082007408142
-2.665370225906372,-0.2027659714221954,1.334082007408142
-0.2211607396602631,-3.028660297393799,1.157402753829956
-2.597218036651611,-3.028660297393799,1.157402753829956
-0.2899012267589569,-3.052571296691895,1.200083732604981
-2.528477668762207,-3.052571296691895,1.200083732604981
-0.2170082032680512,-2.676545143127441,1.281393766403198
-2.601370811462402,-2.676545143127441,1.281393766403198
-0.2925347983837128,-2.66678261756897,1.338890910148621
-2.525844097137451,-2.66678261756897,1.338890910148621
-0.2272383868694305,-2.973433017730713,1.253919005393982
-2.591140508651733,-2.973433017730713,1.253919005393982
-0.1941957175731659,-2.071874380111694,1.313889384269714
-2.624183177947998,-2.071874380111694,1.313889384269714
-0.2775337398052216,-2.071173191070557,1.385735392570496
-2.540845155715942,-2.071173191070557,1.385735392570496
-0.2017875611782074,-2.273001194000244,1.310883522033691
-2.616591215133667,-2.273001194000244,1.310883522033691
-0.2829887568950653,-2.269706010818481,1.384783625602722
-2.535390138626099,-2.269706010818481,1.384783625602722
-0.197394460439682,-2.169391393661499,1.312642335891724
-2.620984315872192,-2.169391393661499,1.312642335891724
-0.2080878913402557,-2.427215337753296,1.30250358581543
-2.610291004180908,-2.427215337753296,1.30250358581543
-0.1436139047145844,-0.9450855851173401,1.282444953918457
-2.67476487159729,-0.9450855851173401,1.282444953918457
-0.2324400842189789,-0.93500155210495,1.35762619972229
-2.585938930511475,-0.93500155210495,1.35762619972229
-0.1422238051891327,-0.686202347278595,1.28175699710846
-2.676155090332031,-0.686202347278595,1.28175699710846
-0.1582195460796356,-1.379100441932678,1.296055555343628
-2.660159349441528,-1.379100441932678,1.296055555343628
-0.2448948323726654,-1.377870559692383,1.366496562957764
-2.573484182357788,-1.377870559692383,1.366496562957764
-0.1523180902004242,-1.227686882019043,1.291188597679138
-2.66606068611145,-1.227686882019043,1.291188597679138
-0.1681264340877533,-1.558606624603272,1.302280426025391
-2.650252342224121,-1.558606624603272,1.302280426025391
-0.2542117536067963,-1.557762145996094,1.37261164188385
-2.564167022705078,-1.557762145996094,1.37261164188385
-0.1629463136196137,-1.466886878013611,1.299076080322266
-2.655432462692261,-1.466886878013611,1.299076080322266
-0.1784103810787201,-1.736425280570984,1.307775020599365
-2.639968395233154,-1.736425280570984,1.307775020599365
-0.2638170421123505,-1.735852360725403,1.379428744316101
-2.554561853408814,-1.735852360725403,1.379428744316101
-0.1734008491039276,-1.649904489517212,1.305302143096924
-2.644978046417236,-1.649904489517212,1.305302143096924
-0.1874408423900604,-1.898980736732483,1.312426924705505
-2.630938053131104,-1.898980736732483,1.312426924705505
-0.2727089822292328,-1.898320078849793,1.384171962738037
-2.545669794082642,-1.898320078849793,1.384171962738037
-0.1831065118312836,-1.819130301475525,1.31003725528717
-2.635272264480591,-1.819130301475525,1.31003725528717
-0.1912061870098114,-1.981415748596191,1.314019322395325
-2.627172708511353,-1.981415748596191,1.314019322395325
-0.2181011140346527,-3.124066352844238,1.005128026008606
-2.600277662277222,-3.124066352844238,1.005128026008606
-0.2837400138378143,-3.156720638275147,1.054817199707031
-2.53463888168335,-3.156720638275147,1.054817199707031
-0.2173570096492767,-3.080125570297241,1.071076035499573
-2.601021766662598,-3.080125570297241,1.071076035499573
-0.2806226909160614,-3.158796548843384,0.9634565114974976
-2.537756204605103,-3.158796548843384,0.9634565114974976
-0.1706750094890595,5.237727642059326,0.8747294545173645
-2.647703886032105,5.237727642059326,0.8747294545173645
-0.1680179536342621,5.238132476806641,0.9921615123748779
-2.650360822677612,5.238132476806641,0.9921615123748779
-2.586689949035645,5.408181190490723,0.9198815822601318
-0.2316888272762299,5.408181190490723,0.9198815822601318
-0.1575305163860321,4.659008979797363,0.8770548105239868
-2.660848379135132,4.659008979797363,0.8770548105239868
-0.1586014926433563,4.657888889312744,0.9919432401657105
-2.659777402877808,4.657888889312744,0.9919432401657105
-0.1657770574092865,4.978951930999756,0.8759556412696838
-2.652601718902588,4.978951930999756,0.8759556412696838
-0.1405923068523407,4.204643726348877,0.8796866536140442
-2.677786588668823,4.204643726348877,0.8796866536140442
-0.1406949460506439,4.203365325927734,0.9914667010307312
-2.67768406867981,4.203365325927734,0.9914667010307312
-0.1483355462551117,4.37015438079834,0.8782305717468262
-2.670043468475342,4.37015438079834,0.8782305717468262
-0.1276338994503021,4.004103660583496,0.8815798163414002
-2.690744876861572,4.004103660583496,0.8815798163414002
-0.1274594962596893,4.002935409545898,0.9936812520027161
-2.690919399261475,4.002935409545898,0.9936812520027161
-0.1338439881801605,4.10258960723877,0.8809580802917481
-2.684534788131714,4.10258960723877,0.8809580802917481
-0.127424567937851,3.817832469940186,0.8833196759223938
-2.690954208374023,3.817832469940186,0.8833196759223938
-0.1267952620983124,3.816789865493774,0.9964671134948731
-2.691583633422852,3.816789865493774,0.9964671134948731
-0.1246109902858734,3.909185171127319,0.8821632266044617
-2.693767786026001,3.909185171127319,0.8821632266044617
-0.1294501721858978,3.656573534011841,0.8850553035736084
-2.688928604125977,3.656573534011841,0.8850553035736084
-0.1283772885799408,3.655642032623291,0.9991641640663147
-2.690001487731934,3.655642032623291,0.9991641640663147
