0.7714977621046888,3.758485029244796,0.6399952922048253
0.6940817693182936,3.748558188748838,0.6464865242837588
0.5989746870214694,3.74565765438987,0.6489903608141026
0.5988719602794916,3.753173836110544,0.644618766771628
-0.4099062762879607,3.74565765438987,0.6489903608141024
-0.5050133585847848,3.748558188748838,0.6464865242837586
-0.5047632176069119,3.756023184934077,0.6421221633126736
-0.5811391088426043,3.760748487069627,0.6343705400666714
-0.6553447473154176,3.7624515320817,0.6330360516227157
-0.6525026558607077,3.759362693503675,0.6261743486978741
0.6928310644289284,3.758362214293166,0.6364528637016427
0.5984610533115808,3.755703218478492,0.6389707118570216
0.5974468096494875,3.753197046528281,0.6320710363163249
-0.8627689274832526,3.494426819903322,0.6394833023501008
-0.8634639090923419,3.444155110997088,0.6294188309618718
-0.8645119361489416,3.45257524944829,0.5988067933366432
1.052532319825851,3.444155110997088,0.6294188309618718
1.051837338216761,3.494426819903321,0.6394833023501008
1.052866350598703,3.503351293391001,0.6085940466166842
1.050997210348485,3.550900048267432,0.6502762121473836
1.050252997793381,3.605269091451667,0.6602105590577745
1.051301660903625,3.615011601657761,0.6294702881166572
-0.8611845870598723,3.605269091451667,0.6602105590577745
-0.8619287996149763,3.550900048267432,0.6502762121473836
-0.8629578793352817,3.560212867443695,0.6193070299570653
-0.8633154011866285,3.515107787493581,0.5709762967737176
-0.8640806693150376,3.464317232563507,0.561696131214142
-0.8620622918821543,3.475698826636907,0.5318861563814787
1.051541972997346,3.571761887156927,0.5813990890058234
1.050865495399104,3.626232441808641,0.5916258590748024
1.048835459903687,3.635018780769074,0.5606429433165665
-0.411638886239929,3.493447036814613,0.6026178146931215
-0.4121538390186191,3.444601785116467,0.5923097455140678
-0.5076585775569105,3.447410231246637,0.5896197125463265
0.6012222497521278,3.444601785116467,0.5923097455140678
0.6007072969734377,3.493447036814614,0.6026178146931214
0.6961209260696148,3.496278507952846,0.5999637256893129
0.6000956298273996,3.548396797398298,0.6140662611594603
0.5995633953075723,3.600709361105005,0.6251941402819371
0.6947746364432929,3.603591979350641,0.6226198961919187
-0.4104949845740634,3.600709361105004,0.6251941402819371
-0.4110272190938909,3.548396797398297,0.6140662611594603
-0.50633262729149,3.551255617919914,0.6114548668312528
-0.584977602441031,3.498752925880365,0.597513093194344
-0.5856391047451701,3.449868500074546,0.587125929051364
-0.6598031251680174,3.45164556103436,0.5851141581308657
0.7732602727276206,3.5537492179435,0.6090554896165876
0.7725765705013625,3.606102270435295,0.6202651181185962
0.8466432456863637,3.607897558450566,0.6184103928772464
-0.338472030665112,-0.746064271581849,0.2985735715614204
-0.3406717107562113,-0.6888581984184978,0.3106516072613003
-0.2102255858411257,-0.6885844356679403,0.3191088055088457
0.152941752108857,-0.7462189602132402,0.321928341839927
0.1532384635809908,-0.6890155866805213,0.3336302540594621
0.2728946800369673,-0.6888359185350174,0.3275789132183503
-0.342895279039491,-0.614473412038185,0.3231708008940077
-0.3449527439567162,-0.5241778796582834,0.3357618923522697
-0.2132234467065358,-0.5239294363626074,0.3439970560267736
0.1535383972947183,-0.6146284447902705,0.3457595860625761
0.1538159255802797,-0.5243300530619163,0.3579585769129001
0.2746491762086271,-0.524163109097221,0.3521405676937945
-0.3467437239746997,-0.4392528408624791,0.3458795534377708
-0.3483023588367362,-0.3705745046136315,0.3532934697421506
-0.2155690672361367,-0.3703496777024349,0.3613736126239234
0.1540575081266961,-0.4394023249826902,0.3677611627663862
0.1542677499915541,-0.3707218139275224,0.3749442014618006
0.276021949137096,-0.3705667382730875,0.3692891004444096
-0.349750944522819,-0.3079935029372016,0.3606261654168886
-0.3511455974668983,-0.2459234692155981,0.3682221516816994
-0.2175600898283886,-0.2457178072919996,0.3761702895500479
0.1544631474919351,-0.3081388305263536,0.3820485488284177
0.1546512700875055,-0.2460668312606061,0.3894079876229639
0.2771871938474492,-0.2459213868864864,0.3838916079923971
-0.3524762545568816,-0.1833410381881773,0.3741479268245327
-0.3537438458793333,-0.1199923847471495,0.3781700570585467
-0.2193795541654868,-0.1198060846175731,0.3860302318107855
0.1548307603805167,-0.1834824184631837,0.3951492275296177
0.1550017438289184,-0.12013175898853,0.3990461041495832
0.2782520341976946,-0.1199960447989293,0.3936221631706978
-0.3549602947194752,-0.05639322393757947,0.3817551765221077
-0.3560991351181924,0.01098564085545477,0.3852696906636289
-0.2210288825180594,0.01115180322822681,0.3930670877886704
0.155165828746358,-0.05653058421262856,0.4025195790010902
0.1553194451802218,0.01085041423694157,0.4059246472589035
0.2792173025708159,0.01097600828533618,0.4005666780130638
-0.3570955118720327,0.08971831790686158,0.3879797762415708
-0.3578566463286924,0.1753625601115665,0.3907296310894752
-0.2222596073995801,0.1755034496768657,0.3984787493703342
0.1554538449116347,0.08958558448100598,0.4085503377543224
0.1555565131705537,0.1752325387438274,0.4112145590603547
0.279937583527784,0.1753454320538636,0.4059073250710447
-0.3582618363870154,0.2514597649845115,0.395941474115965
-0.3581247179286873,0.325386017784745,0.4115853476666575
-0.2224473287558774,0.3255038413747272,0.4191500518674328
0.155611168635768,0.2513321533531048,0.4162640994917169
0.1555926729373286,0.3252607471430971,0.4314208054009014
0.2800474473325931,0.3253620487485791,0.4263073684218375
-0.3571932648182347,0.4283520915154229,0.451179117524164
-0.3554615774397608,0.5684140822430275,0.5139686319337472
-0.2205824227210678,0.5684945404807974,0.5206280246764296
0.1554670306565487,0.4282300814546239,0.4697815811781768
0.1552334460032928,0.568296507462978,0.530615760194181
0.2789560122575597,0.568379031274872,0.5264536966343285
-0.3531698826969456,0.7304734090973679,0.5849277216033214
-0.3506511424749482,0.8972979328469534,0.6514874076244841
-0.2172138399394834,0.8973278254805319,0.6569308076958342
0.1549243228159768,0.7303609661779248,0.5993651047999221
0.1545845738123688,0.8971907726854868,0.6638520480855112
0.2769845513193948,0.8972478849751564,0.6609678465201359
-0.3483310536404064,1.049521955898993,0.7035359014725162
-0.3465941546971023,1.185786908009173,0.7395550999840692
-0.2143728704068909,1.185772445715306,0.7442197724383901
0.1542716205895898,1.049419616147942,0.7142796938801621
0.1540373329563509,1.185688883299739,0.7491772144434103
0.2753218757008406,1.185723705215496,0.7471113619103206
-0.3457838257859617,1.322741346281658,0.7666205853571659
-0.345900443756043,1.465485667991004,0.7861833724642586
-0.213887088404111,1.465428202257582,0.7904357402181632
0.1539280289329545,1.322647658447493,0.775399850465114
0.1539437593519918,1.46539650037777,0.7943534305989209
0.2750375720915662,1.465409711103916,0.7927208606992119
-0.3466013821645376,1.607572110582156,0.7940699088522278
-0.3477915869523929,1.750994783655874,0.7907323801074678
-0.2152113911865691,1.750893421145796,0.7949445238270309
0.1540383078583429,1.607487442357088,0.8019943714622686
0.1541988527558404,1.750914657132788,0.7987607770788918
0.2758126194557551,1.750905807726688,0.79717047779969
-0.3496235764443134,1.90618966896873,0.7812487098558884
-0.3522348934977035,2.052349214355438,0.7696642984300799
-0.2183228865152286,2.052201518865385,0.7740627340417141
0.1544459670072683,1.906114456933034,0.789572438878823
0.1547982035576062,2.052278630689042,0.7783487789238239
0.2776336201250186,2.052246496847421,0.7765627092799076
-0.3552275364252869,2.159327754098281,0.7589032355966501
-0.3572759507428294,2.223777497077871,0.751258892718324
-0.2218529661776971,2.223603444639384,0.7558200758409506
0.1552018765699799,2.15926055807371,0.7679228275692547
0.155478184034038,2.223712341954638,0.760516538039982
0.279699597010376,2.223666962544383,0.7585594403431046
-0.3579921919406353,2.268299006071702,0.7449548805972406
-0.357991117213504,2.319629581155429,0.7367283072372405
-0.2223537727527164,2.319440791542905,0.7414179752548673
0.1555747967101577,2.268235260791288,0.7544088398757403
0.1555746517418641,2.3195674613375,0.7464384511702951
0.2799926937410321,2.319514675825181,0.7443463313075313
-0.3574607363728915,2.375144743243796,0.7272880479686843
-0.3563347183127013,2.434035728725851,0.7166020973369425
-0.2211938533571744,2.433829349268266,0.7214697288625889
0.1555031094841287,2.375084381399808,0.737292172086901
0.1553512226358332,2.4339772317565,0.7269389938564232
0.2793138516498618,2.433915606544827,0.7246598557585475
-0.3550043063241583,2.499630295033209,0.7038514659757189
-0.3539069457155939,2.569777698699869,0.6892051642155802
-0.2194937673923833,2.569550449033201,0.6943150497150946
0.1551717654041791,2.499573875217807,0.7145854313533604
0.1550237441155594,2.569723500211092,0.7003952317383955
0.278318877416356,2.569651386767538,0.6978615138609574
-0.3527470950523789,2.645317229620188,0.6727018678293057
-0.3512699932117697,2.72408026542871,0.6543061547914866
-0.2176471999062382,2.723829291877453,0.6597246304415698
0.1548672936393571,2.645265423208131,0.6844058663776788
0.1546680496386493,2.724030953170667,0.6665830163271147
0.2772381749653068,2.723946917393145,0.6637250073296899
-0.349413988221826,2.802543548465008,0.6331425019644036
-0.3472155529685135,2.878691130303183,0.6098805839867559
-0.2148080143248305,2.878416385466767,0.6156918872216324
0.1544176959735442,2.802496720868843,0.6460784232143699
0.1541211524156631,2.878646714038614,0.6235409072642253
0.2755765434030528,2.878550732106175,0.6202700837385357
-0.3448092851957038,2.95201437175185,0.586735273273661
-0.3423342015586847,3.023025374787283,0.564266158386922
-0.2113897711866754,3.022728438687099,0.5704808015072638
0.1537965746481403,2.951972277381748,0.6011163672985752
0.1534627144142903,3.022985529091022,0.5793469656683179
0.2735760187726761,3.022878395036476,0.5756522804511526
-0.3399337376241612,3.093256982553409,0.5413775440350286
-0.3375773234538078,3.165066468063918,0.5165506773220792
-0.2080586924390369,3.164747693269957,0.523187238649535
0.153138919517608,3.093219360850227,0.5571711282533551
0.1528210664260215,3.165031120319767,0.533117397814065
0.2716265070466108,3.164913011325612,0.5289793273246364
-0.3350603836042684,3.241635534202262,0.4878437477477807
-0.3403804337354994,3.311769211657657,0.4604543944010505
-0.1947399533569425,3.311231225005565,0.468172090811403
0.1524815602718918,3.241602611136664,0.5053044339913002
0.1521334840478056,3.311517530641501,0.4794479425970344
0.2695374333901905,3.311393468066036,0.4747951312800764
-0.2978515776118709,3.360072845411688,0.4464564218845887
-0.2976263373625599,3.392886343574372,0.4386084484355334
-0.1610910937608156,3.39180273654254,0.4463772304051441
0.1518125808042598,3.360181016064886,0.4633792755135761
0.1519214589315323,3.390932481149236,0.4557615496058353
0.2638110771588853,3.391284081759436,0.4511595218378092
-0.2375309303875196,3.420934764722223,0.4383722525743983
-0.2420543377635873,3.44783627569287,0.4358833601352082
-0.1681515798766105,3.44366173511846,0.4399784499238612
0.1528199720912242,3.41470730108942,0.4519278991295357
0.1566216230499449,3.474702693067147,0.4457056314956403
0.271198367009736,3.477078523764337,0.441625520620322
-0.2581582135831883,3.529780843247061,0.4300207919180558
-0.2597188850187611,3.562750748438464,0.4270578534550641
-0.185389043494353,3.555866040956627,0.430198906983231
0.1590091646864017,3.529002819507571,0.4407053556982915
0.1590275607217947,3.590177387163547,0.4344209726022809
0.2769605237066853,3.59320842558527,0.4300448391583154
-0.2529601745763039,3.637722879658399,0.4169234299712551
-0.2446554409242379,3.653443478624611,0.4129143982850155
-0.1707740204211814,3.652120111033663,0.4166358061870779
0.156309880237731,3.636523001505765,0.4287659318551126
0.1532662079823969,3.661630348222065,0.4219449189965796
0.2616894613336498,3.663623270794262,0.4168179597417853
0.03654683759441371,3.693440547001341,0.3629225907961997
0.03752301340562525,3.683436821236751,0.3998518090577703
-0.06928145350133083,3.683079989680957,0.3939161942473186
0.1516574590560058,3.684026902067603,0.3984874216441278
0.1525215731390955,3.693440547001341,0.3629225907961997
0.2626877910219567,3.695026044978159,0.3483927490920779
0.03607915677766372,3.736470173539805,0.145858694639061
0.03584293239611457,3.711065171999518,0.2723863311868567
-0.07949836062284865,3.711802993195663,0.2614565824177212
0.1532254783373946,3.711065171999518,0.2723863311868567
0.1529892539558455,3.736470173539804,0.145858694639061
0.2721375092898586,3.736284365681138,0.1380064469787591
0.04079375362919356,3.784105163052813,0.01119904582979531
0.03772795950215946,3.761463758827959,0.05427038835913358
-0.07805956014254516,3.760975834239013,0.04553972223201654
0.1513404512313497,3.761463758827958,0.05427038835913357
0.1482746571043156,3.784105163052813,0.01119904582979531
0.2578132037301601,3.783056810282719,0.002055284797825965
0.04443827694202084,3.804462580347312,-0.07537513893765681
0.04352489250868876,3.800518119914117,-0.0251120602907469
-0.06044680505242901,3.798968189624206,-0.03460407916765643
0.1455435182248205,3.800518119914117,-0.02511206029074691
0.1446301337914884,3.804462580347312,-0.07537513893765682
0.2467400903343789,3.802745575495476,-0.08534922826958145
0.04475454262576362,3.798924323918966,-0.1962388179702485
0.04453462447601067,3.80165116462059,-0.1347222081322753
-0.05737894799300274,3.799934376988574,-0.1452654919787549
0.1445337862574986,3.80165116462059,-0.1347222081322753
0.1443138681077456,3.798924323918966,-0.1962388179702485
0.2457791839335467,3.797207746972208,-0.2073721042776577
0.04478567472949482,3.785045070298572,-0.312779920527513
0.04505128358683998,3.798120417719404,-0.257518436027806
-0.05580918854022586,3.796403902885253,-0.2692394518208618
0.1440171271466693,3.798120417719404,-0.257518436027806
0.1442827360040144,3.785045070298572,-0.312779920527513
0.2456845956197194,3.783429627590996,-0.3250309462144062
0.03936677145165502,3.634115554542759,-0.3784507898951914
0.04272611859867789,3.72947117073284,-0.3528675203382693
-0.0628737106650262,3.728260269377133,-0.3655030240157963
0.1463422921348313,3.72947117073284,-0.3528675203382693
0.1497016392818542,3.634115554542759,-0.3784507898951914
0.2621487873193854,3.63351239197253,-0.3913316613203392
0.03481847215613729,3.456207098976971,-0.4202525106087663
0.03692754325800811,3.53463900369306,-0.4000245891996132
-0.08049145564013154,3.534443774547221,-0.4131123737611436
0.1521408674755011,3.534639003693061,-0.4000245891996132
0.1542499385773719,3.456207098976972,-0.4202525106087663
0.275967832921305,3.456117991634104,-0.4335343000649476
0.02589137206566261,3.364606857884385,-0.4482194489764456
0.03083212281511007,3.402727666124658,-0.4362412265421746
-0.09901110168591643,3.402642690789977,-0.449676362903731
0.1582362879183991,3.402727666124659,-0.4362412265421746
0.1631770386678362,3.364606857884386,-0.4482194489764457
0.3030909387742252,3.364522413884604,-0.4617694678182363
0.1679625887527911,3.327425864456827,-0.4586418467604448
0.1731370261369311,3.28111383048529,-0.4699995647916893
0.3333522545074114,3.281008210420709,-0.4837584755403029
0.01593138459644852,3.281113830485291,-0.4699995647916893
0.02110582198066607,3.327425864456827,-0.4586418467604448
-0.1285624099961108,3.327334637142001,-0.4722918262528231
0.01063158490632147,3.204383781919603,-0.483665553133707
0.01186765607044776,3.236987137769887,-0.4793801160273833
-0.1566306235625325,3.236868833673469,-0.4932289951329744
0.1772007546628625,3.236987137769887,-0.4793801160273833
0.1784368258269657,3.204383781919602,-0.483665553133707
0.3494545751419309,3.20426263240106,-0.4975555336336297
0.01092566030262248,3.117981578657334,-0.4892926947526902
0.01079448648551929,3.168049807203025,-0.4863264773535375
-0.1598912224081729,3.167931464974555,-0.5002419786330056
0.1782739242477679,3.168049807203024,-0.4863264773535375
0.1781427504306647,3.117981578657334,-0.4892926947526902
0.3485610892370144,3.117867104875466,-0.5032366448619908
0.01103587134858449,2.98915066749195,-0.4898939846492885
0.01100918983380377,3.057085907980642,-0.4902210503195945
-0.1592388916867202,3.056976139211455,-0.5041739042366722
0.1780592208994834,3.057085907980642,-0.4902210503195945
0.1780325393847027,2.989150667491949,-0.4898939846492885
0.3482262362796715,2.989046147637251,-0.5038437016973018
0.01088975038002841,2.847747017186431,-0.4970526581227134
0.01100321390983464,2.918844790131156,-0.4922195339434193
-0.1592570482679997,2.918745702354648,-0.5061915552082964
0.1780651968234525,2.918844790131156,-0.4922195339434193
0.1781786603532587,2.847747017186431,-0.4970526581227134
0.3486701939431136,2.847653422672738,-0.5110710336188669
0.0102775086825407,2.698136785986142,-0.5002207155582569
0.0106550374212442,2.774345898294215,-0.5001952408269772
-0.1603149089013334,2.774257975007908,-0.5142437566630174
0.1784133733120429,2.774345898294214,-0.5001952408269772
0.1787909020507464,2.698136785986142,-0.5002207155582569
0.350530360873051,2.698054750882622,-0.5142694757210599
0.009146218436313611,2.544369138129611,-0.4960037171446731
0.009754474799956881,2.619621835689043,-0.4984740656808384
-0.1630510779883629,2.619545866925423,-0.5125060738196143
0.1793139359333302,2.619621835689043,-0.4984740656808384
0.1799221922969735,2.544369138129611,-0.4960037171446731
0.3539675470575717,2.544298983652826,-0.510012032304926
0.008097786215423675,2.438828111165665,-0.491624881155456
0.00857599428121349,2.483012719334409,-0.4935615384853783
-0.166631641836819,2.482947305469318,-0.5075464308428661
0.1804924164520737,2.48301271933441,-0.4935615384853783
0.1809706245178634,2.438828111165665,-0.491624881155456
0.3571529866537033,2.438766111158069,-0.5055911991377686
0.01026576878608409,2.372724927562945,-0.4900042790219199
0.007696307310875891,2.407732351321272,-0.490396579524293
-0.1693043846729138,2.407672753880933,-0.5043511169324311
0.1813721034224112,2.407732351321272,-0.4903965795242929
0.1788026419472031,2.372724927562945,-0.4900042790219198
0.3505660300658535,2.372668034918708,-0.5039550538972649
0.02718465622326091,2.252822703302054,-0.4907137221601691
0.01869075389929434,2.316084967010125,-0.4902717646728106
-0.1359000836580374,2.316032450567508,-0.5042251049884928
0.1703776568339928,2.316084967010125,-0.4902717646728106
0.1618837545100262,2.252822703302054,-0.4907137221601691
0.2991615683457331,2.252775074723379,-0.5046713012660878
0.03101799804988263,2.147479904633921,-0.4912766501916691
0.03052872665567603,2.196265934745405,-0.4910511618065316
-0.0999329067583255,2.196222675940645,-0.5050119772777555
0.1585396840776111,2.196265934745405,-0.4910511618065316
0.1580504126834045,2.147479904633921,-0.4912766501916691
0.2875147698243527,2.147440415208624,-0.5052396283097373
0.03094636909496419,2.050080089783041,-0.4914547335155871
0.0309704800014114,2.107076787305756,-0.4913947909984472
-0.09859073263281581,2.107040419566734,-0.5053589021985712
0.1580979307318757,2.107076787305756,-0.4913947909984472
0.1581220416383229,2.050080089783041,-0.4914547335155871
0.2877323992568333,2.050048125808386,-0.5054194196211345
0.03092806107580115,1.804291995069273,-0.4915002474913749
0.0309315036349233,1.950296414139603,-0.4914916891702151
-0.09870915408024052,1.950272159801022,-0.5054567297154373
0.1581369070983638,1.950296414139603,-0.4914916891702152
0.158140349657486,1.804291995069273,-0.491500247491375
0.2877880243015493,1.804279021543196,-0.5054653701189901
0.03093119060691889,1.502264523596554,-0.4914924675655107
0.03093056470069536,1.646372298041096,-0.4914940235506835
-0.09871200683334017,1.646371525943609,-0.5054590864848217
0.1581378460325918,1.646372298041096,-0.4914940235506836
0.1581372201263682,1.502264523596555,-0.4914924675655107
0.2877785158830353,1.50227488577017,-0.5054575155762797
0.03093510659839475,1.217406220945597,-0.4914827322612438
0.03093119060691889,1.36017311332775,-0.4914924675655107
-0.09871010514963738,1.360194453981113,-0.5054575155762797
0.1581372201263682,1.36017311332775,-0.4914924675655107
0.1581333041348924,1.217406220945597,-0.4914827322612437
0.2877666179710323,1.217438592268821,-0.5054476869012387
0.03098616025531647,0.9439794766648549,-0.4913558080726553
0.03095077056429811,1.080375712279831,-0.4914437910441759
-0.09865061558962238,1.080418671059829,-0.5054083722010747
0.158117640168989,1.080375712279831,-0.4914437910441759
0.1580822504779706,0.9439794766648548,-0.4913558080726553
0.2876115022305529,0.9440329738954714,-0.5053195453896571
0.03114675324283732,0.6241592596523401,-0.4909565226370168
0.03104939918987308,0.7916014269397425,-0.4911985822719123
-0.09835095336734548,0.7916666974318795,-0.505160811644806
0.158019011543414,0.7916014269397423,-0.4911985822719123
0.1579216574904498,0.6241592596523401,-0.4909565226370168
0.2871235743978163,0.6242374673124526,-0.5049164304291105
0.02994172269458786,0.3167237535116121,-0.4901377403267527
0.0312826306455246,0.4601044550592662,-0.4906186482328782
-0.09764232890970997,0.4601953381678547,-0.5045753154899284
0.1577857800877625,0.4601044550592662,-0.4906186482328782
0.1591266880386993,0.3167237535116121,-0.4901377403267526
0.2907848048965164,0.3168257147151059,-0.5040897952222173
0.01524742895914547,0.1381593770752099,-0.4889940786061632
0.02408900375201763,0.2101391554549423,-0.4894303423882438
-0.1194986430231049,0.2102493517575809,-0.5033756126685343
0.1649794069812695,0.2101391554549423,-0.4894303423882438
0.1738209817741416,0.1381593770752099,-0.4889940786061632
0.3354303090783089,0.138275134787491,-0.5029351647042349
0.008349087518915967,0.02793113041981793,-0.4918391600472066
0.009497934236644065,0.08027985029875737,-0.4899076538885305
-0.1638305222405597,0.08040007998588436,-0.5038575020374737
0.179570476496643,0.08027985029875737,-0.4899076538885305
0.1807193232143712,0.02793113041981792,-0.4918391600472066
0.3563894607845498,0.02805540475228925,-0.5058075331667216
0.009143627252675351,-0.05488059011978219,-0.4935716869946905
0.008737088754093517,-0.01552110389948441,-0.4930460757978943
-0.1661421903468653,-0.01539347229528519,-0.5070260243807666
0.1803313219791936,-0.01552110389948441,-0.4930460757978943
0.1799247834806118,-0.05488059011978219,-0.4935716869946905
0.3539754198211113,-0.05474991746389991,-0.5075566766859793
0.01007457467641319,-0.1628862992178719,-0.4978598763178824
0.009595881687526332,-0.1031204818244644,-0.4952450866300863
-0.1635329296235417,-0.1029860819856855,-0.5092461258063126
0.1794725290457608,-0.1031204818244644,-0.4952450866300863
0.178993836056874,-0.162886299217872,-0.4978598763178824
0.3511469329371676,-0.1627472816628313,-0.5118859937998651
0.01086090139936105,-0.2898505140558877,-0.4988254596588854
0.01051397278200447,-0.2264959291252979,-0.4991741662931891
-0.160743503977386,-0.2263519968675855,-0.5132128890588806
0.1785544379512827,-0.2264959291252979,-0.4991741662931891
0.1782075093339261,-0.2898505140558876,-0.4988254596588854
0.348757845470313,-0.2897016868011712,-0.512860837998203
0.01115779796375139,-0.414501627882556,-0.4978278341406964
0.01107474475593609,-0.3524344522026395,-0.498330652385619
-0.1590397169184129,-0.3522807894937869,-0.5123612850552763
0.1779936659773511,-0.3524344522026394,-0.498330652385619
0.1779106127695357,-0.4145016278825561,-0.4978278341406964
0.3478557880427364,-0.4143431696464444,-0.5118536443078996
0.01109753444371274,-0.5410205839744242,-0.4930903339263081
0.01115526701939749,-0.477075411536645,-0.496076288288083
-0.1587950670485507,-0.4769121186309688,-0.5100852994742273
0.1779131437138896,-0.477075411536645,-0.496076288288083
0.1779708762895744,-0.5410205839744243,-0.4930903339263081
0.3480388860047301,-0.5408523504408858,-0.5070707069864843
0.01085794274088867,-0.6693420556344281,-0.4876112927303553
0.01100015928178327,-0.6070433363739218,-0.4901393258884643
-0.1592663291093859,-0.6068700016914204,-0.5040913959909654
0.1780682514515039,-0.6070433363739218,-0.4901393258884644
0.1782104679923984,-0.6693420556344281,-0.4876112927303553
0.3487668347284277,-0.6691639075347999,-0.5015391166042601
0.01307070375219045,-0.7528623837569343,-0.4826287982787928
0.01064492819050203,-0.7156073243764967,-0.4850129367304951
-0.160345623661192,-0.7154256016602539,-0.4989158399132511
0.1784234825427851,-0.7156073243764967,-0.4850129367304951
0.1759977069810967,-0.7528623837569343,-0.4826287982787929
0.3420438283177759,-0.7526777825843926,-0.4965088353192596
0.02974550494841924,-0.8470922434082343,-0.4801169780856548
0.02087877994397345,-0.7998322234243118,-0.4810693095515238
-0.129252229212881,-0.7996439931975398,-0.4949343896203808
0.1681896307893137,-0.7998322234243118,-0.4810693095515238
0.1593229057848783,-0.8470922434082344,-0.4801169780856549
0.2913809710250216,-0.8469057382680013,-0.4939729243951911
0.03633866283398309,-0.9086879271522572,-0.4776675522512096
0.03470460009115622,-0.8801978601328986,-0.4792279924184411
-0.08724539837704379,-0.8800303033812973,-0.4930754125147679
0.154363810642183,-0.8801978601328987,-0.4792279924184411
0.1527297478994336,-0.9086879271522572,-0.4776675522512095
0.2713490550141021,-0.9085581946688828,-0.4915000062507174
0.03761848524548245,-1.011539897517913,-0.4619373165216154
0.03698526655572901,-0.9520568255332607,-0.4739292535192261
-0.08031607560645357,-0.9519595859577612,-0.4877258536988082
0.152083144177757,-0.9520568255332607,-0.4739292535192261
0.1514499254880267,-1.011539897517913,-0.4619373165216154
0.2674605852549598,-1.011450009985644,-0.4756189026853316
0.03762576415639567,-1.072620262214012,-0.3871986572534247
0.0378469635387613,-1.055961952635322,-0.4331758107393743
-0.07769799154255583,-1.055868632899575,-0.4465815468646007
0.1512214471947479,-1.055961952635322,-0.4331758107393742
0.1514426465771136,-1.072620262214011,-0.3871986572534247
0.2674384698233872,-1.072525655398954,-0.4001634289988734
0.03711450763278467,-1.086337093193567,-0.2638104558384911
0.03732928496462747,-1.079965266917559,-0.330031359542165
-0.07927084841900234,-1.079870092601727,-0.342447842842864
0.1517391257688818,-1.079965266917559,-0.330031359542165
0.1519539031007245,-1.086337093193567,-0.2638104558384911
0.2689918146573611,-1.086241426568133,-0.2755918180515186
0.03675210759451612,-1.081579182509739,-0.117543921777659
0.03692099763328123,-1.089965553273664,-0.1867835191297962
-0.08051134313669163,-1.089869606300703,-0.1978261201800142
0.152147413100228,-1.089965553273664,-0.1867835191297962
0.1523163031389931,-1.081579182509739,-0.117543921777659
0.2700928905386044,-1.081483883497139,-0.1279224496135185
0.03657794287114577,-1.022742566558494,-0.05046703482692092
0.03664364489154476,-1.053698725157889,-0.07848181127779315
-0.08135402079197499,-1.05360558028702,-0.08848569653525419
0.1524247658419645,-1.053698725157889,-0.07848181127779315
0.1524904678623635,-1.022742566558494,-0.05046703482692092
0.2706220532207683,-1.022651813468801,-0.06020223188631732
0.03656797284925211,-1.00567362499484,0.08329017016151541
0.03651856664801819,-1.006722367254733,0.005175039145107959
-0.0817340445852212,-1.006632851941717,-0.004026497807510904
0.1525498440854911,-1.006722367254733,0.005175039145107961
0.1525004378842571,-1.00567362499484,0.08329017016151541
0.2706523450239785,-1.005584190711321,0.07483783118415743
0.03769913978512063,-1.025472523045553,0.1694873470251038
0.03696413622746012,-1.014666554829631,0.1403220429906628
-0.08038027564059516,-1.014576425720873,0.1324166936053719
0.1521042745060491,-1.014666554829631,0.1403220429906628
0.1513692709483886,-1.025472523045553,0.1694873470251038
0.2672155334919063,-1.025381559029865,0.1618617204853892
-0.320442581657874,-1.01046876507316,0.1750480410416641
-0.3257149546494504,-0.9498658355901442,0.2208748746458209
-0.2009832825457323,-0.9497123209324474,0.2301259124863115
0.151001126395691,-1.010540099769359,0.2022495338837567
0.1514581678373707,-0.9499452759778941,0.2466492688622204
0.267485627890501,-0.9498481995481054,0.2397636981203444
-0.3323296447367229,-0.8692078107868513,0.2596592637748882
-0.3360476696212074,-0.800596910583409,0.2835941316698498
-0.2069875282719828,-0.800347927408818,0.2922905822802724
0.1521471005444789,-0.8693147713454883,0.284225868928169
0.1526147337677843,-0.8007352814760138,0.307415378385886
0.2709996088966871,-0.8005738642813982,0.3011126120972223
-0.8210735274896779,3.421066351073202,0.536333369479667
-0.7935843204992161,3.424041155835526,0.5391378854570956
-0.7908911963157265,3.455815204924117,0.5462154561733201
1.028711250908069,3.419592429588082,0.5319829561182932
1.038936760568809,3.419402775496863,0.5262993617631051
1.037998432074284,3.45111096466568,0.5325000059463634
-0.8515320850051411,3.357608309284016,0.5301401697195048
-0.8517010198738629,3.348485487708766,0.5395201881308805
-0.8417347289887394,3.348639080703832,0.538208785033453
1.040858843678929,3.34416236456808,0.5620064285610757
1.040840371513155,3.344052424888754,0.5503752702432418
1.030879943226971,3.34467438960915,0.546630343323359
1.013098776251448,3.386254463435268,0.5733408461487772
0.987923426632055,3.386967718924186,0.5696774177029703
0.9877280435726331,3.414570378614952,0.5766230186357159
-0.8417333335984235,3.384879206513889,0.5801659686998293
-0.85169476851125,3.38289950090005,0.5898409151949133
-0.8514998530504933,3.410447738356531,0.5970509923828428
-0.8510744039931506,3.448394436218564,0.6055363322555392
-0.8503681908408554,3.497316728795805,0.6159162783329999
-0.8404054689035321,3.499280036841222,0.6062159334407504
1.037866865251544,3.60491755378117,0.6380736760771453
1.038597401591146,3.552402888547567,0.6272912084242723
1.028634702508135,3.554317169705384,0.617744028824639
-0.8204419510045344,3.688612561028494,0.6400305291028847
-0.7952676977318109,3.689197837012385,0.6368113486109522
-0.7954938753970489,3.653299954917333,0.6287033396463324
1.027213329818527,3.687489996940103,0.6459728964932652
1.037174415500078,3.685921830440657,0.6543755023164062
1.037401349847144,3.649707494945064,0.6474026152833718
-0.8479872284155841,3.752755508837478,0.650344515275804
-0.8479702593975211,3.761354485970129,0.6411802963017158
-0.8380106927248275,3.761286089060849,0.639722437134118
1.036815252371614,3.763579205965592,0.6192852477214441
1.036974020569703,3.764964824016231,0.6308402375557748
1.027008220032992,3.764332198112934,0.631641850923822
-0.835983866982893,3.707439131212546,0.5936337333465294
-0.8462328387760331,3.710020154205818,0.5869947414823051
-0.8456992245541807,3.676271153428901,0.5783168764275928
1.00643311183773,3.704975295422861,0.5981285212751111
0.9788501126098292,3.702655559709384,0.6001546217280425
0.9765688513927875,3.670202117052462,0.5919030527219906
-0.8455844725249312,3.635161767725984,0.5693347281663946
-0.8460669080529646,3.587746995309769,0.5597168227045266
-0.8356940758796162,3.586603472601881,0.5665071587068833
1.036972035992199,3.490522470868012,0.5406250558374541
1.03598771184936,3.537347229037343,0.5498502243974308
1.025613012537041,3.536796304941186,0.5565015307359456
-0.8551653542304718,3.420827558424853,0.5129244401182613
-0.8542243348002641,3.419955325761626,0.5200247955157515
-0.853282371711123,3.451680480692853,0.5256996581105677
1.044451506364306,3.421137236599914,0.5057118914591303
1.045531053522624,3.419887293640296,0.5009247158983973
1.044422295600301,3.45144785985991,0.5048915808327515
-0.8584643014563868,3.358852754246702,0.5253743873338659
-0.8586586224956933,3.347975163744021,0.5458513050051013
-0.8578091305745691,3.348072268665838,0.5444912187545201
1.047898982551324,3.338697073375129,0.5900802881216487
1.047828021184022,3.341212234921753,0.5678437091971529
1.046980540335918,3.341698309773888,0.5644237352436643
-0.8579492597487587,3.374826813643215,0.6259685320247428
-0.8589583514514395,3.372409765228785,0.6341526086650909
-0.8588159756775443,3.400254138128135,0.6420271098817245
1.046522050298184,3.377846624868308,0.6134333185369407
1.04523993063208,3.380591810841004,0.600856259961938
1.045047124415794,3.4081269406086,0.6082111105616547
-0.8584306217940418,3.4387640958238,0.6504942725856848
-0.85774736967835,3.48819662715326,0.6606319047684075
-0.8566780241317239,3.489894006047162,0.6522640320624022
1.04521618841548,3.597383008056689,0.6810832044928386
1.045974683520763,3.543921003295928,0.6713794749091561
1.044906252146608,3.545355014629243,0.6630971472824565
-0.8606056660954716,3.412710831680522,0.5056988203827024
-0.8582501335260327,3.417191739617224,0.5003953485437325
-0.8573285824545882,3.448505912258639,0.5041209333733204
-0.8638913995411234,3.375598986976727,0.6134944522844296
-0.8649782813492781,3.382349499058721,0.584142575561039
-0.8649503332179566,3.412246082465402,0.5907802561349169
-0.7243814651870723,3.386950506412652,0.5684849837226345
-0.7690024376398931,3.387180331747896,0.5682899980127436
-0.7688072934302821,3.414787920727473,0.5752129171100782
-0.8538596373508487,3.682445148557378,0.6749405178664024
-0.8525813592287843,3.68421464286183,0.6639541458546991
-0.8528110438078878,3.647799605661263,0.6575930117532318
1.051160181160389,3.37240656623069,0.630020356674788
1.049426254008522,3.37146103274404,0.6358368556492348
1.049327406668815,3.399543025677057,0.6437776040765387
1.052154096761301,3.404676560592583,0.5208939822560251
1.053798903022312,3.393184908272662,0.5490633612651362
1.053674436979378,3.42373395697039,0.5542291660028714
0.8882507475400608,3.434392588359122,0.541223652108928
0.9475657257021732,3.428408012603742,0.5407132803719642
0.9427721916135837,3.461195221513815,0.5476426499095516
1.043413889792702,3.681160636068406,0.6860404610506223
1.044408120731737,3.681191475866009,0.6934706198354803
1.044701786770249,3.643534252713091,0.6889115730756761
-0.2610225508498917,3.449712618109195,0.5555300479177179
-0.03520935286348383,3.448059252507985,0.5583709729156671
-0.033824196688413,3.48954839256961,0.5660022861582522
-0.854942571337042,3.75106866179393,0.6677725763429216
-0.8548663395396089,3.761750373592364,0.6479142018260815
-0.8540704705168879,3.761682350217176,0.6466404480564197
0.4502068319793496,3.376425523120437,0.5795807436516282
0.224961851725994,3.374789480927364,0.5811503079012538
0.2249252145408372,3.402369952711191,0.588027772188408
1.043678803548078,3.769156551281696,0.6054851791974877
1.043845118820179,3.767765770151714,0.6272004123761108
1.043046504672176,3.767282063282725,0.6277966326251214
-0.2593040557391407,3.678306367864523,0.6457217051488835
-0.03522076629755551,3.6765978536715,0.6471952536645806
-0.03526317792231036,3.640743684559915,0.6390896644821912
-0.8517398499953323,3.71873226840817,0.5618618321617477
-0.8528174566553202,3.721533978888675,0.5565475515151437
-0.8521081275102873,3.686453479206851,0.5470864801224199
0.4484686658136921,3.703027973764749,0.6086765641443949
0.2237435807959093,3.703822234615969,0.6123387786251848
0.2222426168137838,3.6791480472807,0.6040147540875708
-0.4126067524749243,3.379103909563369,0.577011189134448
-0.5081916239769312,3.381891808724781,0.5742905744799398
-0.5080239634079847,3.409489355212928,0.5811907411355772
-0.8584677616863817,3.685058024089215,0.6894964448875964
-0.8567300480710138,3.682396255851689,0.6950273685358537
-0.8570733725443445,3.644290139094867,0.6906142412536065
-0.8594682300633971,3.718763047092342,0.5794096533497135
-0.8611219129433314,3.712633111219663,0.6092390670865001
-0.8614288960031822,3.673924534536877,0.6008853968436014
-0.6948435002125222,3.699474592847602,0.5985797628124009
-0.7545301728654444,3.700421320982653,0.6001794305777548
-0.7501504837411024,3.668058491436518,0.5914417040984212
1.040598015960049,3.715483407873419,0.5705404378974827
1.039662609310801,3.712605935567969,0.5793279086348863
1.039121214027764,3.678659276166566,0.5704857913114951
1.046043220565919,3.721762081192145,0.5626156090248422
1.043677405727277,3.722724392897612,0.5563528804450932
1.043163498945873,3.687016837532835,0.5467306516027768
1.04934564123393,3.691574184306004,0.6736190742261754
1.050438931089209,3.702368625605327,0.6448475581048359
1.050847035140797,3.663042405018734,0.6382879548424552
0.9098821120392909,3.689154943473163,0.6356568251521757
0.9544879155933457,3.689369034836545,0.6355570512312341
0.9547138167633094,3.653494489160749,0.6273631514424362
-0.6157566166963734,3.443444584415458,0.5419212260113792
-0.5414759494636582,3.45027494416588,0.5442609538654666
-0.5187767548036861,3.486353701099081,0.5424420873268467
-0.8517668978945965,3.64302576804875,0.538079982082861
-0.8520491132978094,3.592949677139357,0.5287402765413527
-0.850870275580378,3.592638928307115,0.5344690641589822
-0.6568981104845505,3.688331429989543,0.6366647085455891
-0.5828609987306836,3.686533033488236,0.6384632761882763
-0.5830728386951246,3.650655869304074,0.6303108143501963
0.8494799211798803,3.386104530265099,0.5697161445990495
0.7752893227963973,3.384334690364701,0.5717629662386519
0.7751063253270548,3.411937887990144,0.5786709425479126
-0.4017913407024091,3.701961451631816,0.6035744933347838
-0.477681894636359,3.700823536726757,0.5992106581066767
-0.4712044418926717,3.678322193551504,0.5810964178036278
1.043171536314303,3.491511414316068,0.5115232010356687
1.041977694288901,3.540047328294214,0.5195888979677601
1.040799545368268,3.540630629365755,0.5252893914400294
0.5990596066249546,3.681103399182862,0.6433093392672724
0.6941817135570818,3.684008223289164,0.640771375659029
0.6943757993501334,3.648134950828824,0.63263719563716
0.5934494641721803,3.451359102924149,0.551414711011869
0.6701952261734602,3.451859472795453,0.5476171159841518
0.6637855993256746,3.487698362219358,0.5453176308422952
0.8001214644305632,3.698973986662483,0.5960660037744625
0.7262010949164186,3.699328093332072,0.5960866843373105
0.7031324369117105,3.67508543596928,0.5779145386104354
-0.765303177332106,3.753746376484218,0.6418747037717111
-0.7652158930186598,3.761098468400705,0.6378604690656928
-0.720517927694653,3.76090198432601,0.6379506992573046
-0.7683820119609477,3.452715884810108,0.5837404295915255
-0.7676766014175076,3.501596227450542,0.5942468142146342
-0.7230612420969091,3.501376089372294,0.5943918391714929
-0.7677133940275355,3.358406373334147,0.5329629113495215
-0.7686238526515031,3.34919243869719,0.5367028400886811
-0.723486955900822,3.349218027201933,0.5368966561518133
-0.7503241877368467,3.630100654664041,0.5828632931077566
-0.7542431781225223,3.586849244889089,0.5741362897086151
-0.6910997220367834,3.589562593142266,0.5708807246657064
0.9581680993547945,3.346597342245233,0.5484829573462012
0.9580729321608379,3.345441871571462,0.5420491155870566
0.9133484454668168,3.345283046152058,0.5422129236228988
0.2242673372174165,3.741145903862958,0.6528680543934043
0.2242880054670091,3.748734238990819,0.6485091871088519
0.4483251460749921,3.750421080270557,0.6470347943971586
0.9551780329460244,3.608939671036885,0.6172526205024617
0.9559071169657749,3.55658853859071,0.6059277914537391
0.9112953050037292,3.556373900521217,0.6060441789985077
0.2253117792656634,3.351521773749494,0.545348200796265
0.2250939531861953,3.338938334466712,0.5486261821734662
0.4503220935519667,3.340515033896496,0.5470522526214442
0.9530733893212979,3.760194361830816,0.6257995220106356
0.9539351664983844,3.763312033348548,0.6325133631634096
0.9088665841324175,3.763125578037956,0.6325895652807211
0.2248453704298239,3.440254262413555,0.5964050190561648
0.2247129337218984,3.489061886875249,0.6066632371654795
0.4495280393859146,3.490724746764477,0.6051292027864309
-0.4093926425780722,3.755703218478492,0.6389707118570218
-0.5037626536954198,3.758362214293166,0.6364528637016427
-0.5012929569392179,3.755393252274616,0.6294761333711314
0.9415998382652762,3.499145280195285,0.5559219690583336
0.9439686514300311,3.542189368713204,0.5650914990659248
0.8808375344120274,3.547772924526397,0.5627889639512451
-0.6589130960355568,3.348940233250424,0.5376847122684278
-0.5845211036981322,3.347890747168004,0.5394424500776369
-0.5810942151706828,3.359506320392654,0.5360785096717468
-0.8617970846655954,3.626232441808641,0.5916258590748024
-0.8624735622638373,3.571761887156928,0.5813990890058235
-0.8603547691327821,3.581691075129428,0.550590219259658
0.6011723316431743,3.343197010443604,0.5445016656573722
0.6959515890701139,3.345914142099533,0.5418400799551657
0.6932881535372728,3.358300723520237,0.5386237038130719
0.2175843512204905,3.650446479457126,0.5961197417300095
0.2113356894881178,3.615733185237894,0.5884121620287504
0.4187216883365488,3.616208163164788,0.576530916767342
0.8444131580489265,3.762451532081701,0.6330360516227156
0.7702075195761129,3.760748487069626,0.6343705400666713
0.7670228076842101,3.757621228213599,0.6274053008692411
1.053149080048546,3.464317232563508,0.5616961312141421
1.052383811920137,3.515107787493581,0.5709762967737176
1.050269087511423,3.525931712265383,0.5406024312429251
-0.4658415618378738,3.645906636693517,0.4859984244977345
-0.4748971797988402,3.647793000799721,0.4871646863291247
-0.4723334120646482,3.646331542462454,0.4539655215083576
-0.4565625892488294,3.561001552150699,0.4748448192730737
-0.4491833716820798,3.585699790359465,0.4767456146022834
-0.4260228042017843,3.582181492407775,0.4468166423657299
-0.4959723814544467,3.538334190211242,0.4700304649890368
-0.4868730381759326,3.537359183811233,0.4713831453306808
-0.4911397205509855,3.531092129544152,0.4429527640910124
-0.5008669882224476,3.62313561135553,0.4779014023827056
-0.5092392654933378,3.597365338429245,0.4737931978174262
-0.5283634811136206,3.58746668163982,0.4347234407642983
0.6565724975835008,3.546588238750627,0.4739405927665343
0.6670046718287084,3.539878479862191,0.4727618787077141
0.6650069231413499,3.534007521538588,0.4451066158853907
0.6444910515345744,3.636034527565937,0.4824281293204925
0.6376922215989206,3.614414712647653,0.47919932528121
0.6142175318952658,3.609989321474617,0.4468278823810638
0.679672867157795,3.638555774571734,0.4830324172295283
0.6713395529751226,3.645545914125335,0.4861217632142305
0.6732513242380271,3.643529570595809,0.4522601209241743
0.694222821138097,3.546750788064062,0.4692448359029391
0.6998721253978084,3.56792954530586,0.4708745409533043
0.7192545339178752,3.560123017285601,0.4344226907638618
-0.2618211286597447,3.364404216977118,-0.4807355320458623
-0.2361715043801548,3.402523750168999,-0.4684816252517293
-0.3740083755452967,3.402744902043226,-0.4839651231140083
0.4757334483203878,3.327206945576957,-0.4913978061618529
0.5025962433677814,3.28086037321458,-0.5030169273555549
0.662769437429757,3.281141091975821,-0.5189136425441115
-0.5218555778366369,3.36591006546858,-0.498642614441103
-0.4928923117502267,3.404029826064281,-0.4863529927520376
-0.5865491052123465,3.404131837703654,-0.4770079996991203
0.7388966010567493,3.328842082842803,-0.5093359645238194
0.7691042644553057,3.282761973864151,-0.5215223512780958
0.8232057098948007,3.283542494908457,-0.5122196874749377
-0.6718714201119252,3.360810343730052,-0.4809800056860472
-0.6642760501300586,3.397942568856531,-0.4690740702284701
-0.7424204062406943,3.383545482655632,-0.4607625338340042
0.8683457818843128,3.324183702591708,-0.4913395056878556
0.8765679406350282,3.278300647702532,-0.5043407470783384
0.9657295904703476,3.259806046473309,-0.4954605883692922
-0.8892017462476868,3.24308621121867,-0.3268496998403919
-0.8579031927471523,3.244129819877225,-0.4400125060265688
-0.8356488463143278,3.298086997209525,-0.4330307283778869
1.024717257047836,3.298086997209526,-0.433030728377887
1.046971603480661,3.244129819877225,-0.4400125060265689
1.078270156981195,3.24308621121867,-0.3268496998403919
-0.07209148503707566,3.416401791697834,0.4475731308558731
-0.082129956276227,3.477078523764338,0.441625520620322
0.03244678768356433,3.474702693067147,0.4457056314956404
0.4899366856328222,3.422813522907445,0.4346630231322172
0.4947574520303044,3.451534308497688,0.4322582390053403
0.5567825006545845,3.455198558139049,0.4284958785727919
-0.4485010455696885,3.395439937731442,0.4282072904520697
-0.4598899913141933,3.362119143579297,0.4359838737467722
-0.5591634058259559,3.361395889408718,0.429012032660323
0.7115421284336738,3.42783038922911,0.4190435404887326
0.7044472354072534,3.459671677943506,0.4170565823765978
0.748050396197713,3.452778102970563,0.4141155994146047
-0.644996250168341,3.384005255156633,0.4168772805864149
-0.6498833290517416,3.352153950406265,0.4238241812300138
-0.7703313057743854,3.319277848819122,0.413558970047983
0.8951364132958458,3.393911446870857,0.4105204480752913
0.8871266418321302,3.416712259674222,0.408240000475474
0.9318333529109134,3.401770462482082,0.4042610730122093
-0.8491497240561268,3.352628408835574,0.3402932427188588
-0.8061723865463568,3.375697180936543,0.3867738960364678
-0.8114691541810487,3.35581075614742,0.38865347172125
0.9876371195881174,3.361737242783669,0.3955503914528002
0.9761358184049611,3.3847872304881,0.3902138351394636
1.038218134789636,3.352628408835573,0.3402932427188588
-0.859979352047662,3.365990544137115,0.2085477247784446
-0.8553939446374843,3.368435354758966,0.2851267597928972
-0.8667321505019423,3.335852662182585,0.2891383078365057
1.059589085622708,3.324542749162018,0.2883979181291256
1.0436398362528,3.370708755641838,0.2851267597928971
1.048221049981649,3.368254613070334,0.2083398576965408
-0.8613437317191816,3.364573692739897,0.08324496248222321
-0.8610776750232123,3.36485706301934,0.1383707623542918
-0.8737417755826948,3.331193204844084,0.1399432558094312
1.062913712124828,3.330255031834961,0.1400863136885347
1.049730632516297,3.365984431511123,0.1382665866788511
1.05041214245269,3.364573692739896,0.08324496248222324
-0.8608275556498162,3.364573692739897,-0.05435375091190963
-0.8612849418462609,3.364573692739896,0.02109295371143889
-0.8739637432537888,3.330968821524885,0.02108474829231765
1.063032153987298,3.330968821524885,0.02108474829231767
1.05035335257977,3.364573692739897,0.0210929537114389
1.049895966383325,3.364573692739897,-0.05435375091190966
-0.8678448659913378,3.33091801282376,-0.2158777807139483
-0.8551391298502851,3.364573692739897,-0.2147519208377988
-0.859378310877337,3.364573692739897,-0.1326542501334597
1.048446721610846,3.364573692739896,-0.1326542501334597
1.044207540583794,3.364573692739896,-0.2147519208377988
1.056913276724847,3.33091801282376,-0.2158777807139483
-0.4298153074923244,-1.02640845978808,0.1351227776511149
-0.4462115978033422,-1.01559229308962,0.1051992597838616
-0.5410948559942508,-1.0157227674829,0.1038260602491468
0.6352800085368509,-1.01559229308962,0.1051992597838616
0.6188837182258331,-1.02640845978808,0.1351227776511149
0.7024906950053327,-1.025954367129348,0.1331656961315381
-0.4557182278777321,-1.006590875885993,0.04668472266158033
-0.4561884453155406,-1.007489157897889,-0.03346117658610121
-0.558169065336921,-1.007780901627689,-0.03229014647771254
0.6452568560490493,-1.007489157897889,-0.03346117658610121
0.6447866386112409,-1.006590875885993,0.04668472266158033
0.7467657083591706,-1.007072822447835,0.04640092252111619
-0.4498871455275041,-1.022918676653771,-0.09054978408722143
-0.4385861404448654,-1.052776589777711,-0.1192928639702511
-0.5210448271305932,-1.049920737358423,-0.116572711075578
0.6276545511783742,-1.052776589777711,-0.1192928639702511
0.6389555562610128,-1.022918676653771,-0.09054978408722145
0.7341129192883474,-1.022099748572489,-0.08834839717923469
-0.4279935368651421,-1.079673693331127,-0.1593704767424359
-0.4231993723276707,-1.087731423376391,-0.2304101040352436
-0.4888582180984499,-1.082876264353023,-0.2256844651274234
0.6122677830611794,-1.087731423376391,-0.2304101040352436
0.6170619475986507,-1.079673693331127,-0.1593704767424359
0.6876168107398282,-1.075144453717782,-0.1559269879207011
-0.4213576647305611,-1.084099538819559,-0.3094395190600476
-0.4193135479161493,-1.077721698926103,-0.3773819753712365
-0.4847766340458223,-1.072660768368955,-0.3700305569701401
0.6083819586496579,-1.077721698926103,-0.3773819753712365
0.6104260754640699,-1.084099538819559,-0.3094395190600476
0.6755861623124685,-1.079286580304553,-0.3032875273525473
-0.416491843708276,-1.070369762136442,-0.4360354580321879
-0.4166810833763455,-1.053938050790444,-0.4832078849747487
