-0.5284052903660673,2.189783249495675,0.0750551253117497
0.8824091999442587,2.204505663462997,0.08102288253854231
0.8903471231921233,2.152629165908383,0.06581076415030743
0.9249910774184343,2.137867091933036,0.05127589606985679
-0.4530258301408031,2.263488374529965,0.1026886763135464
-0.3976478217501745,2.326724357114373,0.1283337517336431
-0.4810876326216047,2.311440055466399,0.1283337517336427
0.7909856784558906,2.326724357114373,0.1283337517336431
0.8463636868465191,2.263488374529965,0.1026886763135464
0.9036466319005028,2.248642030305204,0.1014951248681877
-0.3592771841384984,2.384981024894584,0.1482709530548603
-0.3476038208084702,2.434098296147211,0.163354648746025
-0.4519085250357217,2.417952489886429,0.163372734429936
0.7409416775141862,2.434098296147211,0.163354648746025
0.7526150408442145,2.384981024894584,0.1482709530548603
0.8531455228569334,2.369207780163324,0.1482709530548597
-0.345667672693639,2.474988593747113,0.1849807314887633
-0.3418879878915656,2.508397570702922,0.2172004899082227
-0.4469531167176851,2.491800011898373,0.217266794149776
0.7352258445972817,2.508397570702922,0.2172004899082227
0.739005529399355,2.474988593747113,0.1849807314887632
0.8425415609803315,2.458658300432554,0.1850711599083209
-0.3300633216638221,2.534904110157036,0.2567206085730728
-0.3107745270610894,2.556786199027376,0.3024257518112561
-0.4315977642551959,2.53963667415676,0.302305130921234
0.7041123837668056,2.556786199027377,0.3024257518112561
0.7234011783695382,2.534904110157037,0.2567206085730728
0.8356118500225627,2.517977915135044,0.2566180733669624
-0.2913847549231567,2.578020928007375,0.3553785637099884
-0.2766068572844151,2.602153265564252,0.4189062913058476
-0.3833991101759985,2.58455731333868,0.4189062913058468
0.6699447139901312,2.602153265564252,0.4189062913058476
0.6847226116288729,2.578020928007375,0.3553785637099884
0.8039601220270796,2.560640649478108,0.3553544395319834
-0.2685033873738577,2.632296057939009,0.4986007845847728
-0.266267588068728,2.661381747569143,0.5786582073574446
-0.3566789423701052,2.643288695909066,0.5786582073574433
0.6596054447744442,2.661381747569143,0.5786582073574447
0.6618412440795738,2.632296057939009,0.4986007845847728
0.7573084404312862,2.614447119911055,0.4986007845847719
-0.2661349995461025,2.678894634287053,0.6357381257725655
-0.2661129014589982,2.688741209763965,0.683896956939645
-0.3548850930858941,2.670418532546635,0.6835532225750444
0.6594507581647142,2.688741209763965,0.6838969569396449
0.6594728562518185,2.678894634287054,0.6357381257725655
0.7484792139750689,2.66065459851073,0.6357381257725638
-0.2661129014589982,2.700634664696372,0.7610575932881201
-0.2647294728984601,2.715365153798542,0.8600994311827167
-0.3531785724513027,2.696834885963546,0.8565300633039447
0.6580673296041761,2.715365153798542,0.8600994311827167
0.6594507581647143,2.700634664696372,0.76105759328812
0.7482229497916102,2.682212166758993,0.7593389214651256
-0.2591957586563071,2.726683027417658,0.9285296580510496
-0.2491290960840027,2.729504241817311,0.9549617407584001
-0.3351520559581901,2.710798369250002,0.9516641528938795
0.6424669527897188,2.729504241817311,0.9549617407584001
0.6525336153620231,2.726683027417658,0.9285296580510496
0.7396903466186529,2.708121216867592,0.9244321932411354
-0.2412994059506293,2.71033298454794,0.9646200584764992
-0.2463981704515114,2.659769101614481,0.9678062481541991
-0.3388926927559984,2.641250746764851,0.9653206181732364
0.6397360271572274,2.659769101614481,0.967806248154199
0.6346372626563455,2.71033298454794,0.9646200584764992
0.7220144144074027,2.691700417137678,0.9620366962519601
-0.2702669806151307,2.598850004710211,0.9675992011331888
-0.3041674199134457,2.538570099638819,0.9672049399254484
-0.4072020213077914,2.520450227755522,0.9645392891414003
0.6975052766191616,2.538570099638819,0.9672049399254484
0.6636048373208467,2.598850004710212,0.9675992011331887
0.7623057023989128,2.580330619301787,0.9649695545097576
-0.3287841279098973,2.463116253710105,0.9667519887287516
-0.3388511690961642,2.370599287999567,0.9661709646737064
-0.4460188257787345,2.353883819413366,0.9635053138896591
0.7321890258018802,2.370599287999567,0.9661709646737064
0.7221219846156133,2.463116253710105,0.9667519887287516
0.8278365999902425,2.445665953064708,0.9640863379447037
-0.3431520328921629,2.273053977348389,0.9651945778237567
-0.3464122286121302,2.180401164261488,0.9639652282635841
-0.4550929956975095,2.16451193918345,0.961299577479537
0.7397500853178463,2.180401164261488,0.9639652282635841
0.736489889597879,2.273053977348389,0.9651945778237567
0.8445182301220524,2.256859494230894,0.9625289270397097
-0.3492992854646236,2.100447758907504,0.9630350060991078
-0.3522030293808025,2.032943574481768,0.9631816162427738
-0.4620426447552569,2.017932096438553,0.9605159654587266
0.7455408860865187,2.032943574481768,0.9631816162427738
0.7426371421703397,2.100447758907504,0.9630350060991079
0.8518956637024053,2.084923410173953,0.9603693553150606
-0.3552355830144278,1.969581327206298,0.9654083784135544
-0.3583624051961821,1.905515917389774,0.9695240968369037
-0.4692708158025867,1.891635221920347,0.9668584460528567
0.7517002619018982,1.905515917389774,0.9695240968369038
0.7485734397201439,1.969581327206298,0.9654083784135545
0.8590199261872574,1.955132120546629,0.9627427276295073
-0.3614022909336693,1.839364429427537,0.9741430602447572
-0.36417961773281,1.770664850088182,0.9792195710249962
-0.4741929805155188,1.757980811925665,0.9765539202409491
0.7575174744385261,1.770664850088182,0.9792195710249962
0.7547401476393855,1.839364429427537,0.9741430602447572
0.8656016491698684,1.826070756834659,0.9714774094607099
-0.3665243455978414,1.699876068513556,0.9860479452214495
-0.3663847395488273,1.626968752278344,0.9686222359290706
-0.4702024727651873,1.616939612005587,0.9670754896068696
0.7597225962545434,1.626968752278344,0.9686222359290705
0.7598622023035575,1.699876068513556,0.9860479452214495
0.8680052900152038,1.68782020419062,0.9833822944374021
-0.3598273696216577,1.55142534739007,0.8736362332939377
-0.3510172752341492,1.467416339226942,0.7367573983643974
-0.4340252724817499,1.470121309338936,0.7459734473418662
0.7443551319398654,1.467416339226942,0.7367573983643974
0.7531652263273738,1.55142534739007,0.8736362332939377
0.8475575460737896,1.547585575125443,0.8765651048191241
0.1219912534041384,-0.06729692390871483,0.06840662492206089
0.1218765591850057,0.0591433554029434,0.06817223801171508
-0.02393472980120759,0.06042609214184841,0.06817223801171335
0.2714612975207726,0.05914335540294339,0.0681722380117151
0.2713466033017143,-0.06729692390871483,0.06840662492206089
0.416934290440365,-0.06557620945245678,0.06840662492205912
-0.3498888593272323,1.365313348920593,0.660343267368274
-0.3532046455240411,1.268656741245527,0.6496231838349356
-0.428911601747264,1.264372053083014,0.6633681318246407
0.7465425022297572,1.268656741245527,0.6496231838349356
0.7432267160329482,1.365313348920594,0.660343267368274
0.8200595940485236,1.366685834288208,0.673288997885232
-0.3528057728671943,1.203883812888357,0.6519294018103037
-0.3476520465478298,1.130954084414147,0.65106114305782
-0.4220777888348054,1.125192368380948,0.6647540068428089
0.7409899032535456,1.130954084414147,0.6510611430578199
0.7461436295729105,1.203883812888357,0.6519294018103037
0.8215463219409506,1.197341029086321,0.6656743498000088
0.1205715894711552,-0.3236244216577839,0.06919945374720349
0.1221513325392365,-0.1970097415447009,0.0687337894974565
-0.02312427269482089,-0.1948419730736384,0.06873378949745473
0.2711865241666657,-0.1970097415447009,0.0687337894974565
0.2727662672347594,-0.3236244216577839,0.06919945374720349
0.4211216568850663,-0.3209687102343882,0.06919945374720171
-0.3395858675436466,0.9889771514311796,0.651449923924293
-0.333229130621309,0.7736615369910712,0.6532916963465268
-0.4049250074911568,0.7706969052204014,0.6644194130492241
0.726566987327025,0.7736615369910712,0.6532916963465268
0.7329237242493626,0.9889771514311796,0.6514499239242931
0.8058435710662109,0.9847686852011554,0.6642052720243838
-0.3306489256568947,0.5561033942599813,0.6502731982215709
-0.3303043102102031,0.3785527854149466,0.6484615725575689
-0.4014148754341036,0.3792736186397174,0.6610639233063029
0.7236421669159192,0.3785527854149466,0.6484615725575689
0.7239867823626107,0.5561033942599813,0.650273198221571
0.7951663116273653,0.5541397272233826,0.6614243528163901
-0.3313734834206901,0.1956980016241251,0.663422559426645
-0.3335791094196964,0.03007449014722024,0.7276446792796613
-0.404986498789321,0.04800161369177841,0.7405305680200075
0.7269169661254125,0.03007449014722024,0.7276446792796613
0.7247113401264063,0.1956980016241251,0.663422559426645
0.7960358670449311,0.2041522951279926,0.6769389879681544
-0.3365101235975534,-0.00487730413273432,0.8945818562650102
-0.3396920980078011,0.05165582325280822,1.112068692758133
-0.4087375630292075,0.06303301737597178,1.116363989004912
0.7330299547135171,0.05165582325280823,1.112068692758133
0.7298479803032693,-0.00487730413273432,0.8945818562650102
0.8004078214131862,0.01402676138685385,0.9040315080079295
-0.3425872413671884,0.007859836357907411,1.22232046936152
-0.3451781240126542,-0.1714833751268705,1.194185911144693
-0.4135172895112789,-0.1665523387057727,1.194185911144689
0.7385159807183703,-0.1714833751268705,1.194185911144693
0.7359250980729044,0.007859836357907411,1.22232046936152
0.8041158364082901,0.01342575292885897,1.223179528610873
-0.3479676779013274,-0.3649959958744523,1.123147187644204
-0.3506782108422079,-0.5112641585558464,1.061145844060725
-0.4204371977478982,-0.5038041768615086,1.06114584406072
0.744016067547924,-0.5112641585558466,1.061145844060725
0.7413055346070435,-0.3649959958744523,1.123147187644204
0.8101568127804139,-0.3588212423002259,1.123147187644199
-0.3522514064961671,-0.6088379438401435,1.016582801259048
-0.3524014322750962,-0.6700626470557729,0.9878558527115643
-0.4267923505884316,-0.661087869666612,0.9878558527115606
0.7457392889808123,-0.6700626470557729,0.9878558527115644
0.7455892632018832,-0.6088379438401436,1.016582801259048
0.817354844327354,-0.6004275956313341,1.016582801259043
-0.351614939341907,-0.721078778190503,0.963359664498272
-0.3502942820983028,-0.7744474768738632,0.9377457348929039
-0.4264358921469396,-0.7645463970695132,0.9377457348929013
0.7436321388040189,-0.7744474768738632,0.9377457348929039
0.7449527960476232,-0.721078778190503,0.963359664498272
0.8209242200482672,-0.7116512878394488,0.963359664498269
-0.3487575181847786,-0.8291505123771432,0.9119223943629293
-0.3484619008658115,-0.8847057090496103,0.8892714022619171
-0.4258396259944251,-0.8738262067394529,0.8892714022619139
0.7417997575715275,-0.8847057090496102,0.8892714022619171
0.7420953748904946,-0.829150512377143,0.9119223943629293
0.8179294495389262,-0.8187640023240378,0.9119223943629263
-0.352003879029861,-0.9411669463185088,0.8756479468295357
-0.3580765217747278,-0.998264069014451,0.8704189298486922
-0.4536945314988988,-0.986376859135257,0.8704189298486895
0.751414378480444,-0.9982640690144511,0.8704189298486922
0.7453417357355771,-0.9411669463185086,0.8756479468295357
0.8298395136908099,-0.929786411621386,0.8756479468295325
-0.3614695184075545,-1.055402887371418,0.866462966645533
-0.3608062200204335,-1.114460851668279,0.8594292325786604
-0.468095389391298,-1.101542521073585,0.8594292325786588
0.7541440767261495,-1.114460851668279,0.8594292325786606
0.7548073751132707,-1.055402887371418,0.8664629666455331
0.8586681322744112,-1.043008632306278,0.8664629666455308
-0.3585436394904061,-1.179787052228791,0.847737463039133
-0.3559444033089942,-1.250709744767796,0.8301679710435993
-0.4658184932060042,-1.236582352674751,0.8301679710435987
0.7492822600147101,-1.250709744767796,0.8301679710435993
0.7518814961961221,-1.179787052228791,0.8477374630391329
0.8607887040331992,-1.166289022290239,0.8477374630391319
-0.3531353254552947,-1.322271944481873,0.8076532438574606
-0.3503564260279197,-1.388517213684316,0.7829717139790293
-0.459826501295302,-1.373166929418999,0.7829717139790275
0.7436942827336357,-1.388517213684316,0.7829717139790292
0.7464731821610107,-1.322271944481873,0.8076532438574605
0.8563973325574519,-1.307509515300135,0.8076532438574594
-0.3472936827026844,-1.455478032384763,0.7530199397806116
-0.3429139878859596,-1.544400638029307,0.7062999423960347
-0.4505838446159792,-1.527808589386349,0.7062151555617411
0.7362518445916756,-1.544400638029307,0.7062999423960347
0.7406315394084003,-1.455478032384763,0.7530199397806114
0.8494887020572848,-1.43953354330833,0.7530199397806094
-0.3364616768526496,-1.667276681692238,0.6298750221867185
-0.3201088199015755,-1.799566478962261,0.5343682792921704
-0.4189036176936339,-1.781959580436483,0.5337388773822083
0.7134466766072917,-1.799566478962261,0.5343682792921705
0.7297995335583656,-1.667276681692238,0.6298750221867184
0.8343130823048872,-1.650443435159605,0.6292815143466756
-0.09239163205773787,-1.925168281568398,0.4541931046954811
-0.07236004829344751,-1.985584318731648,0.4016035399624264
-0.1652104933048759,-1.97371631084976,0.4016035399624177
0.4656979049991835,-1.985584318731648,0.4016035399624263
0.4857294887634738,-1.925168281568398,0.4541931046954811
0.5854934695953893,-1.913608418366874,0.4541931046954723
-0.05847956405910579,-2.075745083706377,0.3090622228951713
-0.05819031539586615,-2.075513615392922,0.2958772564157359
-0.1461503355109327,-2.063186934025025,0.2958772564157238
0.4515281721016021,-2.075513615392922,0.295877256415736
0.4518174207648417,-2.075745083706376,0.3090622228951713
0.5398772697809814,-2.063417221762379,0.3090622228951582
-0.05386660232318481,-1.998520634251102,0.1798160087315403
-0.05805251485664293,-1.99841373971735,0.126098090142277
-0.1459649756286778,-1.986480296927552,0.1260980901422756
0.4513903715623666,-1.99841373971735,0.126098090142277
0.4472044590289145,-1.998520634251102,0.1798160087315403
0.533672228428439,-1.986586646258668,0.1798160087315361
-0.06163959122904825,-2.027544583577054,0.3626744800013297
-0.05874096383134382,-2.059231283052324,0.3307198310049994
-0.146891030211747,-2.046987647748527,0.330719831004987
0.4520788205370798,-2.059231283052323,0.3307198310049994
0.4549774479347842,-2.027544583577054,0.3626744800013296
0.5441279226992544,-2.015462562446261,0.3626744800013196
-0.05771281574432873,-2.053789164101931,0.2880508787536966
-0.05696928886873749,-2.01318627125552,0.2814838233408428
-0.1445078939458107,-2.001177482957731,0.2814838233408334
0.4503071455744734,-2.01318627125552,0.2814838233408428
0.4510506724500648,-2.053789164101931,0.2880508787536966
0.5388458922685383,-2.041573285666728,0.288050878753686
-0.05611737429533529,-1.983743037659885,0.2643691091221036
-0.05517183174196211,-1.982215900038979,0.2300361757572414
-0.142090077271933,-1.970365072368662,0.2300361757572346
0.4485096884476967,-1.982215900038979,0.2300361757572414
0.4494552310010711,-1.983743037659885,0.2643691091221037
0.5366998132994699,-1.971884421009085,0.2643691091220954
-0.4633391294903262,-1.859682527172702,0.4530512891256185
-0.4214656183974672,-1.918509541142142,0.4009305261514215
-0.5194997881204165,-1.882084450145145,0.4087516766624179
0.8148034751031832,-1.918509541142142,0.4009305261514214
0.8566769861960424,-1.859682527172702,0.4530512891256185
0.9376086996965519,-1.833949187018081,0.4547658027695479
-0.3921830854048262,-2.004803966175537,0.3090622228951491
-0.3911477916660776,-2.004579291528998,0.2958772564157155
-0.4857448179055444,-1.966062149118971,0.3010987629549033
0.7844856483717937,-2.004579291528998,0.2958772564157155
0.7855209421105422,-2.004803966175537,0.309062222895149
0.8807321656264109,-1.96627639925825,0.3148090576703123
-0.3791983931176019,-1.930827148726625,0.1789423100967786
-0.3880191583187422,-1.931226356576632,0.1252288942001736
-0.4697887938325945,-1.900188311645405,0.1250817047281132
0.7813570150244582,-1.931226356576632,0.1252288942001736
0.7725362498233179,-1.930827148726625,0.1789423100967786
0.8653367026080082,-1.896192776746231,0.1776113238500815
-0.401575854990998,-1.958262184395523,0.3625398772391147
-0.3942586274343365,-1.988774850701157,0.3307198310049786
-0.4916395271453664,-1.950991006465532,0.3368457094688896
0.7875964841400525,-1.988774850701157,0.3307198310049786
0.794913711696714,-1.958262184395523,0.3625398772391146
0.8945676696653064,-1.921513787415739,0.3692255339909351
-0.3900464689326016,-1.983492459632704,0.2880508787536787
-0.3883315712391641,-1.944081274305743,0.281483823340827
-0.4825148896091135,-1.908371133172637,0.2842454901560743
0.7816694279448799,-1.944081274305743,0.281483823340827
0.7833843256383176,-1.983492459632704,0.2880508787536787
0.8778234019119424,-1.945953709024191,0.292272179512691
-0.3863666841787313,-1.915502208763492,0.2643691091220897
-0.3837904445225565,-1.914216107190796,0.2298614360302791
-0.4772663737139682,-1.879983817349211,0.2305335047003115
0.7771283012282724,-1.914216107190796,0.2298614360302791
0.7797045408844472,-1.915502208763492,0.2643691091220897
0.8735810947152081,-1.88111808585631,0.2659777120798938
0.1032600293056904,-0.6105426921597428,0.07030686406485316
0.1136764165604981,-0.4668190134733178,0.06988442882478588
-0.04812144136670331,-0.463591384880354,0.0698844288247841
0.2796614401454165,-0.4668190134733178,0.06988442882478588
0.2900778274002242,-0.6105426921597428,0.07030686406485316
0.4721829288215615,-0.6067410332317496,0.07030686406485136
-0.1872921294435191,1.195445839576215,0.06825648082729695
-0.2355720648480406,1.300078337135797,0.06885790099528785
-0.3744914566626291,1.295275815690382,0.06870501092255582
0.6289099215537678,1.300078337135797,0.06885790099528785
0.5806299861492386,1.195445839576215,0.06825648082729696
0.7099150211269419,1.191204350960242,0.06825648082729507
-0.1657188457645642,-1.505814453608271,0.07890258125135945
-0.2153138016338347,-1.441749314977431,0.07798043646663896
-0.3466926266779032,-1.432655071666467,0.07784399830608837
0.6086516583395707,-1.441749314977431,0.07798043646663896
0.5590567024702999,-1.505814453608271,0.07890258125135946
0.6797851308107024,-1.496393453816872,0.07890258125135745
-0.2725214872518315,2.169050441926553,0.07787112836437814
-0.2643488753507229,2.215675156112937,0.08592849969342499
-0.4062227796416377,2.212989225088357,0.08494745506006773
0.6576867320564589,2.215675156112937,0.08592849969342499
0.6658593439575674,2.169050441926553,0.07787112836437814
0.8094046773302084,2.162852818492054,0.07545924924397626
-0.2709853747487207,2.07544430012864,0.07001771335207105
-0.2716973271138961,2.124093345191336,0.07337083671951684
-0.4149582166451464,2.115625355905326,0.06915979818436431
0.6650351838196321,2.124093345191336,0.07337083671951684
0.6643232314544567,2.075444300128641,0.07001771335207105
0.8073384036107132,2.066599523385293,0.06384934748823626
-0.2703689225684564,1.957850886763658,0.06943548293952483
-0.2705181624002334,2.019860359060107,0.06911878448636794
-0.4133720847349749,2.011299081476216,0.06097756355481449
0.6638560191059694,2.019860359060107,0.06911878448636794
0.6637067792741924,1.957850886763658,0.06943548293952483
0.8065091942026612,1.949605880983032,0.05954127530170993
-0.2711862325654939,1.828781413053669,0.06250372267996997
-0.2705515880095059,1.893677560473492,0.06718364812144921
-0.4134170465837055,1.885759862971355,0.05608447416492252
0.6638894447152419,1.893677560473492,0.0671836481214492
0.6645240892712299,1.828781413053669,0.06250372267996997
0.8076085838399041,1.82119471049165,0.05085687218470729
-0.2746107325869809,1.692221191581809,0.05943608525898581
-0.2724990711645276,1.761782832998109,0.05946075250083746
-0.4160366680334574,1.754537848579232,0.04781390200557485
0.6658369278702637,1.761782832998109,0.05946075250083745
0.6679485892927168,1.692221191581808,0.05943608525898581
0.8122149875912441,1.685330997890122,0.04833691130245918
-0.2809384680032551,1.551866191271812,0.06351941468117592
-0.2775362594654939,1.620554842860843,0.06112737041853294
-0.4228123500133634,1.614030174701047,0.05123316278071818
0.6708741161712299,1.620554842860843,0.06112737041853295
0.6742763247089911,1.551866191271812,0.06351941468117592
0.8207266254876152,1.545691861260324,0.05537819374962254
-0.2867816197706768,1.455739112324974,0.06775484655204278
-0.2841279479740017,1.495861691631837,0.06588418198619087
-0.4316790395980432,1.489973005787863,0.05971581612235614
0.6774658046797375,1.495861691631837,0.06588418198619087
0.6801194764764128,1.455739112324974,0.06775484655204278
0.8285864345260781,1.450055066837369,0.06356164519204222
-0.2853971235553973,-0.7298297719914604,0.06755196505437849
-0.2789711881353023,-0.693670567333778,0.06942224698321617
-0.4257572879585745,-0.6883918090727608,0.06814313922807125
0.6723090448410383,-0.693670567333778,0.06942224698321617
0.6787349802611332,-0.7298297719914604,0.06755196505437849
0.8265807136956058,-0.7243665880864534,0.06451792237175437
-0.2809529614761137,-0.7840911204933987,0.065874355160903
-0.2832268854882178,-0.7524302286097852,0.06638330571151203
-0.4303236008324274,-0.746851773813016,0.06144595433954347
0.6765647421939537,-0.7524302286097852,0.06638330571151203
0.6742908181818494,-0.7840911204933987,0.065874355160903
0.8206027301227845,-0.7783511831521375,0.05918170087923678
-0.2781053212817296,1.388431135548936,0.06926972482484649
-0.28894273440543,1.428187535302212,0.06892579287638553
-0.4381555617590803,1.422644013296345,0.06660309963174335
0.682280591111166,1.428187535302212,0.06892579287638553
0.6714431779874636,1.388431135548936,0.06926972482484649
0.8187215537850936,1.383109851825186,0.06840334774603735
-0.2757458194508723,-0.8826758458583061,0.06172209141451245
-0.2784233308935841,-0.8281232046772068,0.06425399838194781
-0.4238621869718197,-0.8221586870234445,0.05596353109175527
0.6717611875993199,-0.8281232046772067,0.06425399838194781
0.6690836761566081,-0.8826758458583061,0.06172209141451245
0.813598437990114,-0.8764330890652592,0.05203292750884691
-0.271347595856039,-0.9985653886935766,0.06078711480811972
-0.273288099193965,-0.9407370163959834,0.06044946135893242
-0.4169546237022322,-0.9341981256345989,0.04963448609308674
0.6666259558997009,-0.9407370163959834,0.06044946135893243
0.6646854525617749,-0.9985653886935765,0.06078711480811971
0.8076822477318718,-0.9917315513230829,0.04928266586534526
-0.2696869407662174,-1.112343594731476,0.06175311792958826
-0.2701514888574613,-1.055690335198474,0.06126623784756266
-0.4127354695104072,-1.048565138956932,0.0497617889047882
0.6634893455631972,-1.055690335198474,0.06126623784756265
0.6630247974719532,-1.112343594731476,0.06175311792958826
0.8054484478231441,-1.104929445401159,0.05093814266374258
-0.2700240174901881,-1.225435958204479,0.06634045046230398
-0.2697010972979108,-1.169459272486797,0.0634491438733622
-0.4121296335178627,-1.161753811559567,0.0537599799676966
0.6630389540036467,-1.169459272486797,0.0634491438733622
0.663361874195924,-1.22543595820448,0.06634045046230398
0.8059018604311291,-1.217444994971277,0.05804998317211141
-0.2713641447550182,-1.31865677804067,0.07164581886101085
-0.2705686737027396,-1.276136726170392,0.06919791844408715
-0.4132966380968384,-1.267887169810724,0.06250526416242087
0.6639065304084755,-1.276136726170391,0.06919791844408714
0.6647020014607541,-1.31865677804067,0.07164581886101085
0.8077045081815315,-1.310190353306188,0.06675963179924788
-0.1272264065310469,2.484454727124929,0.1849807314887725
-0.1236461145135998,2.51825668733849,0.2172004899082344
-0.2346400194478337,2.51715205595867,0.2172004899082269
0.5169839712193356,2.51825668733849,0.2172004899082344
0.5205642632367826,2.484454727124929,0.1849807314887725
0.6323508311968222,2.48352249854931,0.1849807314887665
-0.1387862155249655,2.393388416854585,0.1482709530548668
-0.1283827167281236,2.443083444956641,0.1633546487460324
-0.2405683640650898,2.442362225595107,0.1633546487460277
0.5217205734338595,2.443083444956641,0.1633546487460324
0.5321240722307014,2.393388416854585,0.1482709530548668
0.6467510985768001,2.392920660965152,0.1482709530548626
-0.2290940640308912,2.271443671629423,0.1036697997445248
-0.1754296422943817,2.334446487292174,0.1283337517336477
-0.2981066836358466,2.334279357575823,0.1283337517336448
0.5687674990001175,2.334446487292175,0.1283337517336477
0.6224319207366269,2.271443671629423,0.1036697997445248
0.7567350653304372,2.270972964124259,0.1034735908178521
-0.1624042119901802,1.0503150239976,0.06792270894390856
-0.1667048971711528,1.124820781627271,0.06798442365372515
-0.2917576215594053,1.120841426267733,0.06798442365372298
0.5600427538768691,1.124820781627271,0.06798442365372516
0.5557420686958963,1.0503150239976,0.06792270894390856
0.6796696146730094,1.046473846965662,0.06792270894390651
0.09513299339402823,-0.7395014593920124,0.0675519650543826
0.09648646634297831,-0.7030157588285853,0.06942224698322025
-0.0988240189646844,-0.6988447637833549,0.06942224698321843
0.2968513903629363,-0.7030157588285853,0.06942224698322025
0.2982048633118864,-0.7395014593920125,0.0675519650543826
0.4961540086524189,-0.7351847409760084,0.06755196505438077
-0.15910193710972,0.6848209607806879,0.06788117794961832
-0.1601282758942091,0.9053947877489725,0.0678895437069159
-0.2832703240340153,0.902142606623227,0.06788954370691402
0.5534661325999252,0.9053947877489726,0.06788954370691591
0.5524397938154361,0.684820960780688,0.06788117794961832
0.6752276198411034,0.6828631683177926,0.06788117794961651
-0.1590649525510605,0.3070387163621998,0.06789709491276816
-0.1590890105956335,0.4631289640564612,0.06788674101699209
-0.2818723752707045,0.4623735361316116,0.0678867410169903
0.5524268673013495,0.4631289640564612,0.06788674101699209
0.5524028092567765,0.3070387163621999,0.06789709491276816
0.6751778707365094,0.3069617193177507,0.06789709491276638
-0.1587793900845687,0.1517587090341697,0.06801999590129615
-0.1589773380488262,0.215879391667331,0.06793480178429004
-0.2817221609809375,0.2163553918555755,0.06793480178428826
0.5523151947545422,0.2158793916673311,0.06793480178429003
0.552117246790286,0.1517587090341697,0.06801999590129615
0.6747937515925054,0.1528133169871868,0.06801999590129437
-0.1578811325966196,-0.06344163136407299,0.06840662492205693
-0.15842567073871,0.06201735077634952,0.06817223801171116
-0.2809800957594769,0.06364076607264813,0.06817223801170941
0.5517635274444322,0.06201735077634952,0.06817223801171116
0.5512189893023493,-0.06344163136407298,0.06840662492205693
0.6735854769140862,-0.06126391704115204,0.06840662492205518
-0.1646213254899041,-0.3176742511259439,0.06919945374719953
-0.157121118748614,-0.1921528162166187,0.06873378949745254
-0.2792253014410824,-0.1894093160205002,0.06873378949745079
0.5504589754543486,-0.1921528162166187,0.06873378949745254
0.55795918219564,-0.3176742511259439,0.06919945374719953
0.6814937636543454,-0.3143132165375276,0.06919945374719777
-0.2468120835177325,-0.6020250050623519,0.07030686406484912
-0.1973578023205951,-0.45958745195184,0.06988442882478189
-0.3275581385054299,-0.4555026062702109,0.0698844288247801
0.590695659026331,-0.45958745195184,0.06988442882478189
0.6401499402234685,-0.6020250050623519,0.07030686406484911
0.7804695548104406,-0.5972136738921885,0.07005104251381869
-0.1266048558985321,-1.663553342100592,0.08093163535337748
-0.1379807457748229,-1.573520854526237,0.07976338815115515
-0.2526103571911316,-1.563754526437113,0.07976338815115314
0.5313186024805588,-1.573520854526237,0.07976338815115516
0.5199427126042673,-1.663553342100592,0.0809316353533775
0.6315147636987069,-1.653327814212741,0.08093163535337555
-0.07969728586304838,-1.923492439421616,0.09233039869871977
-0.1095724128542793,-1.788542079234109,0.08249505479696176
-0.2152660268524657,-1.777679061430329,0.08249505479696047
0.5029102695600106,-1.788542079234109,0.08249505479696176
0.4730351425687732,-1.923492439421617,0.09233039869871978
0.5684179013182458,-1.911941123650006,0.09233039869871931
-0.2589873331757962,-1.386922704977411,0.07647037988631897
-0.2725556159262396,-1.351323442841717,0.0741618130499998
-0.4159693371929394,-1.342690405739791,0.07138359191840413
0.6658934726319754,-1.351323442841717,0.0741618130499998
0.6523251898815321,-1.386922704977411,0.07647037988631897
0.7929863338170347,-1.378108098150511,0.07551531276247679
0.09606905215618913,-0.7942527552889169,0.06587435516090731
0.09559010326592693,-0.7623059845628319,0.06638330571151623
-0.1014678845893702,-0.757898185196607,0.06638330571151435
0.2977477534399877,-0.7623059845628319,0.06638330571151624
0.2972688045497255,-0.7942527552889169,0.06587435516090733
0.4933930587122403,-0.7897173609733378,0.0658743551609054
-0.6286811443892033,1.171038043335591,0.06825648082729377
-0.627914990378777,1.272520562022296,0.06647746571360554
-0.743008184587166,1.2672446400011,0.07493381028688328
1.021252847084493,1.272520562022296,0.06647746571360554
1.022019001094919,1.171038043335591,0.06825648082729377
1.130622139803084,1.161904577802496,0.07615842648775961
-0.5679780470113378,-1.451600977135379,0.07890258125135606
-0.5763218551809262,-1.389359146041771,0.07579937310684509
-0.6889374286129291,-1.363294555770881,0.08162353462942165
0.9696597118866421,-1.389359146041771,0.07579937310684509
0.9613159037170539,-1.451600977135379,0.07890258125135605
1.070485021386759,-1.430627374294894,0.08458975806748242
-0.581071900015987,2.120620139803704,0.04138240088039523
-0.5815556230480126,2.171867902783532,0.07080840367038728
-0.6896284034004672,2.142822513494059,0.07242303385530842
0.9748934797537285,2.171867902783532,0.07080840367038729
0.9744097567217029,2.120620139803704,0.04138240088039523
1.059548468438077,2.099688409074783,0.03755090263011716
-0.5781077453397201,2.025600004883088,-0.02203593695623426
-0.5792344253448493,2.073821983503277,0.01060147234472226
-0.664351969904365,2.058223963513087,0.008388529315245981
0.9725722820505651,2.073821983503277,0.01060147234472224
0.9714456020454361,2.025600004883087,-0.02203593695623429
1.070804620794938,2.008408534272034,-0.02423289080682521
-0.5791836546049025,1.910404709414706,-0.07900180418194228
-0.5790283233912099,1.970804841498175,-0.0529220377978863
-0.6785481211983993,1.952373705802251,-0.05699954094704957
0.9723661800969261,1.970804841498175,-0.05292203779788633
0.9725215113106186,1.910404709414706,-0.0790018041819423
1.072180286122852,1.892205327647707,-0.08426887535038183
-0.5810687283994828,1.785123464857052,-0.1122274891877359
-0.5796049608869083,1.848114890188348,-0.09933107763580365
-0.679447305106422,1.830637983150197,-0.1052128189215237
0.9729428175926241,1.848114890188348,-0.09933107763580368
0.9744065851051987,1.785123464857052,-0.1122274891877359
1.074539922694765,1.768377170196673,-0.1182947650960858
-0.5889671210209412,1.652571328311539,-0.1070786404982669
-0.5840967075610279,1.720091313941055,-0.1152704593668684
-0.6846877311496113,1.70409930121925,-0.1212695758405881
0.9774345642667439,1.720091313941055,-0.1152704593668684
0.9823049777266573,1.652571328311539,-0.107078640498267
1.083552909360127,1.637362452929276,-0.1127953470045328
-0.6030553121088991,1.516297629254393,-0.05852683645687812
-0.595714663659616,1.583008409190636,-0.08730991670293398
-0.6978245155514576,1.568606366317344,-0.09243340832040478
0.989052520365332,1.583008409190635,-0.087309916702934
0.9963931688146153,1.516297629254393,-0.05852683645687813
1.099475051667841,1.50241864608285,-0.06261137858716859
-0.6141623381348818,1.422930851943019,0.005205182617562107
-0.608386324752091,1.461784232632779,-0.02619661259111403
-0.712354756081156,1.447534760634005,-0.02862316567026862
1.001724181457807,1.461784232632779,-0.02619661259111403
1.007500194840598,1.42293085194302,0.005205182617562106
1.097157309932997,1.411455733181239,0.002768131237781794
-0.6014487372763999,-0.6988426476627325,0.0216346341110205
-0.6063183853892222,-0.6637627660844269,0.04975902709862969
-0.7077101310907028,-0.6579637086445698,0.05230801368423441
0.9996562420949382,-0.6637627660844269,0.04975902709862969
0.9947865939821159,-0.6988426476627325,0.02163463411102049
1.074311706060419,-0.690038031815558,0.01756679657934407
-0.596060785091227,-0.7509702521262778,-0.03416080820977496
-0.5978515051822857,-0.72033241722512,-0.007412721343854269
-0.6789660962734144,-0.7090785550026839,-0.01013712336572119
0.9911893618880018,-0.7203324172251201,-0.007412721343854264
0.9893986417969429,-0.7509702521262778,-0.03416080820977496
1.087244333208745,-0.7372614966959141,-0.03690856947111913
-0.6240834619509877,1.358254478355815,0.05578059156198963
-0.6197940825587993,1.396706922508018,0.03366586008517026
-0.7095502820461397,1.388284115838733,0.02977636828738024
1.013131939264515,1.396706922508018,0.03366586008517026
1.017421318656704,1.358254478355815,0.05578059156198963
1.130591169212984,1.353371179396694,0.05802799037984403
-0.5892351454901103,-0.8467516811178565,-0.08363903878203025
-0.5943737954169608,-0.7937821377148537,-0.06004906508689839
-0.6950748007104217,-0.7804087541022997,-0.0642103888355063
0.9877116521226766,-0.7937821377148538,-0.0600490650868984
0.9825730021958262,-0.8467516811178566,-0.08363903878203025
1.083503053409163,-0.8329719073762665,-0.08863011008280854
-0.5790909210570585,-0.9592398298666696,-0.1118077258707848
-0.5835665692246801,-0.9031087382619694,-0.1018015897118168
-0.6838620224599957,-0.8886753015288251,-0.1073587273106
0.9769044259303961,-0.9031087382619695,-0.1018015897118168
0.9724287777627747,-0.9592398298666696,-0.1118077258707848
1.072156220123793,-0.9441553510259914,-0.1177373620351936
-0.5752607251668744,-1.069678610209058,-0.1004979331411609
-0.5763321759460167,-1.014688141444228,-0.1113286028313418
-0.6756560324758147,-0.998960539788784,-0.1172572631916409
0.9696700326517328,-1.014688141444228,-0.1113286028313418
0.9685985818725904,-1.069678610209058,-0.1004979331411609
1.067699472264534,-1.053313196074729,-0.1060482950110197
-0.5755404273321063,-1.179646857386277,-0.05795570886122956
-0.5752933763114997,-1.12511792507772,-0.08191198632318039
-0.6742864716201803,-1.108109492477857,-0.08687893702043423
0.9686312330172155,-1.12511792507772,-0.08191198632318036
0.9688782840378223,-1.179646857386277,-0.05795570886122954
1.067801110091005,-1.162310682218657,-0.06207311193767266
-0.5765377159879678,-1.270826799750425,-0.001454638530563027
-0.5748056665412547,-1.229640260890298,-0.03080272420002877
-0.6736059073518308,-1.212943099144069,-0.03351018567120753
0.9681435232469706,-1.229640260890299,-0.03080272420002877
0.9698755726936839,-1.270826799750425,-0.001454638530563026
1.054658883976539,-1.255259531228875,-0.004235491204593796
-0.547892199398105,2.43908353041995,0.1854328735865548
-0.5463832702472509,2.47195905815974,0.2175320111159931
-0.6423413307175483,2.451703513104907,0.2203024431895383
0.9397211269529668,2.47195905815974,0.2175320111159931
0.941230056103821,2.43908353041995,0.1854328735865548
1.051001393358369,2.417230256088536,0.1904316921700165
-0.5582033439421542,2.349698159562896,0.1482709530548597
-0.5525455303897433,2.398133000168115,0.1634450771655828
-0.6630349065924499,2.376206957784702,0.1685944722973813
0.9458833870954595,2.398133000168115,0.1634450771655828
0.9515412006478703,2.349698159562896,0.1482709530548597
1.061959359767237,2.327989814855476,0.1538004352231469
-0.5776393710613167,2.230265943405188,0.1006457805399152
-0.5673839219129502,2.292486193945075,0.1283337517336427
-0.6755074482834824,2.27081512599431,0.1347111560374573
0.9607217786186661,2.292486193945075,0.1283337517336427
0.9709772277670326,2.230265943405187,0.1006457805399152
1.082516944325057,2.203716665057069,0.1078877350366467
-0.6227649514765081,1.028210834924318,0.06792270894390508
-0.6269266588689739,1.101921440481147,0.06798442365372148
-0.7355886380780133,1.093163151737142,0.07566949934163575
1.02026451557469,1.101921440481147,0.06798442365372148
1.016102808182224,1.028210834924318,0.06792270894390509
1.124250866038532,1.019732120767112,0.07558129382220809
0.09716581479256202,-0.8937276415272546,0.06172209141451689
0.09660185965275747,-0.8386824227532073,0.0642539983819522
-0.0984836608967824,-0.8339695769756781,0.06425399838195026
0.2967359970531572,-0.8386824227532072,0.0642539983819522
0.2961720419133526,-0.8937276415272546,0.06172209141451689
0.4901581050344462,-0.888794945926346,0.0617220914145149
-0.6152279896221531,0.6735547748157551,0.06788117794961526
-0.6175703607518976,0.8866799964476735,0.06788954370691272
-0.7250316882219019,0.8795013858490473,0.07554886823928489
1.010908217457614,0.8866799964476735,0.06788954370691272
1.008565846327869,0.6735547748157551,0.06788117794961526
1.115717736862248,0.6692332966506042,0.07554068905476784
-0.6151439304512345,0.3065956341469612,0.06789709491276516
-0.6151986100081641,0.4587818273472809,0.06788674101698906
-0.7223468146394728,0.457114354750248,0.07554612805317165
1.00853646671388,0.458781827347281,0.06788674101698906
1.008481787156951,0.3065956341469612,0.06789709491276516
1.11562330266535,0.3064256768850795,0.07555924699873533
-0.6144948989351335,0.1578274877960109,0.06801999590129318
-0.614944798632842,0.2186185515843496,0.06793480178428704
-0.7220620149183191,0.2196692372209251,0.07560809678205421
1.008282655338558,0.2186185515843496,0.06793480178428706
1.00783275564085,0.1578274877960109,0.06801999590129318
1.114894553530417,0.1601553470191919,0.07570936381502526
-0.6124533231411442,-0.05090989727801303,0.06840662492205396
-0.6136909592362617,0.07135935151095078,0.06817223801170819
-0.7206525796568013,0.0749427516358198,0.07587018303031497
1.007028815941978,0.0713593515109508,0.06817223801170819
1.00579117984686,-0.05090989727801303,0.06840662492205397
1.112597699222262,-0.04610298077644753,0.07610231625808606
-0.6092341736190963,-0.2983330587240221,0.06919945374719655
-0.6107259499814632,-0.1763652473142506,0.06873378949744959
-0.7173157556297631,-0.1703094592680622,0.07642215222599738
1.004063806687179,-0.1763652473142506,0.06873378949744957
1.002572030324812,-0.298333058724022,0.06919945374719655
1.108291998070412,-0.2909971789262114,0.07692665112717394
-0.6100000200851159,-0.5744318296604436,0.0663742200879294
-0.6094847024461148,-0.4360810630164771,0.06988442882477888
-0.7125053742320047,-0.4274795208748174,0.0777933446202068
1.002822559151831,-0.4360810630164771,0.06988442882477888
1.003337876790832,-0.5744318296604436,0.0663742200879294
1.109081840547171,-0.5686328424461882,0.0752179399739035
-0.5483857490797551,-1.605045490241877,0.0809346371484766
-0.56094387150067,-1.517320174151565,0.07976338815115172
-0.6718173694593412,-1.495727059597311,0.08496855716934858
0.954281728206386,-1.517320174151565,0.07976338815115172
0.9417236057854711,-1.605045490241877,0.08093463714847658
1.051052040190712,-1.58291295637221,0.08576661504418465
-0.4361879666438236,-1.859731023366454,0.09217817243503593
-0.505766388080879,-1.728377629093219,0.08251606736267626
-0.6066156536926257,-1.707468935999813,0.08692157951511044
0.8991042447865951,-1.728377629093218,0.08251606736267625
0.8295258233495395,-1.859731023366454,0.09217817243503593
0.9121757795272953,-1.836380655489029,0.09549256115716252
-0.5817381471077203,-1.335799568967644,0.06120293636778193
-0.5808661279252703,-1.301411823850302,0.03155663093810819
-0.6657694128724687,-1.2820752670834,0.02674765635065259
0.9742039846309862,-1.301411823850302,0.03155663093810819
0.9750760038134363,-1.335799568967644,0.06120293636778194
1.083328072383627,-1.308303255999884,0.06109588181990724
-0.07558347942428886,2.739109793161667,0.928529658051078
-0.06957144734176314,2.741964192954172,0.9549617407584244
-0.1614594575903976,2.739718568536032,0.9549617407584088
0.462909304047499,2.741964192954172,0.9549617407584243
0.4689213361300247,2.739109793161666,0.928529658051078
0.5628842896105706,2.736878727263953,0.9285296580510597
-0.07971454909613857,2.712755028647431,0.7610575932881477
-0.07888833516176862,2.727658789610112,0.8600994311827465
-0.1739918993295135,2.725486128169131,0.8600994311827273
0.4722261918675045,2.727658789610112,0.8600994311827463
0.4730524058018745,2.712755028647431,0.7610575932881477
0.5684411226413942,2.710658382034181,0.7610575932881297
-0.1112922392083204,2.545075018028828,0.2567206085730854
-0.0931576412257278,2.567214501628169,0.3024257518112676
-0.1976160908548598,2.565860166846035,0.3024257518112602
0.4864954979314637,2.56721450162817,0.3024257518112676
0.5046300959140563,2.545075018028828,0.2567206085730854
0.6131323239651456,2.543833603001388,0.2567206085730773
-0.07972774655931753,2.69075927451496,0.6357381257725847
-0.07971454909613857,2.700721673332226,0.6838969569396689
-0.1751032659356782,2.698686401390356,0.6838969569396535
0.4730524058018744,2.700721673332226,0.683896956939669
0.4730656032650535,2.69075927451496,0.6357381257725847
0.5684588749683075,2.688774814581683,0.6357381257725723
-0.08157764325432157,2.588699010569465,0.3553785637099984
-0.07936686408433614,2.613115212090269,0.4189062913058567
-0.1768506311340616,2.611526766293647,0.4189062913058509
0.4727047207900721,2.613115212090269,0.4189062913058567
0.4749154999600576,2.588699010569466,0.3553785637099984
0.5753773244736145,2.587235096651557,0.355378563709992
-0.07981921860774047,2.643612568232731,0.4986007845847832
-0.07980693133839134,2.673040387137874,0.5786582073574588
-0.1752275322240707,2.671146300243674,0.5786582073574496
0.4731447880441272,2.673040387137874,0.5786582073574587
0.4731570753134764,2.64361256823273,0.4986007845847831
0.5690249263963255,2.641868574364752,0.4986007845847765
-0.4298210570027655,2.685669051078293,0.9080423340014885
-0.4199409147686515,2.687837754284158,0.9384738014358058
-0.5064486114230528,2.660764352427069,0.9123089983763841
0.8132787714743676,2.687837754284157,0.9384738014358058
0.8231589137084816,2.685669051078293,0.9080423340014885
0.918831744755897,2.65440916329078,0.8753919671210327
-0.440792074794732,2.659691262079744,0.7524642341731581
-0.4385978712363387,2.67423690203005,0.8422525917888674
-0.5364239661669524,2.642387979328952,0.8138625321321173
0.8319357279420547,2.67423690203005,0.8422525917888674
0.8341299315004481,2.659691262079744,0.7524642341731581
0.9324973116662003,2.628153447911287,0.7388311502628258
-0.5468713646140243,2.497459416684185,0.2562079325425248
-0.5439988078921155,2.518750722544599,0.3018226473611497
-0.6594783522380998,2.49156783971624,0.3000713698206349
0.9373366645978314,2.518750722544599,0.3018226473611496
0.9402092213197404,2.497459416684185,0.2562079325425248
1.037430632167498,2.474297527729174,0.2549207373245323
-0.4419721497852177,2.638341090164645,0.6357381257725638
-0.440792074794732,2.648011089481524,0.6821782851166509
-0.5391618303719554,2.616931351179017,0.6795268653050153
0.8341299315004481,2.648011089481524,0.6821782851166509
0.8353100064909338,2.638341090164645,0.6357381257725638
0.9353599923166542,2.607640592260649,0.6359164834039238
-0.527958661063844,2.539341992233733,0.3552579428199665
-0.4974163057044464,2.562975905094361,0.4189062913058468
-0.6321407099210222,2.535231097452923,0.4197323657074543
0.8907541624101624,2.562975905094361,0.4189062913058468
0.92129651776956,2.539341992233733,0.3552579428199665
1.046990611370363,2.51228956332502,0.3554816357000543
-0.4676939108510858,2.59257815435922,0.4986007845847719
-0.4490525997281317,2.621142257636942,0.5786582073574434
-0.5591804039276294,2.591116267753885,0.5790612840356968
0.8423904564338477,2.621142257636942,0.5786582073574433
0.8610317675568017,2.592578154359219,0.4986007845847718
0.9888441283664994,2.563672398465344,0.4993144696289616
0.09809219768779388,-1.010663597346786,0.0607871148081246
0.09768347606152034,-0.9523130695712228,0.06044946135893705
-0.09529338173933283,-0.9471463846013026,0.06044946135893498
0.2956543806443943,-0.9523130695712228,0.06044946135893705
0.2952456590181207,-1.010663597346786,0.0607871148081246
0.4874256945250158,-1.005263861196196,0.06078711480812241
-0.0161343294541343,1.143601892193064,0.6382258231927911
-0.0180464962528266,1.217437325018563,0.6390506829435937
0.1238728766576023,1.220941648378287,0.6390506829436123
0.09844197582819989,-1.125469152265449,0.06175311792959297
0.09834412964178801,-1.068304347817127,0.06126623784756757
-0.09334475251149674,-1.062674395326361,0.06126623784756538
0.03227948595206683,2.670612613397673,0.9678062481542431
0.03417126048349749,2.722027029438918,0.9646200584765386
0.1415765256888057,2.721591406346229,0.964620058476553
0.01084558862006669,2.547374927724628,0.9672049399254945
0.02342353523002869,2.608668798734247,0.9675992011332372
0.137932670271363,2.607778608942331,0.9675992011332546
-0.002022986374335536,2.378338392675378,0.9661709646737364
0.001712148307752417,2.470651875588799,0.9667519887287904
0.1305717494261455,2.469208237698716,0.9667519887288044
-0.004828336537195971,2.202538024479969,0.9639652282636095
-0.00361871894661165,2.286191104461619,0.9651945778237822
0.1287643986550404,2.287127256624793,0.9651945778237914
-0.006976874562215289,2.061398591710431,0.9631816162427996
-0.00589950988191407,2.12827855431807,0.963035006099134
0.1279911306183483,2.134820433007493,0.9630350060991433
-0.009262163536638304,1.931827478955614,0.9695240968369294
-0.008102031005172698,1.996970530538424,0.9654083784135801
0.1272443987901945,2.003609759439904,0.9654083784135892
-0.01142050101600351,1.794708087096849,0.9792195710250234
-0.01039004038124297,1.864563259387755,0.9741430602447828
0.1264686834491773,1.870671534905178,0.974143060244792
-0.01297815787904221,1.647469450393662,0.967744141460922
-0.01229045617032269,1.722728570181151,0.9860479452214824
0.1258243759138506,1.728268088351973,0.986047945221494
-0.01438970599854431,1.475964585811088,0.7274328713927195
-0.01350319948244269,1.566153603142127,0.8692457609530357
0.1254132134414287,1.571140244905157,0.8692457609530501
-0.01819448840531296,1.280817471350444,0.6367444649682242
-0.01643603159040209,1.373842048787166,0.648091758835974
0.1244188806022904,1.378025700545052,0.6480917588359891
0.2949937270641265,-1.068304347817127,0.06126623784756758
0.2948958808777147,-1.125469152265449,0.06175311792959297
0.4863940072262395,-1.119610884356171,0.06175311792959087
-0.01078305170556656,0.7805781967196135,0.64259377731458
-0.0131415667949775,0.9992655260870735,0.6393957860896238
0.1255358195925633,1.002198866163762,0.6393957860896407
-0.009697867096279109,0.3789878338688877,0.6365349192903883
-0.009825728409559163,0.5600109174790244,0.6395557496388792
0.1266600049786915,0.560993344129185,0.6395557496389072
-0.01091290296212396,0.01410696268635966,0.7155708803421701
-0.01009455822585321,0.1886795816999491,0.650734253679872
0.126568862252266,0.1886908683025139,0.6507342536799039
-0.01318098106612397,0.03909689710795865,1.10804409311236
-0.01200038562031944,-0.02269667460671586,0.8857277370442098
0.1259227199931127,-0.02359099870399899,0.8857277370442451
-0.01521643970967368,-0.180830404507578,1.194185911144773
-0.01425515471567812,-0.0008892161603092606,1.221515549432429
0.1251582742718607,-0.002667499239877771,1.221515549432458
-0.017063710502566,-0.5254049318379646,1.061145844060822
-0.01625143691335363,-0.3767005541352719,1.123147187644292
0.1244814646652764,-0.3795377758150006,1.123147187644323
-0.01576902273952233,-0.6870747923287175,0.9878558527116381
-0.01687378796376379,-0.6247801850033792,1.016582801259139
0.1242704658545913,-0.6286446343267873,1.016582801259172
-0.01402019118451475,-0.7932154753084536,0.9377457348929589
-0.01470359422853935,-0.7389490638206604,0.9633596644983313
0.1250062375655864,-0.7432808771777313,0.9633596644983525
-0.01285586050938552,-0.905328356918427,0.8892714022619818
-0.01345001171615067,-0.8488386684439089,0.9119223943629879
0.1254312459577115,-0.8536111393037024,0.911922394363009
-0.01157844071574435,-1.020796877638639,0.8704189298487495
-0.01223214882739401,-0.9627393264629978,0.8756479468296006
0.1258441441459552,-0.9679685391564983,0.8756479468296238
-0.01016888253557441,-1.138948201853248,0.8594292325786944
-0.01089945300239819,-1.078896825836397,0.8664629666455794
0.1262959747228624,-1.084591830301295,0.866462966645596
-0.008365021810178192,-1.277488932283301,0.8301679710436121
-0.009329406183749063,-1.205373251892097,0.8477374630391529
