-1.171949592410879,5.630382597053327,1.35963117550069
-0.281594487528042,5.668833837539422,1.345914156696902
0.380282366891281,5.658765022317676,1.335777231331479
-0.2800866207873985,5.667880555572397,1.393783477420493
0.3758512330324487,5.656752743833551,1.383648515379332
-0.6029492855618863,5.65675274383355,1.383648515379332
0.05298856825729052,5.667880555572397,1.393783477420493
1.284196464411795,5.62339979604377,1.293854099336448
-1.400483151731929,5.626101174500036,1.302892430073055
1.271406812657099,5.617659286281551,1.345703390763717
-1.38876326422464,5.620653447026916,1.350770083264
1.161665211695871,5.620653447026914,1.350770083264
-1.498504865185868,5.617659286281552,1.345703390763718
1.886384263154011,5.480906780666839,1.131842335599389
-2.113482315682778,5.480906780666839,1.131842335599389
1.87947728949668,5.477465136163262,1.291366556496027
-2.106575342025447,5.477465136163261,1.291366556496028
1.93494959292844,5.254369273431159,1.287170565282512
-2.162047645457209,5.254369273431159,1.287170565282512
1.945484302346193,4.950881818659076,1.116614869976893
-2.172582354874962,4.950881818659076,1.116614869976893
1.94518767212653,4.950988731357204,1.279846914098289
-2.172285724655299,4.950988731357203,1.279846914098289
1.958613865272927,4.630777106406514,1.266018701976701
-2.185711917801696,4.630777106406514,1.266018701976701
1.974165521440952,4.39152807891764,1.108305238372556
-2.20126357396972,4.39152807891764,1.108305238372556
1.972632031388522,4.391866498149026,1.255235534640701
-2.19973008391729,4.391866498149027,1.255235534640701
1.985741590503418,4.251611446465908,1.250870904431034
-2.212839643032186,4.251611446465908,1.250870904431034
1.997888206284773,4.145555348970328,1.108301585858516
-2.224986258813541,4.145555348970329,1.108301585858516
1.997537523656933,4.146588931549548,1.250122190306235
-2.224635576185701,4.146588931549548,1.250122190306235
2.005997157181883,4.045145184223065,1.25125353535798
-2.23309520971065,4.045145184223065,1.25125353535798
2.006712721439239,3.946150931164086,1.111116917906445
-2.233810773968007,3.946150931164086,1.111116917906445
2.007480162704581,3.947395685940308,1.253595846811084
-2.234578215233348,3.947395685940308,1.253595846811084
2.004094309879189,3.854804370561241,1.256344895869578
-2.231192362407958,3.854804370561241,1.256344895869578
2.001429985648859,3.768797969727313,1.114912211154309
-2.22852803817763,3.768797969727313,1.114912211154309
2.003695466387722,3.770183624351941,1.258561317716708
-2.230793518916491,3.770183624351941,1.258561317716708
2.008480753210847,3.690243949136737,1.259688697008662
-2.235578805739617,3.690243949136736,1.259688697008663
2.012458862039889,3.604078196861118,1.115532624055611
-2.239556914568658,3.604078196861118,1.115532624055611
2.014988544627891,3.605593962298203,1.25955356787457
-2.24208659715666,3.605593962298204,1.25955356787457
2.01974872938216,3.503267040627609,1.259398449159304
-2.246846781910929,3.503267040627609,1.259398449159304
2.01566165621874,3.365012912775257,1.117449684994542
-2.242759708747507,3.365012912775257,1.117449684994542
2.019282710680937,3.366721320324908,1.26188184442348
-2.246380763209705,3.366721320324908,1.26188184442348
2.014807078953281,3.129686507969349,1.26393060882912
-2.241905131482048,3.129686507969349,1.26393060882912
-2.237493979033687,2.308350823764914,1.252784708883127
2.010395926504919,2.308350823764914,1.252784708883127
-2.238117151016334,2.744785674673231,1.260150404317998
2.011019098487567,2.74478567467323,1.260150404317998
-2.233115862202071,2.742607274367379,1.114375841525226
2.006017809673304,2.742607274367379,1.114375841525226
2.010989709247192,1.857187478456122,1.099663782654351
-2.238087761775961,1.857187478456122,1.09966378265435
2.014623141118477,1.859923494652822,1.244819956345506
-2.241721193647245,1.859923494652822,1.244819956345506
2.019298631742951,1.363661914101759,1.242712313911512
-2.24639668427172,1.363661914101759,1.242712313911512
0.9638746789426793,0.3071269716698473,-0.4396240606487858
-0.9085793823402979,0.3024665235736896,-0.4385427267634114
0.965430434006314,0.82657410424893,-0.4451297576002327
-0.9097103757818492,0.8255112633581601,-0.4438624305013853
0.6826123232529473,0.8255112633581602,-0.4438624305013854
-1.192528486535083,0.8265741042489297,-0.4451297576002327
-0.2829427682403804,0.2934718238742314,-0.4364557442730775
0.3842445289011036,0.297524095516125,-0.4373959668758642
-0.2831837442103543,0.8234599724857949,-0.4414164797172719
0.3849526795293616,0.8243841153820677,-0.4425184238989689
-0.6120507320587992,0.8243841153820677,-0.442518423898969
0.05608569168024635,0.8234599724857949,-0.4414164797172719
-1.416733153416136,0.3106699107199506,-0.4404461060765316
1.319604259416032,0.311850890403318,-0.4407201212191134
-1.418748279245773,0.8273820910386677,-0.4460931977191049
1.322168103563538,0.8276514199685801,-0.4464143444253956
-1.549266156092305,0.8276514199685801,-0.4464143444253957
1.191650226717005,0.8273820910386677,-0.4460931977191048
-2.220606697525418,-0.1231879099934592,-0.06015282486050057
1.99350864499665,-0.1231879099934593,-0.06015282486050057
-2.234577474852158,-0.5110668208793385,0.01781606170359445
2.00747942232339,-0.5110668208793384,0.01781606170359447
-2.234581797089057,-0.510939407266873,0.1526395911902539
2.007483744560288,-0.5109394072668729,0.1526395911902539
-0.2670919180454588,-0.001571417148358373,1.50082555636222
0.3376639942312965,-0.001920557460837191,1.494146247367906
-0.268112698232141,-0.226509660763145,1.498107071694842
0.3406637378596373,-0.2268693229124114,1.489603391687654
-0.567761790389075,-0.2268693229124114,1.489603391687654
0.04101464570203304,-0.226509660763145,1.498107071694842
0.8623213849674929,-0.002747933184207865,1.478317945927861
-0.8341852109404779,-0.002346392900540319,1.485999704614614
0.8688435693517612,-0.2277216327726092,1.469451784595057
-0.8389761272153603,-0.227307991504961,1.479231721085523
0.6118780746864585,-0.2273079915049609,1.479231721085523
-1.09594162188053,-0.2277216327726093,1.469451784595058
1.168959320928761,-0.003154942044541274,1.470337189305706
-1.289647871364499,-0.003053189829457917,1.472478163515692
1.177627725793019,-0.2281409074202107,1.45931496606735
-1.297707765756395,-0.2280360887583103,1.462016937519265
1.070609713227626,-0.2280360887583103,1.462016937519265
-1.404725778321787,-0.2281409074202107,1.45931496606735
1.998065108752078,0.8532750904664368,1.374137633803935
-2.225163161280846,0.8532750904664369,1.374137633803935
1.90552851797024,0.8782388037781025,1.444535384235799
-2.132626570499008,0.8782388037781027,1.444535384235799
1.889476590708422,0.3688905880144226,1.4412595359433
-2.11657464323719,0.3688905880144227,1.4412595359433
2.01031993824437,0.8339320446971619,0.8769904166006334
-2.237417990773138,0.833932044697162,0.8769904166006335
2.012466381697885,0.836120037578683,1.0156778914579
-2.239564434226654,0.836120037578683,1.0156778914579
2.004280304844402,0.3351419804040181,1.084493731669596
-2.23137835737317,0.335141980404018,1.084493731669596
2.000239781988003,0.8313559718214468,0.5861897048791307
-2.22733783451677,0.8313559718214472,0.5861897048791307
2.006234053315174,0.8320086583534827,0.7256365947485723
-2.233332105843942,0.8320086583534828,0.7256365947485725
2.000773897124548,0.3167513045392355,0.7853479870814952
-2.227871949653316,0.3167513045392354,0.7853479870814952
1.994763921345725,0.8313425313908893,0.3700388366504886
-2.221861973874491,0.8313425313908895,0.3700388366504886
1.995918277581589,0.831345266758222,0.4645742989289484
-2.223016330110357,0.8313452667582221,0.4645742989289484
1.991420697359555,0.3152491828689196,0.5159993528817275
-2.218518749888323,0.3152491828689194,0.5159993528817275
1.994688512534498,0.8310656433653042,0.2874081410085435
-2.221786565063265,0.8310656433653044,0.2874081410085436
1.994704737238315,0.8313424841096683,0.3187335480177571
-2.221802789767081,0.8313424841096684,0.3187335480177572
1.990335638193162,0.3155423917670353,0.3679362032014991
-2.217433690721929,0.315542391767035,0.3679362032014992
1.990283292422192,0.3127122326015113,0.1267058778585853
-2.217381344950959,0.3127122326015113,0.1267058778585853
1.994675336958048,0.8285126655100964,0.09291919097506919
-2.221773389486814,0.8285126655100965,0.09291919097506923
1.99468279782664,0.8299583276690695,0.2134118016044199
-2.221780850355406,0.8299583276690696,0.2134118016044199
0.8989484702495001,-2.068900630961088,1.506861842298106
-0.8611964577729641,-2.069857947652957,1.517144653642413
0.8960735624170899,-2.154086871952916,1.508070756467554
-0.8590906495052068,-2.154688814277334,1.518188177624071
0.6319925969763052,-2.154688814277334,1.518188177624071
-1.123171614945858,-2.154086871952916,1.508070756467554
0.8928722276810994,-2.244605651568338,1.510790830582399
-0.8567457405384191,-2.244866791516372,1.520299176406906
0.8893435122439145,-2.342586549928543,1.514713443281794
-0.8541610322363253,-2.342674207720157,1.523247589532777
0.6270629797074233,-2.342674207720157,1.523247589532777
-1.116441564772684,-2.342586549928542,1.514713443281794
0.8856873370950593,-2.446362823224266,1.516708635530561
-0.8514829624317801,-2.446307576742776,1.524511932898002
0.8819086050395881,-2.579137250265819,1.509775283186814
-0.8487151223242333,-2.579061601336875,1.517383091500742
0.6216170697953335,-2.579061601336875,1.517383091500742
-1.109006657568357,-2.579137250265819,1.509775283186814
0.8778172006980849,-2.788982132483082,1.483041097001967
-0.845718256479728,-2.789329173153653,1.490964319440997
0.8735826049183245,-3.050954486456833,1.430151253870529
-0.8426165059807833,-3.051938636643072,1.438416438414327
0.6155184534519008,-3.051938636643072,1.438416438414327
-1.100680657447093,-3.050954486456833,1.430151253870529
0.8697338947752739,-3.267096043918754,1.349268396830107
-0.8397974084263959,-3.268153789053852,1.356957837711853
0.8662315905241376,-3.397098449651577,1.253935172662097
-0.8372320457510678,-3.397640850147026,1.260806361045409
0.6101339932221755,-3.397640850147027,1.260806361045409
-1.093329643052906,-3.397098449651578,1.253935172662097
0.8624676556003581,-3.458303261489089,1.173074231891686
-0.834475044224805,-3.458468462195949,1.181179306547538
0.8621312152689915,-3.474340326213495,1.11089325091821
-0.8342286089048899,-3.474528550027207,1.122000369146017
0.6071305563759882,-3.474528550027207,1.122000369146017
-1.08922926779776,-3.474340326213496,1.11089325091821
0.8732085566247047,-3.475127779555422,1.046884932015149
-0.8423425236358795,-3.475536321020627,1.05989964056385
0.8922259556081755,-3.475586442878506,0.9722213897683296
-0.8562723601193875,-3.476303723511966,0.9852364157697091
0.6291743075904853,-3.476303723511966,0.9852364157697093
-1.119324008136945,-3.475586442878506,0.9722213897683294
0.9042496770060916,-3.475639823179398,0.8897541510759158
-0.8650794779140867,-3.47673944679292,0.9020991929779312
0.9057325924841364,-3.475409324990262,0.8136091090972345
-0.8661656816660287,-3.476884870560918,0.8253355299785827
0.6390676291371265,-3.476884870560918,0.8253355299785827
-1.132830645012906,-3.475409324990261,0.8136091090972343
0.9045141805869892,-3.475214250378774,0.769186523252772
-0.8652732211086428,-3.476914064919126,0.7805520441374595
0.9039770686933943,-3.475397232255054,0.7314672369977342
-0.8648797981774826,-3.47719135831982,0.7425263171378226
0.6377817456485804,-3.47719135831982,0.7425263171378226
-1.131075121222164,-3.475397232255054,0.7314672369977341
0.9030470330161611,-3.476324234371656,0.625012677822044
-0.8641985670102268,-3.478271337564388,0.6352068949803971
0.9017956676656866,-3.478412752922538,0.4499441980125322
-0.8632819687557344,-3.480565628217097,0.4587161158477878
0.6361839162268319,-3.480565628217097,0.4587161158477878
-1.128893720194457,-3.478412752922538,0.4499441980125322
0.9010641875652723,-3.481665551696226,0.2707160759049928
-0.8627461752858397,-3.483938567630373,0.2780319004615958
0.9008164292533555,-3.485182625920361,0.1150579883145181
-0.8625646976413185,-3.48749616504783,0.121138069805275
0.6354666451124168,-3.48749616504783,0.121138069805275
-1.127914481782124,-3.485182625920361,0.1150579883145182
0.9045872973921849,-3.431505896408129,-0.3816271470720729
-0.8653267775987527,-3.440131247277265,-0.3790595444136559
0.9125840117401722,-3.288999282035125,-0.4326076775498337
-0.8711841991825142,-3.307521720126597,-0.4303901166538936
0.6440861466536119,-3.307521720126597,-0.4303901166538936
-1.139682064268942,-3.288999282035125,-0.4326076775498337
0.9218615306315952,-3.06328805030554,-0.4326076775498303
-0.8779797825976017,-3.087499428125427,-0.4303901166538869
0.9291887669901764,-2.823795328814501,-0.4335357297546011
-0.8833468259267004,-2.846484390243973,-0.431057229269289
0.6562487733977982,-2.846484390243973,-0.431057229269289
-1.156286819518947,-2.823795328814501,-0.4335357297546011
0.933792324648179,-2.664213473085876,-0.4372479385736882
-0.8867188330804712,-2.684456417641668,-0.4337256797309051
0.936345562201665,-2.593057437528767,-0.4436920606430268
-0.8885890247746413,-2.612473442211364,-0.438252123886694
0.6614909722457394,-2.612473442211364,-0.438252123886694
-1.163443614730434,-2.593057437528767,-0.4436920606430269
0.9389685930104965,-2.533664775437508,-0.4509075048249456
-0.8905103385300074,-2.552671516579331,-0.443015648201768
0.9424734179863009,-2.452754453943538,-0.458109122882264
-0.8930775475820291,-2.471203657445291,-0.4476702545645996
0.6659794950531268,-2.471203657445291,-0.4476702545645996
-1.169571470515071,-2.452754453943538,-0.458109122882264
0.9463639255924699,-2.3604268540154,-0.4656872094782918
-0.8959272608808286,-2.378239845582423,-0.4531448602870219
0.950247053321722,-2.265327293675075,-0.4725323506993296
-0.8987715685782203,-2.282484972255263,-0.4585470777974291
0.6716735160493184,-2.282484972255263,-0.4585470777974291
-1.177345105850491,-2.265327293675075,-0.4725323506993298
0.9538327876961021,-2.174646027997978,-0.4760354240546685
-0.9013980420277082,-2.191178839219705,-0.4611632146407771
0.9570904812498211,-2.089094587413598,-0.4754493500599444
-0.9037842326185521,-2.105037879926126,-0.4601565582680769
0.6766861800896503,-2.105037879926126,-0.460156558268077
-1.18418853377859,-2.089094587413598,-0.4754493500599443
0.9602488525292544,-2.002905777705489,-0.4718890922371384
-0.9060976717757656,-2.018255159519383,-0.4565673760363941
0.9634204682097323,-1.9130199976186,-0.466086114472852
-0.9084208121724089,-1.92774999361397,-0.4511330744245768
0.6813227596435072,-1.92774999361397,-0.4511330744245768
-1.190518520738501,-1.9130199976186,-0.4660861144728521
0.9666017430955385,-1.819085238859274,-0.4583883810183064
-0.9107510277295885,-1.833167948294015,-0.4442881990332556
0.9696377568582921,-1.725993984084253,-0.4503302609520197
-0.9129748426326464,-1.739435219383926,-0.437625117832309
0.6858767901037444,-1.739435219383926,-0.4376251178323089
-1.196735809387061,-1.725993984084253,-0.4503302609520198
0.9722222540369472,-1.643883206900677,-0.4446325281798079
-0.9148679313311612,-1.656758632448393,-0.4338940211608635
0.9741955007048238,-1.578926893342309,-0.4414644197034625
-0.9163132921530612,-1.591354717284935,-0.4331155420650366
0.6892152396241589,-1.591354717284935,-0.4331155420650366
-1.201293553233594,-1.57892689334231,-0.4414644197034625
0.9755442844696078,-1.533336041869534,-0.4384436356207506
-0.9173012473046245,-1.545449707923901,-0.4325807562979358
0.9769620446069738,-1.458850356252143,-0.4351480585749494
-0.9183397261682958,-1.470840270929559,-0.4314185882550194
0.6912416736393937,-1.470840270929559,-0.4314185882550195
-1.204060097135743,-1.458850356252143,-0.4351480585749493
0.979848872060584,-1.25673824556933,-0.4331157537548456
-0.9204542653026873,-1.268893505400101,-0.4305958109740962
0.9806018609764753,-0.9165336080409172,-0.4328844071573461
-0.9209867829779574,-0.9283844944010202,-0.430813993994166
0.6938887304490556,-0.9283844944010201,-0.430813993994166
-1.207699913505243,-0.9165336080409172,-0.432884407157346
0.9743757818318344,-0.5213841924785819,-0.433714595979942
-0.9163692220474526,-0.5315682161952189,-0.4320856260151004
0.9663821261305881,-0.1309753356051992,-0.4355385016031877
-0.9104502885470891,-0.1386581292589195,-0.4343604415942907
0.6833522360181871,-0.1386581292589196,-0.4343604415942907
-1.193480178659357,-0.1309753356051991,-0.4355385016031878
0.9652033480599096,1.358926230572724,-0.4487172033522704
-0.9095440402012651,1.361545590414538,-0.4472817364579403
0.9621727307346749,1.860480736860045,-0.449705017901572
-0.9073271169154695,1.866400915395311,-0.4481928257902736
0.6802290643865675,1.866400915395311,-0.4481928257902735
-1.189270783263444,1.860480736860045,-0.4497050179015719
0.960143244554609,2.312272227107847,-0.4500688303467402
-0.9058523172287875,2.320670559285416,-0.4484178771630518
0.96028073066258,2.743846855924335,-0.4507045460608195
-0.9059749009019827,2.754037177756628,-0.4485930882204359
0.6788768483730808,2.754037177756628,-0.4485930882204358
-1.187378783191349,2.743846855924335,-0.4507045460608196
0.9606539716720934,3.085424288624523,-0.4510626221161965
-0.9062678842128016,3.096909929581127,-0.4475063665233461
0.9612020729038369,3.2361470805244,-0.4518792107871816
-0.906683387226916,3.248318514908778,-0.445555079549894
0.6795853346980143,3.248318514908779,-0.445555079549894
-1.188300125432605,3.2361470805244,-0.4518792107871816
0.9646721857168195,3.311321908550892,-0.4559095208301373
-0.909255169833997,3.324011358380488,-0.4465079305108064
0.97015184225979,3.409811053287808,-0.4617100019138081
-0.9133138998162935,3.42317917308579,-0.449781383404714
0.6862158472873916,3.42317917308579,-0.4497813834047139
-1.197249894788558,3.409811053287808,-0.4617100019138081
0.9725894692883264,3.514629207270333,-0.4632707079142914
-0.9151294087520177,3.528719609035926,-0.449340096265461
0.9709266082688333,3.614494592184275,-0.4596582501169122
-0.9139188986213741,3.629273147327607,-0.4442495451471923
0.6868208460924723,3.629273147327606,-0.4442495451471923
-1.198024660797602,3.614494592184275,-0.4596582501169123
0.968097915378541,3.703828958866068,-0.4550157972162226
-0.9118469418065605,3.719223100143004,-0.4386760241243526
0.9665836561506795,3.78554433905695,-0.4508906715581019
-0.9107445102722256,3.801501565480354,-0.4341224340422567
0.6836464577433239,3.801501565480353,-0.4341224340422566
-1.193681708679448,3.78554433905695,-0.4508906715581019
0.9684097054744784,3.871043045402958,-0.4462343491397564
-0.9121089755654697,3.887589427153957,-0.4294282825170893
0.9722203084542758,3.964599057566097,-0.4408730906963025
-0.914940545489571,3.981790116006958,-0.4244184187835123
0.687842492960669,3.981790116006959,-0.4244184187835123
-1.199318360983045,3.964599057566097,-0.4408730906963025
0.9732780804095194,4.063358022224336,-0.435507941700767
-0.9157422641039843,4.081229609911344,-0.4199030336946649
0.9706151472080797,4.161272273428625,-0.4313186257986286
-0.9137984535441207,4.179818569601991,-0.4171380093337598
0.6867004010152187,4.179818569601991,-0.4171380093337598
-1.197713199736849,4.161272273428625,-0.4313186257986286
0.9670331452662511,4.249100832602892,-0.429963544807818
-0.9111747140213473,4.268252338676661,-0.4178249190140831
0.9639961597485074,4.321377977819055,-0.4322577575619294
-0.9089501873286212,4.341027531956791,-0.4226841124535545
0.6818521347997194,4.34102753195679,-0.4226841124535545
-1.191094212277276,4.321377977819056,-0.4322577575619294
0.9616307245675038,4.376413243797021,-0.4381729799102203
-0.9072175568404903,4.396442035487488,-0.4314547157747274
0.959605484470985,4.459812608173252,-0.4438177988333124
-0.905740952853992,4.480627774227477,-0.4398024619091794
0.6786429003250899,4.480627774227477,-0.4398024619091794
-1.186703536999755,4.459812608173253,-0.4438177988333125
0.9571311950417851,4.664478491500771,-0.4414376724431918
-0.9039559525886558,4.687550712049099,-0.4393196905975134
0.9537511084480463,4.981849258006439,-0.4324715181591239
-0.9015274046142937,5.006281195322187,-0.4313091389977066
0.6744293520853919,5.006281195322188,-0.4313091389977066
-1.180849160976815,4.981849258006438,-0.4324715181591239
0.9493409734432181,5.301899215590963,-0.4275517127076541
-0.8983494288510013,5.320993952914071,-0.4267839416851109
0.9453344432546591,5.525591439809649,-0.3894431631003456
-0.8954541980143083,5.535267004557976,-0.3881984029002693
0.6683561454854063,5.535267004557976,-0.3881984029002693
-1.172432495783428,5.525591439809649,-0.3894431631003456
0.9435003402415951,5.621985266010139,-0.2732539536865216
-0.8941274168169167,5.626073595865346,-0.2702522792023268
0.9431946564060847,5.644846000726102,-0.1299252294685108
-0.8939062866173514,5.647469162111221,-0.1248551388320101
0.6668082340884498,5.647469162111221,-0.1248551388320101
-1.170292708934853,5.644846000726103,-0.1299252294685109
0.943778467742401,5.650331323249623,0.2609248550601506
-0.8943339158877465,5.653630350452324,0.2697770058963623
0.9447584367712185,5.650593359526544,0.4257190806098194
-0.8950517221630525,5.654530366245982,0.4359100602043951
0.6679536696341506,5.654530366245982,0.435910060204395
-1.171856489299988,5.650593359526544,0.4257190806098194
0.945509051346483,5.65079782767664,0.531217224457485
-0.8956015312249892,5.655147175855277,0.5422652968808074
0.9456954998791692,5.649817128140783,0.5772230645589747
-0.8957381007724424,5.654639375432137,0.5886448997253464
0.6686400482435404,5.654639375432137,0.5886448997253464
-1.172793552407939,5.649817128140783,0.5772230645589747
0.9456906794346494,5.645689861847259,0.6557482811172694
-0.8957345699003187,5.651991364130284,0.6678080744270913
0.9453476594910506,5.640850434208544,0.7969138535803834
-0.8954833151556993,5.649125708149444,0.8097693475752067
0.6683852626267972,5.649125708149444,0.8097693475752068
-1.17244571201982,5.640850434208544,0.7969138535803834
0.9439996819392549,5.6421290551213,0.9689500606413666
-0.8944959505378413,5.650903140735338,0.9817985666589437
0.9443065821769223,5.646639936933623,1.121780904821615
-0.8947343632067523,5.654888303345822,1.133946363129216
0.667636310677851,5.654888303345822,1.133946363129216
-1.171404634705689,5.646639936933623,1.121780904821615
0.9495961588219617,5.645698898670323,1.217468805809901
-0.8986497090412149,5.654447107018486,1.22920272727225
0.9552324845152502,5.640505757595224,1.270426713236888
-0.9028176796260499,5.650625185516784,1.282086966382801
0.6757196270971484,5.650625185516785,1.282086966382801
-1.182330537044018,5.640505757595224,1.270426713236888
0.9242374383455008,5.63464832753278,1.414332557021128
-0.8800341462013321,5.646415329761636,1.425986023097404
0.8953093594449919,5.623560629119767,1.464591751958158
-0.8588261283970097,5.632851277358445,1.475867020334739
0.6317280758681083,5.632851277358445,1.47586702033474
-1.12240741197376,5.623560629119768,1.464591751958158
0.8727852070765734,5.528240660749913,1.496854625691441
-0.8423068454875068,5.540558789957205,1.506625063197918
0.862349929815144,5.320982125644308,1.508124248297529
-0.8346251507323503,5.34163825430247,1.515760368208411
0.6075270982034484,5.34163825430247,1.515760368208411
-1.089447982343913,5.320982125644308,1.508124248297529
0.854386349189754,5.0228856679654,1.506894846840576
-0.8287438104107104,5.047886358304961,1.513512426638508
0.8461025028484461,4.700039984218958,1.501857448013703
-0.8226298191581496,4.723357252251272,1.508826417177459
0.5955317666292475,4.723357252251272,1.508826417177459
-1.073200555377215,4.700039984218959,1.501857448013703
0.8415316445582566,4.463521823254084,1.501899878138997
-0.8192543999666219,4.484362548803877,1.509353205931478
0.8415590611227127,4.332478576525382,1.508487622433092
-0.8192676411058284,4.352204622777775,1.51606129153076
0.5921695885769263,4.352204622777775,1.516061291530761
-1.068657113651482,4.332478576525382,1.508487622433092
0.8439220723818335,4.234128278092967,1.515663825007166
-0.8209984961232179,4.253176611140492,1.523236805129489
0.8460906427547894,4.13394907666427,1.520705623208558
-0.8225801965243635,4.152307093884136,1.528278277912663
0.5954821439954616,4.152307093884136,1.528278277912663
-1.073188695283559,4.133949076664269,1.520705623208559
0.8452673812399039,4.035679235594033,1.524124147620766
-0.8219502517729642,4.053360094025394,1.531696641096092
0.8420753868382824,3.942598705404442,1.526687720835151
-0.8195717993518813,3.959638163601812,1.534260093403989
0.5924737468229789,3.959638163601811,1.534260093403988
-1.069173439367052,3.942598705404443,1.526687720835151
0.8405582485538126,3.857529123785127,1.529421857450939
-0.81843360476314,3.873982383671797,1.536994101068962
0.8419176656094967,3.777163483184858,1.532241302427889
-0.8194226177305581,3.793062958723926,1.539813413071678
0.5923245652016562,3.793062958723926,1.539813413071678
-1.069015718138266,3.777163483184859,1.532241302427889
0.8445134474474507,3.692066130811555,1.533950031086292
-0.8213239721997463,3.707379216676942,1.541522061140855
0.8462351211882497,3.589203780518712,1.53428542332119
-0.8225760614126795,3.603808061487822,1.541857437557558
0.5954780088837777,3.603808061487822,1.541857437557558
-1.073333173717018,3.589203780518712,1.53428542332119
0.8445019316309271,3.451945512805405,1.533918263602384
-0.8212705379076972,3.465603973151776,1.541490295155191
0.8407797872698818,3.215481343182803,1.53194200976241
-0.8184906171417893,3.227863182571496,1.539530876099897
0.5913925646128874,3.227863182571496,1.539530876099897
-1.06787783979865,3.215481343182803,1.53194200976241
0.8390112844246473,2.833994591205272,1.527206517328611
-0.8171516349149616,2.844806103939405,1.534845831741706
0.8398584785022181,2.401285489870359,1.520975313660224
-0.8177463084090164,2.410297195515387,1.528670987638435
0.5906482558801144,2.410297195515387,1.528670987638435
-1.066956531030987,2.401285489870359,1.520975313660224
0.8431751399944184,1.953563570967305,1.513577795663909
-0.8201639363783265,1.960125165612339,1.521303878951976
0.8484011710430668,1.450145144984467,1.504856640117509
-0.8239889530846463,1.453815778470983,1.51246344172756
0.5968909005557442,1.453815778470983,1.51246344172756
-1.075499223571836,1.450145144984467,1.504856640117509
0.8536603253128385,0.9034885467297052,1.496181881622456
-0.8278411706819703,0.9050692158920808,1.503280557646319
0.8581860298270165,0.379443689846867,1.487696805127329
-0.8311561520792667,0.3801033227713481,1.49440385418473
0.6040580995503648,0.3801033227713481,1.49440385418473
-1.085284082355785,0.3794436898468671,1.487696805127329
0.8829638398329168,-0.3839895222163581,1.464994746975202
-0.8493731471394854,-0.3835731017953421,1.476260754624741
0.9019378913067555,-0.5173125472636938,1.465394157752409
-0.8633509664735504,-0.5169820788199555,1.477036087353474
0.6362529139446485,-0.5169820788199555,1.477036087353474
-1.129035943835524,-0.5173125472636938,1.465394157752409
0.9199692557511249,-0.9619670069610633,1.475997560228816
-0.8765972950545163,-0.9616240612940807,1.487653781166169
0.9176413446115757,-1.246798777257895,1.482698741648944
-0.874888586938303,-1.24638748560194,1.494357257752916
0.6477905344094006,-1.24638748560194,1.494357257752916
-1.144739397140345,-1.246798777257895,1.482698741648944
0.9145693506604158,-1.481019365910393,1.487541803253756
-0.8726384173196724,-1.480470349004595,1.499201478369629
0.9121133660023879,-1.608022586226187,1.489721248340086
-0.8708394612835673,-1.60734692668101,1.50134085260043
0.6437414087546651,-1.60734692668101,1.50134085260043
-1.139211418531157,-1.608022586226187,1.489721248340086
0.9097045220189386,-1.7024463153118,1.492284385179162
-0.8690750347795595,-1.701864537841862,1.50374093382076
0.9071076468258426,-1.799196223322856,1.496277769226376
-0.8671728794512023,-1.798990006102501,1.507438429980304
0.6400748269223003,-1.798990006102501,1.507438429980304
-1.134205699354612,-1.799196223322856,1.496277769226375
0.9044212652732032,-1.893445773464073,1.500747203121278
-0.865205162636032,-1.893809659482951,1.511541203602993
0.9016987797630823,-1.983121024541214,1.504651371760571
-0.8632110004470983,-1.984006048797153,1.515107241274534
0.6361129479181966,-1.984006048797153,1.515107241274534
-1.128796832291851,-1.983121024541214,1.504651371760571
-1.745062209403164,0.8276514199685798,-0.4464143444253956
1.517964156874398,0.8276514199685798,-0.4464143444253956
1.514667467636627,0.3118508904033179,-0.4407201212191134
-1.741765520165394,0.311850890403318,-0.4407201212191135
-2.029254009248178,0.8276514199685801,-0.4178736576277949
1.79815729893268,0.3118508904033183,-0.4108201529423173
-0.2831483037945218,1.366600974509761,-0.4445112746103641
0.3848485315815799,1.364323434370296,-0.4457594167779739
-0.2826759533638957,1.877826904268741,-0.4452742836998182
0.3834604460631684,1.872679293760391,-0.4465891386415055
-0.610558498592606,1.872679293760391,-0.4465891386415055
0.05557790083378774,1.877826904268741,-0.4452742836998183
-0.2737271194146974,-3.456778238997716,-0.3741040520696835
0.3571627103014288,-3.449278474166692,-0.376336589204671
-0.2749751353587655,-3.34327016424551,-0.4261102075308442
0.3608302265063172,-3.327164856543729,-0.428038382450376
-0.587928279035755,-3.327164856543729,-0.428038382450376
0.04787708282865764,-3.343270164245511,-0.4261102075308443
-0.2764230414604511,-3.134227568490204,-0.426110207530831
0.3650851553927058,-3.113175713019141,-0.4280383824503657
-0.277566574592126,-2.890274448583838,-0.426787696078528
0.3684456303218753,-2.870546251141272,-0.4287111964566547
-0.5955436828513131,-2.870546251141272,-0.4287111964566547
0.05046852206201805,-2.890274448583839,-0.426787696078528
-0.279092873803582,-2.589354669209434,-0.4389321102123434
0.3729309312654489,-2.572828258756045,-0.440771816455581
-0.2796398581349746,-2.506810758258036,-0.4436591119689546
0.3745383417386383,-2.490769128220934,-0.4454662028041164
-0.601636394268076,-2.490769128220934,-0.4454662028041164
0.05254180560486672,-2.506810758258036,-0.4436591119689546
-0.2782850338375872,-2.723525452111174,-0.4294976502693298
0.370556950243552,-2.705924159600377,-0.4314024524818222
-0.2786835076403368,-2.64994647653766,-0.4340944964487348
0.3717279361878852,-2.633064210379813,-0.4359675813017417
-0.5988259887173228,-2.633064210379813,-0.4359675813017417
0.05158545511022892,-2.64994647653766,-0.4340944964487348
-0.2802470344466105,-2.412619052600401,-0.4492188669405651
0.37632263702167,-2.397130610481745,-0.4509875965297329
-0.2808530590097086,-2.315599420304982,-0.4547051078105139
0.3781035476873444,-2.300680774518851,-0.4564359833869293
-0.605201600216782,-2.300680774518851,-0.4564359833869293
0.0537550064796006,-2.315599420304982,-0.4547051078105139
-0.2826526098639524,4.435097753324421,-0.4268966771811545
0.383391847048286,4.417682667282462,-0.4289501543568856
-0.2823379961227572,4.520801200470858,-0.4355851506898362
0.382467298768596,4.502702359891048,-0.4374851241442266
-0.6095653512980337,4.502702359891049,-0.4374851241442267
0.05523994359264924,4.520801200470859,-0.4355851506898362
-0.2834957445409209,4.305214888708688,-0.4130548894535613
0.3858695478383944,4.28856260477353,-0.4152038723173539
-0.283021774084667,4.378951318479139,-0.4179896603307536
0.3844767015873415,4.361865980467577,-0.4201045942192746
-0.6115747541167792,4.361865980467577,-0.4201045942192746
0.05592372155455905,4.378951318479139,-0.4179896603307536
-0.2844689330415171,4.115721907879365,-0.4151653260790926
0.388729434856114,4.100182516283226,-0.4172997473337926
-0.2840547735796673,4.215613059997488,-0.4123572959274041
0.3875123538204419,4.199487007631955,-0.4145110920531116
-0.6146104063498795,4.199487007631955,-0.4145110920531117
0.05695672104955929,4.215613059997488,-0.4123572959274041
-0.2836948036809062,3.919524067749041,-0.4248387258052886
0.3864545184271896,3.905136946132816,-0.4269064024519267
-0.2842981142607385,4.014968987437555,-0.4197509411844216
0.3882274535716744,4.000021317776461,-0.4218537225718989
-0.6153255061011121,4.000021317776461,-0.4218537225718989
0.05720006173063053,4.014968987437555,-0.4197509411844215
-0.2836389732605879,3.74893390800099,-0.4342303021094192
0.3862904508347712,3.735548662449332,-0.4362331786757088
-0.2834040828549003,3.832299131884561,-0.4296058877896954
0.3856001837165289,3.81842428234549,-0.4316406719303663
-0.6126982362459665,3.81842428234549,-0.4316406719303663
0.05630603032479231,3.832299131884561,-0.4296058877896953
-0.2843383545540846,3.555914189881213,-0.4450602378363553
0.388345706810856,3.543662549197848,-0.4469883899173669
-0.2840804363008233,3.657795869341342,-0.439890510860014
0.3875877682782046,3.644945877520843,-0.4418543330684462
-0.6146858208076422,3.644945877520843,-0.4418543330684461
0.05698238377071535,3.657795869341342,-0.439890510860014
-0.2830867554120187,3.348502091506056,-0.44218402200764
0.3846676607431199,3.337468582144993,-0.444132019427785
-0.283951531774474,3.44897974432879,-0.4455083885326411
0.38720895946449,3.437356129679491,-0.4474334484595557
-0.6143070119939276,3.437356129679491,-0.4474334484595557
0.05685347924436607,3.44897974432879,-0.445508388532641
-0.2848010989720565,-1.568829174054718,-0.4283349192762112
0.3897055633573212,-1.558296310171532,-0.4302477441101825
-0.2850223632537727,-1.493980895976838,-0.4271546754591991
0.3903557876934879,-1.483555634235145,-0.429075643749786
-0.6174538402229255,-1.483555634235144,-0.4290756437497859
0.05792431072366484,-1.493980895976838,-0.4271546754591992
-0.2842826426703526,-1.681608300101577,-0.4296686099967684
0.3881819875592208,-1.670413084373859,-0.4315722326198377
-0.2845905995631369,-1.615340510490919,-0.4288780228307206
0.3890869735091691,-1.604534485513477,-0.4307871003540349
-0.6161850260386068,-1.604534485513477,-0.4307871003540348
0.0574925470330289,-1.615340510490919,-0.4288780228307206
-0.2824502671498329,3.119077302573786,-0.4433487151020178
0.3827972270945094,3.109090508133185,-0.4452218107599576
-0.2825387966126705,3.271809474348797,-0.4412163508846921
0.3830573866230075,3.261226380753644,-0.4431710250505154
-0.6101554391524451,3.261226380753644,-0.4431710250505153
0.05544074408256251,3.271809474348796,-0.4412163508846921
-0.2834054715018649,-1.860347682883197,-0.4402244536560023
0.3856042645019308,-1.84810273070135,-0.442055242976641
-0.2838792903001167,-1.76537690409231,-0.4334577382592234
0.386996665079046,-1.753689715325679,-0.4353352166219573
-0.6140947176084837,-1.753689715325679,-0.4353352166219573
0.05678123777000879,-1.765376904092311,-0.4334577382592234
-0.2824140007086589,-2.047879581278768,-0.4526946147693182
0.382690651724754,-2.034533254195688,-0.4544393623632086
-0.282908982368056,-1.956178996108776,-0.4471757907780692
0.3841452431228771,-1.943371226592695,-0.4489586172020174
-0.6112432956523146,-1.943371226592695,-0.4489586172020174
0.05581092983794809,-1.956178996108776,-0.4471757907780692
-0.2814126705546108,-2.223087288591746,-0.4573619347234816
0.3797480654670467,-2.208711966585731,-0.4590744787023188
-0.2819210860511519,-2.135808553778075,-0.4563396213265732
0.3812421345782974,-2.121945819810456,-0.4580592190723304
-0.608340187107735,-2.121945819810456,-0.4580592190723304
0.05482303352104389,-2.135808553778075,-0.4563396213265731
-0.2807631154905919,5.357846938832527,-0.4253021378664148
0.3778392327036673,5.34124401547251,-0.4259697167510899
-0.2801462409504413,5.55394091692396,-0.3857960063996506
0.3760264374560276,5.545527988415802,-0.3868783286046518
-0.6031244899854652,5.545527988415802,-0.3868783286046518
0.0530481884203334,5.55394091692396,-0.3857960063996507
-0.2819576736959951,4.732080270355516,-0.435938433604769
0.3813496538620045,4.71201891507069,-0.4374617498113654
-0.2814402332916131,5.053435017164411,-0.4290657385181526
0.3798290634583681,5.032191384642732,-0.4300764301975263
-0.6069271159878057,5.032191384642732,-0.4300764301975263
0.05434218076150513,5.053435017164412,-0.4290657385181526
-0.2823617240572006,2.336879403232378,-0.4452315251645424
0.3825370275124418,2.329577031739297,-0.4466670332166266
-0.2823878424399126,2.773704575146565,-0.444904522857736
0.3826137810125048,2.76484406402601,-0.4465662869319096
-0.6097118335419425,2.76484406402601,-0.4465662869319096
0.05528978990980456,2.773704575146565,-0.444904522857736
-0.2846025163082359,-0.551223458174811,-0.4289417017934644
0.3891219929782456,-0.5423684232820667,-0.4303580953800524
-0.2833413942812998,-0.1534859785005174,-0.4320867769617617
0.3854159622243008,-0.1468057695997555,-0.4331111031784701
-0.6125140147537384,-0.1468057695997554,-0.4331111031784701
0.05624334175119192,-0.1534859785005174,-0.4320867769617618
-0.2854728991280203,-1.292353247830623,-0.4263191011164709
0.3916797672688612,-1.281784218051556,-0.4282458347102235
-0.2855863604078226,-0.9512567937555423,-0.4268180810964419
0.3920131933635199,-0.9409524174943965,-0.4286183106827504
-0.6191112458929575,-0.9409524174943966,-0.4286183106827504
0.05848830787771462,-0.9512567937555425,-0.426818081096442
1.321830232834209,1.356271197672208,-0.4501722198685995
-1.418463950289409,1.356934955897337,-0.4498084657395173
1.317082676978483,1.854786910003146,-0.4512385964902626
-1.414646324072682,1.855980132780049,-0.4508546078920268
1.187548271543913,1.855980132780049,-0.4508546078920268
-1.54418072950725,1.854786910003146,-0.4512385964902625
1.224568408800424,-3.422986650885556,-0.3840672525223086
-1.341134388754259,-3.424948781773531,-0.383579075199146
1.237679295468141,-3.271857813095389,-0.4348554394050899
-1.351146886140851,-3.274918260669068,-0.4342934989412759
1.124048833612081,-3.274918260669068,-0.4342934989412758
-1.46477734799691,-3.271857813095389,-0.4348554394050899
1.251035951102559,-3.040015682975094,-0.4348554394050899
-1.362763048681134,-3.044882215895409,-0.434293498941275
1.260615986308646,-2.801003552147807,-0.441390230409292
-1.371937308470682,-2.806546781016072,-0.4368153583461941
1.144839255941912,-2.806546781016072,-0.4368153583461941
-1.487714038837414,-2.801003552147807,-0.441390230409292
1.272164032883131,-2.514396420917179,-0.5743628181788133
-1.384182397917251,-2.51921557999167,-0.4871722294287621
1.277359957533781,-2.434057959842289,-0.6357818209494288
-1.388570706587992,-2.438729106556116,-0.5098524642239884
1.161472654059222,-2.438729106556116,-0.5098524642239886
-1.504458010062549,-2.434057959842289,-0.6357818209494285
1.26555273988955,-2.643703794866431,-0.4675293944261003
-1.377701314412869,-2.648824498189895,-0.4469027959658717
1.268279803099191,-2.573344151744291,-0.5149726561779191
-1.380898162920788,-2.578297114107576,-0.4650441202781274
1.153800110392019,-2.578297114107575,-0.4650441202781274
-1.495377855627958,-2.573344151744291,-0.5149726561779189
1.283138742051287,-2.342372061152911,-0.6884193833942742
-1.393441919381667,-2.346885164006237,-0.5302826081304299
1.288895693627898,-2.247935944689845,-0.7264371861792494
-1.398303892005551,-2.252283781936152,-0.5460134070013085
1.171205839476782,-2.252283781936153,-0.5460134070013087
-1.515993746156665,-2.247935944689845,-0.7264371861792491
1.302632342090253,4.356074480108495,-0.5321685429309511
-1.411712023423736,4.361187070960756,-0.4661079258238451
1.300515642325984,4.438448392391235,-0.4845906270924604
-1.409122585952213,4.443988622340496,-0.4564602237162776
1.182024533423443,4.443988622340496,-0.4564602237162776
-1.527613694854751,4.438448392391235,-0.4845906270924603
1.310637747953499,4.229691878492458,-0.6354732499093319
-1.418476266933459,4.234541584793012,-0.4898451254681837
1.306134910380001,4.301456617695163,-0.5847083609975338
-1.41467372901147,4.306440106774188,-0.4769546396261266
1.187575676482702,4.306440106774188,-0.4769546396261268
-1.533232962908768,4.301456617695163,-0.5847083609975334
1.32010327663835,4.045243041404975,-0.7141492158651008
-1.426348221328569,4.049771786609815,-0.5162749666249477
1.315959739497602,4.142474070529346,-0.6796034410210246
-1.422961207062695,4.147173114808755,-0.5034231448660478
1.195863154533927,4.147173114808755,-0.503423144866048
-1.54305779202637,4.142474070529346,-0.6796034410210239
1.314833957019723,3.854271318497738,-0.7516341454064518
-1.420780828170581,3.858464250224044,-0.5346105412994944
1.319313565133884,3.947173874119911,-0.7380866806964064
-1.425235083716863,3.951530169981457,-0.5269293668393091
1.198137031188095,3.951530169981457,-0.5269293668393096
-1.546411617662652,3.947173874119911,-0.7380866806964056
1.315343883028656,3.688225164796616,-0.7521129235884949
-1.420654535271593,3.69212611331398,-0.5409847256383558
1.312905950608761,3.769369791185061,-0.7562521235234128
-1.418705748589951,3.773413428153034,-0.5392381054918014
1.191607696061183,3.773413428153034,-0.5392381054918017
-1.540004003137528,3.769369791185062,-0.7562521235234121
1.322211438722988,3.500345920398241,-0.7114920011314712
-1.426337157106286,3.50391748307194,-0.5352349714522841
1.319534930221833,3.599514767915279,-0.7381006491559345
-1.42419627490853,3.603259723982528,-0.5402761186971096
1.197098222379762,3.603259723982528,-0.5402761186971097
-1.546632982750601,3.599514767915279,-0.7381006491559343
1.312800299112596,3.298474318881415,-0.6086279751813617
-1.417012644555038,3.301675207976613,-0.5005800646525376
1.319450925659084,3.396255933377018,-0.6679562777723472
-1.423520474382893,3.399648418133095,-0.5216809405143699
1.196422421854125,3.399648418133096,-0.5216809405143702
-1.546548978187852,3.396255933377018,-0.6679562777723469
1.32635589383574,-1.521082539889755,-0.5177020594427392
-1.429977958345057,-1.524127060325611,-0.4620938700702443
1.329599708631664,-1.446913029082596,-0.4694186979477085
-1.431753102367021,-1.449735452268329,-0.4459487650090381
1.204655049838252,-1.449735452268329,-0.4459487650090381
-1.556697761160433,-1.446913029082596,-0.4694186979477085
1.321436372481981,-1.630829380654061,-0.626379567277463
-1.425818522409526,-1.634095124935489,-0.4975919830562328
1.324356566848558,-1.56633191461401,-0.5729252811233474
-1.428289178011998,-1.56947908449525,-0.4800532260440132
1.201191125483228,-1.56947908449525,-0.4800532260440132
-1.551454619377326,-1.56633191461401,-0.5729252811233472
1.310068062432345,3.07428307769548,-0.4830028006925209
-1.412327047611198,3.076692740708739,-0.4611125296578491
1.309215001855486,3.223906982785108,-0.5400898366691764
-1.412903210738059,3.226894182672853,-0.478044764794638
1.185805158209291,3.226894182672852,-0.4780447647946381
-1.536313054384254,3.223906982785108,-0.5400898366691763
1.313127124656367,-1.804810737020781,-0.7124096905280489
-1.418781213251879,-1.808379362480404,-0.5319567928426522
1.317621700130087,-1.712369082557737,-0.673981570196785
-1.422582534462369,-1.715775765483321,-0.5152470826531114
1.1954844819336,-1.715775765483321,-0.5152470826531115
-1.544719752658854,-1.712369082557737,-0.6739815701967845
1.303714556657995,-1.987347352678154,-0.7535403748835643
-1.410826908843314,-1.991236958934988,-0.5533052129510928
1.308413685022591,-1.898089393824545,-0.7391199181615846
-1.414798014016034,-1.901822044773059,-0.5450607080946539
1.187699961487267,-1.901822044773059,-0.5450607080946541
-1.535511737551358,-1.898089393824545,-0.7391199181615842
1.294208388419474,-2.157888056439053,-0.7489872962766997
-1.402793505425533,-2.162077549328784,-0.5549485690764443
1.299035051459284,-2.072934163218501,-0.757071314376002
-1.406872386672696,-2.076974269267276,-0.5568434820261223
1.179774334143929,-2.076974269267276,-0.5568434820261228
-1.52613310398805,-2.072934163218501,-0.7570713143760015
1.284886496053145,5.282326072552583,-0.42833966867664
-1.395273958130048,5.287383124194241,-0.4281353831790725
1.276083206690523,5.515682328356021,-0.3905813017229286
-1.389947773605097,5.518235937619438,-0.3903894475412131
1.162849721076328,5.518235937619438,-0.3903894475412132
-1.503181259219292,5.51568232835602,-0.3905813017229287
1.297986308005552,4.639946011185486,-0.4509697731611794
-1.405809858033809,4.646938660680497,-0.4449657741293321
1.292849520601267,4.955947985641744,-0.4336963862825305
-1.401206613410644,4.963275751124769,-0.4333551753605434
1.174108560881875,4.963275751124769,-0.4333551753605435
-1.519947573130034,4.955947985641744,-0.4336963862825305
1.313109338669591,2.305294410969399,-0.4517462275337109
-1.412013005270331,2.3058876953174,-0.4513239084816527
1.31152491386909,2.735168049532064,-0.4568967598422171
-1.412013466403891,2.736100028064046,-0.4533591908784588
1.184915413875122,2.736100028064045,-0.4533591908784588
-1.538622966397858,2.735168049532064,-0.4568967598422171
1.332264117825536,-0.5111882245577568,-0.4353657508848795
-1.429112251455011,-0.5136421525355563,-0.4349529621586451
1.322338543564046,-0.1231879099934597,-0.4367326056100042
-1.419603862423962,-0.1251347663963943,-0.4364340796083002
1.192505809895193,-0.1251347663963944,-0.4364340796083001
-1.549436596092814,-0.1231879099934597,-0.4367326056100042
1.335992612423166,-1.245373233320314,-0.4417680911136137
-1.435367630919249,-1.247497643843909,-0.4366245521548254
1.339186801053605,-0.9054085884954366,-0.4349830172750373
-1.436459767501472,-0.9075243953649597,-0.4344583647456145
1.209361714972705,-0.9075243953649598,-0.4344583647456145
-1.566284853582372,-0.9054085884954365,-0.4349830172750372
1.517552496834803,1.356271197672208,-0.4501722198685996
-1.744650549363569,1.356271197672208,-0.4501722198685995
-1.737922498424254,1.856628781501724,-0.4512433480987673
1.510824445895487,1.856628781501724,-0.4512433480987673
1.801663353494024,1.356271197672208,-0.4218827058484043
-2.020901143388866,1.856648701829861,-0.4228143696555758
1.38518648715765,-3.424328094826904,-0.3830924602071378
-1.612284539686418,-3.424328094826904,-0.3830924602071378
-1.635271539167414,-3.281657170385423,-0.43485543940509
1.408173486638647,-3.281657170385423,-0.4348554394050899
1.628903608628169,-3.417433388797018,-0.3352800461121781
-1.898232060124056,-3.294837181820617,-0.3836302085334549
1.421863152699848,-3.047628154273465,-0.4348554394050899
-1.648961205228615,-3.047628154273465,-0.4348554394050899
-1.652991217241302,-2.802241274535071,-0.4455023165521223
1.425893164712536,-2.80224127453507,-0.4455023165521222
1.687525161563656,-3.068687302887043,-0.3844260123420512
-1.9232905232987,-2.802363244785984,-0.4042585198879363
1.422601629071254,-2.514379857361913,-0.6610862533225974
-1.649699681600022,-2.514379857361913,-0.6610862533225972
-1.655922005273621,-2.434081774334163,-0.7611557371757514
1.428823952744853,-2.434081774334163,-0.7611557371757514
1.659638782864684,-2.513283466251101,-0.6769760541313161
-1.912540500071149,-2.436056391288506,-0.7758023490144803
1.420849790339503,-2.643757524717608,-0.4880898251402516
-1.647947842868269,-2.643757524717608,-0.4880898251402516
-1.645073866431855,-2.573147024406961,-0.5648385102561244
1.417975813903089,-2.573147024406961,-0.5648385102561245
1.685420054058637,-2.62920460458084,-0.478396512250124
-1.881966881629819,-2.56505032086826,-0.5808710977529279
1.435808582583827,-2.342376824051287,-0.846034928705875
-1.662906635112595,-2.342376824051287,-0.846034928705875
-1.669801917423487,-2.247935944689845,-0.9063565251145732
1.44270386489472,-2.247935944689845,-0.9063565251145733
1.693905546873001,-2.342899152220062,-0.8641899637064734
-1.929259376464512,-2.248015572676037,-0.9268817935457864
1.456873279291034,4.355851280667466,-0.5981968520932718
-1.683971331819801,4.355851280667466,-0.5981968520932717
-1.687588291088394,4.436854984361185,-0.5127849644690006
1.460490238559627,4.436854984361184,-0.5127849644690006
1.699877058784892,4.349114881025513,-0.6174022596668529
-1.958940717026274,4.419864756043338,-0.5101892107555798
1.466438504129379,4.229712136308905,-0.7804504346762257
-1.693536556658147,4.229712136308904,-0.7804504346762254
-1.688141401483813,4.301431425310744,-0.6919352817492659
1.461043348955046,4.301431425310744,-0.6919352817492661
1.729571890060127,4.231657853686937,-0.8012241678598773
-1.931282766043434,4.301110644787682,-0.7127628119190471
1.477981042780265,4.045243041404975,-0.9114014169405916
-1.705079095309033,4.045243041404975,-0.9114014169405912
-1.699977458133496,4.142478122092635,-0.855151112922439
1.472879405604727,4.142478122092635,-0.8551511129224392
1.74354913362243,4.045243041404975,-0.9383073127501735
-1.964491880441654,4.142867265568241,-0.8795902250763215
