0.7622115625149366,1.271753252068002,0.2577048772886209
-0.7733026860758251,1.271753252068002,0.2577048772886209
-0.8741183281211162,1.387669050715729,0.2642598262738511
0.8586596465117199,1.274844389870769,0.2647070924886111
-0.7723268071594722,1.139020158262557,0.2583398878747213
0.7612356835985837,1.139020158262557,0.2583398878747213
0.7609858798200737,1.005738188503088,0.2534858580806426
-0.7720770033809623,1.005738188503088,0.2534858580806427
-0.8642184985252952,1.142372892266278,0.2655167560072593
0.8518253119065041,1.004938894244842,0.2619036414064013
-0.7294756010262388,0.09714508281893915,0.267498241159696
0.71838447746535,0.09714508281893913,0.2674982411596959
0.6963032873678996,0.01715026860643914,0.269171513215494
-0.7073944109287883,0.01715026860643915,0.269171513215494
-0.8192749208560153,0.1055450198612617,0.2725018248286215
0.7816802855098893,0.02591111291763767,0.2738809350306266
-0.6584503789873009,-0.07447136200046542,0.2741623368278173
0.6473592554264123,-0.07447136200046541,0.2741623368278173
0.5780393228937826,-0.1506324465026892,0.2870696964452517
-0.5891304464546712,-0.1506324465026892,0.2870696964452517
-0.7349561724221727,-0.06505213767623261,0.2782436496108449
0.6419205933928005,-0.1379190372269441,0.289451321111217
-0.7580700365487739,0.3052919028225595,0.2069789182674413
0.7469789129878854,0.3052919028225595,0.2069789182674413
0.7493074688706412,0.272103175768953,0.2441844336432373
-0.7603985924315296,0.272103175768953,0.2441844336432374
-0.8269180900676525,0.3145175602284678,0.2017802450454956
0.8378128831515654,0.2867953964148168,0.2432943042572481
0.259243613926501,4.270529176622349,0.9128511939603965
-0.2703347374874056,4.270529176622349,0.9128511939603966
-0.2667018479692368,4.273864353962778,0.9459264916699319
0.2556107244083323,4.273864353962778,0.9459264916699319
0.3715338328496696,4.262957660668146,0.9102287517350213
-0.3774514527104482,4.266281700875963,0.9428979293163795
-0.2614070640648159,4.276540565748052,0.9922393916466623
0.2503159405039114,4.276540565748052,0.9922393916466624
0.2528582701761774,4.276296578204023,0.9685839975428694
-0.2639493937370818,4.276296578204022,0.9685839975428693
-0.3699112883361093,4.268948976007335,0.9886421692302487
0.3624406304955758,4.268705803209084,0.9652772315199178
-0.2733810574461607,4.267087571910967,0.8687530300967168
0.2622899338852561,4.267087571910967,0.8687530300967169
0.2633053738715079,4.264722101189745,0.8198098223393759
-0.2743964974324124,4.264722101189744,0.8198098223393759
-0.3869631416208486,4.259527548481493,0.8666720539563315
0.3773180797967234,4.257169976758868,0.8183298029003406
-0.275664776979358,4.183138833017567,0.4455662037562138
0.2645736534184535,4.183138833017567,0.4455662037562138
0.2680379618486857,4.161634109004589,0.3738654102444946
-0.2791290854095903,4.161634109004589,0.3738654102444946
-0.3902153273523227,4.17585913898096,0.4486813921270034
0.3840576355383933,4.154426225531242,0.3778609878322475
-0.2743964974324124,4.263597545050574,0.7779426920465182
0.2633053738715078,4.263597545050574,0.7779426920465182
0.2633182116516699,4.262045004357023,0.7422347314125871
-0.2744093352125744,4.262045004357023,0.7422347314125871
-0.388409203357612,4.256049175841565,0.7769767446037538
0.3773363617463498,4.25450181953549,0.7417072296544782
-0.2740582882109425,4.217697560281947,0.5761387557604325
0.2629671646500379,4.217697560281947,0.5761387557604325
0.26275600431124,4.200227332080514,0.5145009234300555
-0.2738471278721446,4.200227332080513,0.5145009234300555
-0.3879275683808436,4.210302464547121,0.5776506889762219
0.3765357368604576,4.192890574547423,0.5167696862467804
-0.2744863618935466,4.254416594404515,0.6974651479873091
0.263395238332642,4.254416594404514,0.697465147987309
0.2634071907253526,4.237410134973501,0.6387162065655442
-0.2744983142862571,4.237410134973501,0.6387162065655442
-0.3885371770049968,4.246898883075009,0.6974873564425017
0.3774630745364381,4.22994921318616,0.6394597729304918
0.6822690417293715,4.231264067296778,0.9150851059528502
-0.6933601652902601,4.231264067296777,0.9150851059528502
-0.6834745034548222,4.234585390608352,0.945634518969957
0.6723833798939336,4.234585390608353,0.9456345189699571
0.7706215777162867,4.216064771317083,0.9273415360188456
-0.7704760625202904,4.219939628694663,0.9551315623142457
-0.6712632745343055,4.237180893207666,0.9871229853270953
0.6601721509734168,4.237180893207666,0.9871229853270953
0.6634380544258414,4.237150339639694,0.9656352908851272
-0.67452917798673,4.237150339639694,0.9656352908851272
-0.7495703012591012,4.225544116108683,0.989059019853477
0.7489735722820359,4.223358537163312,0.9728701920375369
-0.7012732657748273,4.227881820655715,0.8717138867575616
0.6901821422139387,4.227881820655716,0.8717138867575616
0.6928198423754611,4.225557147698682,0.8207293778471563
-0.7039109659363498,4.225557147698682,0.8207293778471564
-0.7906456734746197,4.212350566978486,0.8837837005087746
0.7825350700956633,4.209954143479746,0.8279179717236497
-0.7054953503588597,4.145356221670349,0.4498875216487681
0.6944042267979711,4.14535622167035,0.4498875216487681
0.7030092421796983,4.124391188057103,0.3797935626192944
-0.7141003657405867,4.124391188057104,0.3797935626192944
-0.7952521265947832,4.131938978533704,0.4471587084524584
0.7820047861780118,4.113511629167531,0.3784096755054485
-0.7039109659363498,4.224451987012516,0.776971458531324
0.692819842375461,4.224451987012516,0.776971458531324
0.6928531897079135,4.222926223310361,0.7413251908823484
-0.7039443132688023,4.222926223310361,0.7413251908823484
-0.7936288362252757,4.208884892354323,0.7797230380663152
0.782574471971382,4.207408704704795,0.7429674855366638
-0.7030324359097824,4.179343648802226,0.5787456940646845
0.6919413123488936,4.179343648802227,0.5787456940646845
0.6910507856354273,4.162169784969404,0.5182028149326206
-0.7021419091963159,4.162169784969404,0.5182028149326204
-0.7926207855086055,4.16524224201297,0.5795940192369972
0.780512548315665,4.148542366579826,0.5181391708914681
-0.7041443972635163,4.215429382126668,0.6975034407319327
0.6930532737026276,4.215429382126668,0.6975034407319327
0.6930843211585186,4.198716236629103,0.6399982947016418
-0.7041754447194073,4.198716236629104,0.6399982947016418
-0.793882187521155,4.200155455495763,0.6990279581760637
0.7828131334103431,4.183985363801098,0.6412138914255122
0.05889499441871767,2.688701350452804,0.7037847559566047
-0.2005675173298005,2.68725536201771,0.6974258183111806
0.05885629034383742,2.725473831023711,0.7043708979619894
-0.200450383884404,2.723965135660316,0.6980523125046976
0.1893592603235154,2.723965135660316,0.6980523125046975
-0.06994741390472607,2.725473831023711,0.7043708979619894
0.05894571187718208,2.765747605818212,0.703259426219363
-0.2007210079033402,2.764153657343428,0.6970116718720147
0.05917201395266508,2.834205434720719,0.7016811388306251
-0.2014058851903886,2.832465162728494,0.6955639827889668
0.1903147616295,2.832465162728494,0.6955639827889668
-0.07026313751355373,2.834205434720719,0.7016811388306251
0.04306686333136959,0.05815000817154384,0.6943457072948635
-0.1526654932102801,0.06214988120117179,0.6929526343506337
0.04519191972241755,0.1467637009970493,0.7323925267049019
-0.159096732750702,0.1506817408168115,0.7304777270408471
0.148005609189734,0.1506817408168115,0.730477727040847
-0.05628304328346501,0.1467637009970493,0.732392526704902
0.04537784749512452,4.2084295374043,1.048972297207508
-0.1596594218391106,4.203791689363345,1.04561640113635
0.04430171732050678,4.267891676781608,1.02741063306725
-0.1564026372385713,4.263128571908393,1.024261654427521
0.1453115136776032,4.263128571908393,1.024261654427521
-0.05539284088155425,4.267891676781607,1.02741063306725
0.04695536769223072,4.076786305096261,1.064735172209183
-0.1644336058608534,4.072425763160384,1.061228007034393
0.04651159828485526,4.137993560807556,1.060157152032556
-0.1630905886253742,4.133504085956653,1.056693920024049
0.1519994650644061,4.133504085956653,1.056693920024049
-0.05760272184590273,4.137993560807556,1.060157152032556
0.04765474115938852,3.918367912737724,1.068720407111962
-0.166550179479537,3.914341078707597,1.065174997460103
0.04730971888546162,4.003764175106014,1.066778169965993
-0.165506009122575,3.999557454085182,1.063251399075914
0.154414885561607,3.999557454085182,1.063251399075914
-0.05840084244650909,4.003764175106014,1.066778169965994
0.04694123268984003,3.775690263174796,1.077083117133653
-0.1643908278966253,3.771963979219245,1.073457454377656
0.04755004993548172,3.840522596957623,1.071358595036437
-0.1662333434927082,3.836659743870088,1.067787867901407
0.1551422199317402,3.836659743870087,1.067787867901407
-0.0586411734965292,3.840522596957624,1.071358595036437
0.0453759203264822,3.653680313758974,1.102353601645493
-0.1596535894841368,3.650211043424747,1.098416202969736
0.04615984895319075,3.714869903241189,1.089878028802728
-0.1620260595993928,3.711271737205793,1.086129579130061
0.1509349360384247,3.711271737205793,1.086129579130061
-0.05725097251423821,3.714869903241189,1.089878028802728
0.04386616285946631,3.530359377284616,1.049640539672877
-0.1550844815961739,3.527149882162296,1.045276376570783
0.04459793048088376,3.592360096080551,1.09574632346649
-0.1572990924090049,3.589019996615419,1.091595425277692
0.1462079688480617,3.589019996615419,1.091595425277692
-0.0556890540418816,3.592360096080551,1.09574632346649
0.04391394751016223,3.399854271221249,0.8026235452593671
-0.1552290963631436,3.396919684744217,0.7978592731663977
0.0432527006772022,3.466339810176167,0.9419684532744355
-0.1532279086318497,3.463265172095049,0.9373992185017019
0.1421367850709561,3.463265172095049,0.9373992185017019
-0.0543438242381008,3.466339810176167,0.9419684532744355
0.05466398509507284,3.262577731455188,0.6928120044150674
-0.187762852675843,3.259932317629838,0.6876784868514345
0.04809062729551571,3.331346860546963,0.7134605745942941
-0.1678693388980722,3.328556584741211,0.7085070231040764
0.1567782153371835,3.328556584741211,0.7085070231040764
-0.05918175085640437,3.331346860546963,0.7134605745942941
0.06024509454137302,3.121256799313128,0.6980312319432984
-0.2046534405687918,3.118909077640807,0.6925645183069924
0.05915578709528477,3.196623090422577,0.6954880020267643
-0.2013567764668552,3.194116609866304,0.6901952189426582
0.1902656529059665,3.194116609866304,0.6901952189426582
-0.07024691065617345,3.196623090422578,0.6954880020267643
0.05950609967641653,2.920791854329685,0.700259602391109
-0.2024169573320654,2.918867105703463,0.6943227759852028
0.05993025376186348,3.021626468928138,0.6993968621651783
-0.2037006110445265,3.019488618271455,0.6936938952038487
0.1926094874836378,3.019488618271454,0.6936938952038487
-0.07102137732275216,3.021626468928138,0.6993968621651783
0.05830310120856461,2.305749335977011,0.676747461483336
-0.1987762203868679,2.304665434324571,0.670269404538096
0.05907003359495112,2.56776174858417,0.6888676723910929
-0.2010972533293051,2.566438596434796,0.6824563790044034
0.1900061297684165,2.566438596434797,0.6824563790044034
-0.07016115715583979,2.567761748584171,0.6888676723910929
0.04820752676452977,1.904014077933782,0.9057833251099772
-0.1682231217391039,1.903479397504801,0.8993384912409598
0.05429707378898198,2.045349969581211,0.7472857386897878
-0.1866524376725048,2.044551504341983,0.7407818516152871
0.1755613141116162,2.044551504341983,0.7407818516152871
-0.06538819734987064,2.045349969581211,0.747285738689788
0.04546321433691092,1.840016054365455,1.164867166817302
-0.159917774798607,1.840005238312328,1.158830963414673
0.04475712268738481,1.848471448599025,1.060213235248261
-0.1577808693711917,1.848198095368137,1.053923824955593
0.146689745810303,1.848198095368137,1.053923824955593
-0.05584824624827348,1.848471448599025,1.060213235248261
0.05273331874115417,1.800086240834827,1.233157096569658
-0.1819199122969476,1.800564048613865,1.227870119276922
0.04863784471965906,1.834506053245791,1.22035550073807
-0.1695254296965018,1.834747125542938,1.214661626388693
0.1584343061356131,1.834747125542938,1.214661626388693
-0.05972896828054773,1.834506053245791,1.22035550073807
0.05887890623732782,1.594414591701028,1.179847045687054
-0.2005188282932537,1.595335532911259,1.175446328929693
0.05634220320589523,1.717188050309423,1.215619292509284
-0.1928417873889358,1.717890291427342,1.2107633331074
0.1817506638280472,1.717890291427342,1.2107633331074
-0.0674333267667839,1.717188050309423,1.215619292509285
0.06083831140428353,1.347869312945764,1.090682850978384
-0.2064487433950627,1.349257227113019,1.087267914477292
0.06057967727784407,1.468540651895675,1.137702932165959
-0.2056660168624844,1.469684847019165,1.133822337814885
0.1945748933015957,1.469684847019165,1.133822337814885
-0.07167080083873273,1.468540651895675,1.137702932165959
0.05365220955921251,1.072490169896728,0.9652225525872178
-0.1847008300117641,1.07445816946785,0.9617604317893551
0.05820614932793317,1.212231952070062,1.029916024126111
-0.1984828066352753,1.213905585963189,1.026632937274459
0.1873916830743618,1.213905585963189,1.026632937274459
-0.06929727288887146,1.212231952070062,1.029916024126111
0.04985912623323102,0.9110936656593731,0.9139265118455719
-0.1732214981838,0.9134016465206781,0.9102696135346486
0.05056318840767376,0.9705357904633134,0.9251134163160895
-0.1753522616375266,0.9727185566529772,0.921486570830374
0.1642611380765635,0.9727185566529774,0.9214865708303741
-0.0616543119687113,0.9705357904633133,0.9251134163160893
0.05017295539456215,0.8077348860938667,0.9083326395372985
-0.1741712661616252,0.810260591938712,0.904729423061055
0.04999340744616037,0.8617216752264663,0.9118266522869769
-0.1736278848800613,0.864133658049187,0.9081899053680522
0.1625367613190933,0.864133658049187,0.9081899053680522
-0.06108453100720782,0.8617216752264663,0.9118266522869768
0.05048956186496455,0.6968949402169472,0.8939337073604787
-0.17512943934695,0.6996541301014991,0.8904686708522611
0.05035823236436098,0.7522055523785627,0.9023172642792154
-0.1747319856696436,0.7548482306114348,0.8987717746087249
0.1636408621086755,0.7548482306114347,0.898771774608725
-0.06144935592540844,0.7522055523785626,0.9023172642792154
0.05031700167468817,0.5880590967030712,0.8745362698059329
-0.1746072057142412,0.5910475489912397,0.8712573816362262
0.0504871286292637,0.6422533277648195,0.8846155397939123
-0.1751220754380597,0.6451276200550117,0.8812399254789932
0.1640309518770917,0.6451276200550117,0.8812399254789933
-0.06157825219031117,0.6422533277648196,0.8846155397939124
0.04961062744785721,0.4761988709242024,0.8480556023625042
-0.1724694450990088,0.4794229564688597,0.8450308370496533
0.04999113430320649,0.5334187322376864,0.862609342836549
-0.1736210054735159,0.5365222843026098,0.85944491193124
0.1625298819125479,0.5365222843026097,0.85944491193124
-0.06108225786425396,0.5334187322376864,0.8626093428365491
0.04896569661403928,0.3447073137785578,0.8090073947245217
-0.1705176358685527,0.3482083859249743,0.8063573572051163
0.04936572967274873,0.4130263006677104,0.8304032898972779
-0.1717282900589478,0.4163834590570383,0.8275479257554249
0.1606371664979798,0.4163834590570383,0.827547925755425
-0.06045685323379619,0.4130263006677103,0.8304032898972777
0.0466426429931676,0.2115665158464773,0.7592766694794317
-0.1634871804114612,0.2153480487158309,0.7571038749902559
0.04796697628525908,0.2756446373621624,0.784292398179758
-0.167495123291789,0.2792911898456085,0.7818795391809745
0.156403999730821,0.2792911898456085,0.7818795391809745
-0.05905809984630653,0.2756446373621624,0.784292398179758
0.03546350809716518,-0.2072728303321593,0.579161740757531
-0.1296548102806027,-0.2042915557290993,0.581121510317365
0.03932720153956364,-0.07610723811550108,0.6364109856972662
-0.1413478355308964,-0.07245354030275567,0.6365135385326783
0.1302567119699283,-0.07245354030275567,0.6365135385326783
-0.0504183251006111,-0.07610723811550108,0.6364109856972662
-0.4656131630499145,2.683248057588627,0.7006287686330369
0.3251586539747168,2.685260722503537,0.6886541103307418
-0.4653002489363803,2.719334738998487,0.7012438969402132
0.3249600274965368,2.721883996341601,0.6893362675344033
-0.3360511510574254,2.721883996341601,0.6893362675344033
0.4542091253754917,2.719334738998487,0.7012438969402133
-0.4659700226782969,2.759283547208606,0.7003714784449302
0.3254189322577709,2.761954917343716,0.6883933334443856
-0.4676682492137438,2.827225224803186,0.6992286757872629
0.326580297938183,2.830064579710775,0.6871257955538997
-0.3376714214990716,2.830064579710775,0.6871257955538999
0.4565771256528551,2.827225224803185,0.6992286757872628
-0.3531858179744315,0.0739989240872487,0.6902120142474342
0.2439298442495949,0.06766742518903864,0.6910309880405731
-0.368445488358388,0.1622542135186722,0.7257144129747434
0.2548354780412249,0.1560864016376982,0.7278363953545366
-0.2659266016021294,0.1560864016376982,0.7278363953545366
0.3573543647974994,0.1622542135186723,0.7257144129747434
-0.3777062499594653,4.190066807088917,1.036791398537198
0.2557896457561981,4.197394103643632,1.040987178144977
-0.369841628323707,4.249033340396043,1.015980782764324
0.2502670244996788,4.256558203183655,1.019917859503816
-0.2613581480605833,4.256558203183655,1.019917859503816
0.3587505047628183,4.249033340396043,1.015980782764324
-0.3892351520994077,4.05952079707601,1.052005211951677
0.26388536389385,4.066410701741203,1.056390118936124
-0.3859919770961862,4.120217901491131,1.047586656024066
0.2616079717902086,4.127311170634392,1.051916634643841
-0.2726990953511131,4.127311170634392,1.051916634643841
0.3749008535352976,4.120217901491131,1.047586656024066
-0.3941509883153414,3.902422793080884,1.055804766097779
0.2674744973156903,3.908786343912644,1.060284353791107
-0.3918248369968975,3.987107293200925,1.053977046827926
0.2657038682701493,3.993754577817563,1.058386466270047
-0.2767949918310538,3.993754577817563,1.058386466270047
0.3807337134360089,3.987107293200925,1.053977046827926
-0.387039680811762,3.760934335665499,1.063293788971252
0.2638128240966164,3.76682383214864,1.068456107186581
-0.3926044570803433,3.825226303788523,1.058163600143275
0.2669372296206142,3.831331209271296,1.062862300542077
-0.2780283531815188,3.831331209271296,1.062862300542077
0.3815133335194546,3.825226303788523,1.058163600143276
-0.3753828023106809,3.639941316891669,1.086022221577312
0.2557797556678149,3.6454254285982,1.092984837966311
-0.3807746835237106,3.700620902322484,1.075000582213342
0.2598028199769468,3.706308319810069,1.08095885600909
-0.2708939435378513,3.706308319810069,1.08095885600909
0.369683559962822,3.700620902322484,1.075000582213342
-0.3666332636415701,3.517648237896845,1.032209895259507
0.2480317908987843,3.522722609000104,1.039256320007071
-0.3706926873475428,3.579132192026767,1.078029940847062
0.2517871687483898,3.584412563932879,1.085869552687187
-0.2628782923092894,3.584412563932879,1.085869552687187
0.3596015637866541,3.579132192026767,1.078029940847063
-0.3678831819460369,3.388230868054253,0.7976103536230351
0.2482770182269867,3.392871628755119,0.7912872943439674
-0.3632337310324404,3.454162262186326,0.9292631615045711
0.2448835479000548,3.459023924752026,0.9310962799677272
-0.2559746714609444,3.459023924752026,0.9310962799677272
0.3521426074715518,3.454162262186326,0.9292631615045711
-0.4383571116521384,3.252098503172031,0.6934872605434292
0.3034454239413776,3.256283155009084,0.680597159829295
-0.3953306013944478,3.320294454134285,0.7133916230065325
0.2697114330480948,3.324707595190173,0.7016739466436515
-0.2808025566089833,3.324707595190173,0.7016739466436516
0.3842394778335591,3.320294454134285,0.7133916230065326
-0.4749572763208529,3.111955455185453,0.6974123592044881
0.3320872689431192,3.115670560442299,0.685023570698414
-0.4677759722559512,3.186693582025046,0.6955176966188238
0.3264970228943188,3.190659095934854,0.6828941963180703
-0.3375881464552074,3.190659095934854,0.6828941963180703
0.4566848486950625,3.186693582025046,0.6955176966188238
-0.4700623495998241,2.913143502281078,0.6983493224534083
0.3282948014090524,2.916212050122424,0.6861333408205664
-0.4729147421647536,3.01315552540558,0.6981042076468835
0.3304715291168884,3.016539603402642,0.6858270527222476
-0.3415626526777771,3.016539603402642,0.6858270527222478
0.4618236186038649,3.01315552540558,0.6981042076468835
-0.4618127700956571,2.31344659847659,0.6746910507909052
0.3221211013615843,2.303170268102652,0.6613333798476843
-0.4668357178440598,2.566707988781699,0.6865201565904689
0.3260569422099053,2.564613400951657,0.673612449955118
-0.337148065770794,2.564613400951657,0.6736124499551182
0.4557445942831711,2.5667079887817,0.6865201565904689
-0.3960231010629159,1.908693245177425,0.8872571642710823
0.2703113525631126,1.902741843396334,0.8904482954513936
-0.4356524812929322,2.056096307899059,0.7397987335755052
0.301562461985595,2.043450077609786,0.7318101960752576
-0.3126535855464837,2.043450077609786,0.7318101960752574
0.4245613577320435,2.056096307899059,0.7397987335755051
-0.3789337826045724,1.8357304645882,1.130854674332894
0.2562277421368166,1.839990318326505,1.150504444660948
-0.373790237674452,1.846857566442776,1.03175203751073
0.2526041314950009,1.847821023779996,1.045248025076324
-0.2636952550558896,1.847821023779995,1.045248025076324
0.3626991141135633,1.846857566442776,1.031752037510729
-0.4284157717300466,1.796897364513649,1.199676284603648
0.2935373855860871,1.801223150895129,1.220577105333867
-0.4005479105384979,1.829974169268793,1.185022022181379
0.2725197127988092,1.835079667849635,1.206807326526832
-0.2836108363596978,1.835079667849635,1.206807326526832
0.3894567869776092,1.829974169268793,1.18502202218138
-0.4703039469603759,1.596492745656556,1.152581223983968
0.3250760906058811,1.596605906645637,1.169375849165204
-0.4530094920016352,1.716455188725867,1.185204921250822
0.3120579163986175,1.718858983740699,1.204064878080271
-0.3231490399595061,1.7188589837407,1.204064878080271
0.4419183684407466,1.716455188725867,1.185204921250822
-0.4829360883636537,1.353348829587485,1.0690998579939
0.3351316144453062,1.351171757252473,1.082557249358429
-0.4817767619980777,1.472745104404833,1.113364316874092
0.3338043230468719,1.471263183850808,1.12846933038877
-0.3448954466077605,1.471263183850808,1.128469330388769
0.4706856384371891,1.472745104404833,1.113364316874093
-0.4299637411075725,1.080264921394611,0.9495162711707694
0.2982530659788984,1.077172886690456,0.9569846792462071
-0.4633206031631214,1.218841981338966,1.011320039417785
0.3216235514096227,1.216214246402287,1.022104149488998
-0.3327146749705163,1.216214246402287,1.022104149488998
0.4522294796022326,1.218841981338966,1.011320039417785
-0.4022273958213898,0.9202136275391575,0.9004256809093689
0.27878724009858,0.9165853440608449,0.9052251790888003
-0.407393694513173,0.9791603130906408,0.9111391812284986
0.2824004356228483,0.9757295293457333,0.9164835921467003
-0.2934915591837519,0.9757295293457334,0.9164835921467003
0.3963025709522843,0.9791603130906407,0.9111391812284986
-0.4044349268180805,0.8177163245216682,0.8950266575996358
0.2803977883743948,0.8137446258058176,0.8997590389368045
-0.4031705175989916,0.8712531436281504,0.8983989648745292
0.2794763614505932,0.8674608189924878,0.9031732683525087
-0.2905674850114977,0.8674608189924878,0.9031732683525087
0.3920793940381029,0.8712531436281504,0.8983989648745291
-0.406655084322027,0.7078002093474666,0.8811292773639673
0.2820225895969951,0.7034602388069815,0.8856888962914089
-0.4057386848560919,0.7626498176598198,0.8892208133748535
0.2813486162164986,0.7584936196744487,0.8938810205596453
-0.2924397397774031,0.7584936196744487,0.8938810205596453
0.3946475612952032,0.7626498176598198,0.8892208133748535
-0.4053686226208054,0.5998714927091846,0.8624075025835267
0.2811370233362145,0.595169909084541,0.8667343856376919
-0.4066126490564529,0.6536140247542231,0.8721356856043833
0.282010102409552,0.6490925044470036,0.8765835025548957
-0.2931012259704565,0.6490925044470036,0.8765835025548957
0.3955215254955642,0.6536140247542231,0.8721356856043833
-0.4002562204505205,0.4889436014796076,0.8368492250781455
0.2775119625283622,0.483870356094179,0.8408583856885707
-0.4030089682973891,0.545686545700925,0.8508960212388421
0.2794646958474049,0.5408034164560578,0.8550798016921701
-0.2905558194083094,0.5408034164560579,0.8550798016921702
0.3919178447365005,0.545686545700925,0.850896021238842
-0.3955683304021641,0.3585480024442893,0.7991611672136131
0.2742022247142609,0.3530378691184309,0.8027018165230719
-0.3984694845265276,0.4262975630569836,0.8198117881796248
0.2762551650791421,0.4210144233276907,0.8236091514150014
-0.2873462886400465,0.4210144233276907,0.8236091514150012
0.3873783609656389,0.4262975630569836,0.8198117881796248
-0.3788664163026624,0.226516908743305,0.7512625754485258
0.2622804836375204,0.2205644077836496,0.7541066575581472
-0.3883813840695096,0.2900609508207434,0.7753070577360325
0.2690768651182447,0.2843213529488983,0.778551169614317
-0.2801679886791492,0.2843213529488983,0.778551169614317
0.377290260508621,0.2900609508207434,0.7753070577360325
-0.2990723050885048,-0.1948623255003619,0.5867355297230056
0.2049099819432519,-0.2001790967484143,0.5838248748172807
-0.3263551427892823,-0.06142036587142141,0.6378146248477243
0.2247381737707357,-0.06741352071941634,0.636655002968243
-0.2358292973316402,-0.06741352071941634,0.636655002968243
0.3152640192283938,-0.06142036587142141,0.6378146248477243
-0.6946201798919107,2.673865105481601,1.003642196189274
0.6835290563310221,2.673865105481601,1.003642196189274
0.6836202162077516,2.705010759539941,1.003739958311564
-0.6947113397686402,2.705010759539941,1.003739958311564
-0.7634271981004394,2.665249190965551,1.050154289833009
0.7536998502773591,2.697428909291832,1.051585269864686
-0.6977945543415731,2.745190431684597,1.002419940523582
0.6867034307806844,2.745190431684597,1.002419940523582
0.6928468645436607,2.813112100408601,0.9998214058379258
-0.7039379881045493,2.813112100408601,0.9998214058379258
-0.7697686359801098,2.737997476614243,1.050485426025895
0.7676479881248088,2.805623309256144,1.047621336102651
-0.5254789399236277,0.1028509086914448,0.6939326878406258
0.5143878163627391,0.1028509086914448,0.6939326878406258
0.53896917220654,0.1906629263345289,0.7236273664440289
-0.5500602957674285,0.190662926334529,0.7236273664440289
-0.5719520000425871,0.108828559432952,0.6915564888676313
0.5877130226644221,0.1959267323667509,0.7242732293995765
-0.7066877227701882,4.15937916936028,1.032953282200106
0.6955965992092997,4.15937916936028,1.032953282200106
0.6701483780276446,4.218368469515925,1.012974154895059
-0.6812395015885331,4.218368469515925,1.01297415489506
-0.8052264445355651,4.145949419030353,1.029413677538079
0.7547806445656893,4.206789641204277,1.009845437805929
-0.7373244103276599,4.027404080605034,1.046010970549424
0.7262332867667714,4.027404080605035,1.046010970549424
0.718318135511547,4.087849842840936,1.043060938586442
-0.7294092590724356,4.087849842840935,1.043060938586442
-0.838232382898401,4.013806158290902,1.040729885057779
0.818490855556903,4.074117925150699,1.039137261620361
-0.7430506003756474,3.872745844054109,1.047785895024586
0.7319594768147588,3.872745844054109,1.047785895024586
0.731172374717554,3.956115174782008,1.046940140155678
-0.7422634982784426,3.956115174782008,1.046940140155678
-0.8442695133241077,3.859908759369391,1.041200126857679
0.8327579469461481,3.942868039216175,1.04065589749553
-0.694054074748822,3.733454734302971,1.046281126510063
0.6829629511879335,3.733454734302971,1.046281126510063
0.7144124262175329,3.796748233656411,1.047286368328283
-0.7255035497784216,3.796748233656411,1.047286368328283
-0.7842406293171482,3.721302276638207,1.038702463707433
0.811406115919899,3.784284780871083,1.040467879347152
-0.6658780359688871,3.614340764407399,1.048044236343365
0.6547869124079984,3.614340764407399,1.048044236343365
0.6606566750909276,3.674077982186824,1.047711169284373
-0.6717477986518161,3.674077982186824,1.047711169284373
-0.7511136722463238,3.602773162279805,1.037985323324552
0.7468217918212726,3.662217130384139,1.038285191222565
-0.6729947017761906,3.493946924519334,1.016299498844832
0.661903578215302,3.493946924519334,1.016299498844832
0.6568946687371449,3.554476018970514,1.037274807356891
-0.6679857922980335,3.554476018970514,1.037274807356891
-0.7512705822203193,3.482969872877416,1.024109421475663
0.7395376929407712,3.543202128953672,1.032960071593368
-0.6860355076918632,3.366539435627644,0.9850984597571998
0.6749443841309747,3.366539435627644,0.9850984597571998
0.6681199035183409,3.431446900334372,0.9969170641770908
-0.6792110270792297,3.431446900334371,0.9969170641770908
-0.7640746161360419,3.356187137325532,1.01736968124671
0.7447863973936901,3.420776322365918,1.018076132284767
-0.7019583054693066,3.232521237084234,0.9829031460187356
0.6908671819084181,3.232521237084234,0.9829031460187357
0.6828722363467579,3.299658089542673,0.9809868450223158
-0.6939633599076465,3.299658089542673,0.9809868450223158
-0.7785516385016285,3.222825975862549,1.02601772739149
0.7611821595147507,3.289633709254091,1.020366263500217
-0.7098490165408964,3.094554642249897,0.9916467709553216
0.6987578929800078,3.094554642249897,0.9916467709553217
0.6963614480078556,3.168132069118359,0.9873460554018952
-0.7074525715687443,3.168132069118359,0.9873460554018952
-0.7851431809725729,3.085535609624111,1.04088021354193
0.771563376998705,3.158752421074985,1.033851574474202
-0.7093761759615964,2.898546724783777,0.9970420667601336
0.6982850524007078,2.898546724783777,0.9970420667601336
0.6996894030304297,2.997289097669291,0.9946931554562102
-0.7107805265913183,2.997289097669291,0.9946931554562102
-0.7862220440312411,2.890526042341872,1.045033775306568
0.776191229903731,2.988746759139098,1.043865769119345
-0.6972597796885318,2.475666464710324,0.9885746319658035
0.6861686561276432,2.475666464710324,0.9885746319658035
0.6849958033011915,2.611886488773285,1.000043780622214
-0.6960869268620802,2.611886488773285,1.000043780622214
-0.7677622561849573,2.485519253435894,1.024773823568559
0.7535121436653929,2.606246243001858,1.04346603560642
-0.6922610125973174,2.048063616696683,0.950511787877437
0.6811698890364288,2.048063616696683,0.950511787877437
0.6845095120855435,2.267697986279583,0.9694346705366091
-0.695600635646432,2.267697986279583,0.969434670536609
-0.7683919656188515,2.112666385846872,0.954293541109525
0.7582362590680305,2.30579816440233,0.9915016674207544
-0.6987696625212722,1.816502721147228,0.947790833963249
0.6876785389603836,1.816502721147228,0.947790833963249
0.6814454639779832,1.892374089068383,0.9425478400011853
-0.6925365875388719,1.892374089068383,0.9425478400011853
-0.7730600872262754,1.863960942431223,0.9248634495625591
0.7579857001837412,1.96036851347501,0.9307611696155067
-0.7249635838316617,1.737739018879815,0.9717782302747384
0.713872460270773,1.737739018879815,0.9717782302747384
0.6992580410862985,1.776585415331548,0.9599949278615184
-0.7103491646471871,1.776585415331548,0.9599949278615185
-0.7875351061576623,1.742740515036069,0.9300981462273249
0.768486074353065,1.79931186729898,0.9269064492177662
-0.7483392225131265,1.581234067031469,0.9656853654667197
0.7372480989522379,1.581234067031469,0.9656853654667198
0.7275098492412271,1.674061323910648,0.9746228002625091
-0.7386009728021156,1.674061323910648,0.974622800262509
-0.8013066180112756,1.578100701414801,0.9261725538035539
0.7844211472463439,1.671017144974606,0.9305484276165451
-0.7427911970074108,1.363259574298502,0.9263818073552746
0.7317000734465222,1.363259574298502,0.9263818073552748
0.7412549385855404,1.476522929338503,0.9477973221115483
-0.752346062146429,1.476522929338503,0.9477973221115482
-0.7900102413925525,1.362739512222393,0.9052129431583694
0.7908444176562952,1.475138813624958,0.9166911585992952
-0.6521352147476349,1.094416720809049,0.899799124847359
0.6410440911867464,1.094416720809049,0.899799124847359
0.6947551849642251,1.230841647748744,0.9094536992902808
-0.7058463085251135,1.230841647748744,0.9094536992902805
-0.7031446534753054,1.09521632397808,0.896833356393968
0.7426446034642911,1.230971229173433,0.8982346759790355
-0.6083778315534364,0.9368510596555951,0.8926603923995861
0.5972867079925479,0.9368510596555952,0.8926603923995861
0.6056427467812404,0.9948822898817773,0.8949754597957136
-0.616733870342129,0.9948822898817773,0.8949754597957136
-0.6623269489538315,0.9384253943458711,0.8955789397898792
0.6590061994147226,0.9961710836700035,0.8966662145702593
-0.6109813645760237,0.8359455628779061,0.8873099779060567
0.5998902410151349,0.8359455628779062,0.8873099779060568
0.5983711326431962,0.8886509431054724,0.8906519234182562
-0.6094622562040849,0.8886509431054723,0.8906519234182562
-0.6650175181927907,0.8380171525887591,0.8902554315097754
0.652348532471866,0.8904627411653431,0.8936056804496753
-0.613465684519559,0.7277364697700255,0.8735377194123878
0.6023745609586703,0.7277364697700253,0.8735377194123879
0.6014373158497346,0.7817342512909211,0.8815564052123732
-0.6125284394106233,0.7817342512909212,0.8815564052123732
-0.6675457726813563,0.7303418783163374,0.8765290080356543
0.6555274352110816,0.7840732003771367,0.8845120344935883
-0.6105385741103737,0.6214839104504342,0.8549845016573792
0.5994474505494851,0.6214839104504342,0.8549845016573791
0.601833101223922,0.6743918088482099,0.86462509930708
-0.6129242247848107,0.67439180884821,0.86462509930708
-0.6641474568523651,0.6246140804454906,0.8579750373569114
0.6557560028441536,0.677260602217066,0.8676295478816459
-0.6017212723356372,0.5122787543975699,0.8296563319960356
0.5906301487747486,0.5122787543975698,0.8296563319960357
0.5953555118613709,0.5681404678936243,0.8435766611841644
-0.6064466354222595,0.5681404678936243,0.8435766611841645
-0.6545042937295142,0.5159488853835949,0.8326627766851752
0.6485573477970157,0.5715343139232411,0.8465650473664744
-0.5932553483573894,0.3839082284332009,0.7923075895544354
0.5821642247965008,0.3839082284332009,0.7923075895544351
0.5872791855939447,0.4506056230849225,0.8127722875893123
-0.5983703091548333,0.4506056230849226,0.8127722875893124
-0.6452685168014449,0.38821385033189,0.7953551815175706
0.6397303406874352,0.4545809593714761,0.8157950519576694
-0.5665482388765631,0.2539276074043165,0.7456612954798711
0.5554571153156745,0.2539276074043165,0.7456612954798713
0.5705483786933,0.3164847961724141,0.7686682448512935
-0.5816395022541885,0.316484796172414,0.7686682448512936
-0.6166581699264241,0.2588774986087566,0.7483186064791787
0.6217409370025957,0.3211245192373819,0.7717735705571334
-0.4404571711878852,-0.1681007450928541,0.5932846830534342
0.4293660476269965,-0.1681007450928541,0.5932846830534342
0.4693353213378617,-0.03602940574719962,0.6437354840890789
-0.4804264448987503,-0.03602940574719962,0.6437354840890788
-0.4742777020512753,-0.1575671259770505,0.5981420532970122
0.5115353725132024,-0.02769484218502664,0.6426070200442938
-0.900191965523329,2.626452447508815,1.003532618672521
0.8891008419624404,2.626452447508815,1.003532618672521
-0.9049325153792132,2.657792104907257,1.009128070075342
0.8938413918183246,2.657792104907257,1.009128070075342
-0.9512392817662347,2.641221129817192,0.9792798487226601
0.940148158205346,2.641221129817192,0.9792798487226602
-0.9111054772880454,2.696730456512457,1.014002406180504
0.9000143537271568,2.696730456512457,1.014002406180504
-0.9202104088854822,2.761710611074406,1.020943734399567
0.9091192853245935,2.761710611074406,1.020943734399567
-0.9656649493777036,2.743333745216178,0.9963386520404632
0.9545738258168149,2.743333745216178,0.9963386520404634
-0.7132097244323715,0.0724646518622926,0.7403921711253508
0.7021186008714829,0.0724646518622926,0.7403921711253509
-0.7435480966578051,0.1556879771869994,0.7751027921180207
0.7324569730969165,0.1556879771869994,0.7751027921180207
-0.8116691134843701,0.1359042891695572,0.7856705574597187
0.8005779899234814,0.1359042891695572,0.7856705574597188
-0.8967434936116175,4.103887154002051,0.9931093243604269
0.8856523700507288,4.103887154002051,0.993109324360427
-0.8501412765713359,4.180051595117697,0.9719369155356034
0.8390501530104472,4.180051595117697,0.9719369155356034
-0.8625125158148181,4.172507353221071,0.9478307467808206
0.8514213922539293,4.172507353221071,0.9478307467808206
-0.9234530985760225,3.964147409247426,1.010649340502442
0.9123619750151341,3.964147409247425,1.010649340502442
-0.9156681766851076,4.02589195691278,1.007379914722428
0.9045770531242191,4.025891956912779,1.007379914722428
-0.9291156470078659,4.007635549865431,0.9890506138827704
0.9180245234469773,4.00763554986543,0.9890506138827704
-0.934035756430274,3.810636282555979,1.012373194269861
0.9229446328693856,3.810636282555979,1.012373194269861
-0.9296016639289471,3.893388371213683,1.011081698767962
0.9185105403680585,3.893388371213683,1.011081698767963
-0.9434151594190124,3.874039686357797,0.9941943512699895
0.9323240358581239,3.874039686357797,0.9941943512699896
-0.9105978185995182,3.672370050392284,1.014491091879371
0.8995066950386296,3.672370050392283,1.014491091879371
-0.9270957388082052,3.735199162555482,1.013752139442395
0.9160046152473167,3.735199162555481,1.013752139442394
-0.9507372579435591,3.715833356788142,0.997560069873807
0.9396461343826705,3.715833356788142,0.997560069873807
-0.8927910942498367,3.554124422651811,1.01227330076868
0.8816999706889481,3.554124422651812,1.01227330076868
-0.8978340481495675,3.613427005145406,1.013906854334154
0.8867429245886789,3.613427005145406,1.013906854334154
-0.9404340002794228,3.594044592267442,0.9983598575896338
0.9293428767185341,3.594044592267442,0.9983598575896338
-0.8889614930584142,3.434600313272073,1.010450045484873
0.8778703694975255,3.434600313272073,1.010450045484873
-0.8901502381379389,3.494693035506407,1.010821376353456
0.8790591145770503,3.494693035506407,1.010821376353456
-0.9338824231320094,3.475291212528677,0.9946849764666547
0.9227912995711208,3.475291212528676,0.9946849764666547
-0.9009604529537062,3.308110523851788,1.014468014102493
0.8898693293928174,3.308110523851788,1.014468014102493
-0.8926436042627297,3.372550462479671,1.011726291785204
0.8815524807018409,3.372550462479671,1.011726291785204
-0.9374489547247092,3.353126018053442,0.9978258783238436
0.9263578311638205,3.353126018053443,0.9978258783238436
-0.9174274841019081,3.175055856042675,1.021858841753319
0.9063363605410195,3.175055856042675,1.021858841753319
-0.910021056285518,3.24171037230274,1.01774402651056
0.8989299327246294,3.24171037230274,1.01774402651056
-0.9542144224818714,3.222261659012456,1.005022046856252
0.9431232989209828,3.222261659012456,1.005022046856252
-0.9251460292641782,3.038078943562484,1.033806231524666
0.9140549057032896,3.038078943562484,1.033806231524666
-0.9222748589361877,3.111128796577574,1.02835267124478
0.9111837353752991,3.111128796577574,1.02835267124478
-0.9666873876200413,3.091654966997937,1.012764304705424
0.9555962640591525,3.091654966997936,1.012764304705424
-0.9273472209673335,2.844240122155947,1.028114361767082
0.9162560974064448,2.844240122155948,1.028114361767082
-0.9278291552239093,2.941510544012471,1.033242853436769
0.9167380316630207,2.941510544012471,1.03324285343677
-0.972253287435447,2.922035125253709,1.014194084988146
0.9611621638745584,2.922035125253709,1.014194084988146
-0.8941288378787077,2.455770500739491,0.9620141946705023
0.883037714317819,2.455770500739491,0.9620141946705022
-0.8960947733144079,2.566809062435512,0.9893360725376532
0.8850036497535192,2.566809062435512,0.9893360725376532
-0.9391821695831684,2.551181639814284,0.9555212888820061
0.9280910460222798,2.551181639814284,0.9555212888820062
-0.8898432309673555,2.201539601226984,0.914570846314348
0.8787521074064669,2.201539601226984,0.914570846314348
-0.8923154455036513,2.324139401604198,0.9340055189595016
0.8812243219427627,2.324139401604198,0.9340055189595016
-0.9309180915234577,2.308277185636666,0.896363654534909
0.9198269679625691,2.308277185636667,0.896363654534909
-0.8926904162746496,1.95821085262093,0.886038588416852
0.881599292713761,1.95821085262093,0.886038588416852
-0.8896948789194927,2.079837586685921,0.8987897183663176
0.8786037553586041,2.079837586685921,0.8987897183663176
-0.9280530648985232,2.068723303373605,0.8692986993113316
0.9169619413376347,2.068723303373605,0.8692986993113316
-0.9029701231780294,1.736311947029908,0.8807249414080817
0.8918789996171409,1.736311947029908,0.8807249414080818
-0.8974872122123279,1.843147901233783,0.8799908214375586
0.8863960886514393,1.843147901233783,0.8799908214375585
-0.9365628742607991,1.827972873003938,0.8606920086757697
0.9254717506999104,1.827972873003938,0.8606920086757697
-0.9119658964616019,1.534269379016529,0.8890598096768501
0.9008747729007133,1.534269379016529,0.8890598096768501
-0.908251492883258,1.634540916818388,0.8847246313161032
0.8971603693223694,1.634540916818388,0.8847246313161032
-0.9478150406365684,1.615244066960578,0.8712263032730054
0.9367239170756798,1.615244066960578,0.8712263032730053
-0.9027244738096991,1.319381118217985,0.8947723062185762
0.8916333502488105,1.319381118217985,0.894772306218576
-0.9122701404687351,1.431528543649868,0.891386630533095
0.9011790169078466,1.431528543649868,0.891386630533095
-0.952238780336141,1.411798407242453,0.883501702843042
0.9411476567752524,1.411798407242453,0.8835017028430421
-0.8292536961227743,1.052493191511404,0.9276458031637259
0.8181625725618855,1.052493191511404,0.927645803163726
-0.8722925877389023,1.187921307694507,0.9076951073579969
0.8612014641780137,1.187921307694507,0.9076951073579969
-0.9201344703038245,1.16814448981939,0.9070269820451661
0.9090433467429357,1.16814448981939,0.9070269820451661
-0.7949702898010096,0.8960906909483244,0.944246969545637
0.783879166240121,0.8960906909483244,0.944246969545637
-0.8012025354397659,0.953690723558986,0.9411276614357965
0.790111411878877,0.953690723558986,0.9411276614357964
-0.8611750987392048,0.9338824756806249,0.9482599619313172
0.8500839751783162,0.9338824756806248,0.9482599619313172
-0.7989076887133203,0.7959451094927477,0.9392591804360372
0.7878165651524318,0.7959451094927477,0.9392591804360372
-0.7966245909503205,0.8482527140112479,0.942713034436072
0.7855334673894319,0.8482527140112479,0.9427130344360721
-0.8581679420496796,0.8284364143923353,0.9512012646121767
0.8470768184887908,0.8284364143923353,0.9512012646121767
-0.8027230189275664,0.6885586468079359,0.9261046581246472
0.791631895366678,0.6885586468079359,0.9261046581246472
-0.8012364509974388,0.7421448905509783,0.9336427492605803
0.7901453274365503,0.7421448905509783,0.9336427492605803
-0.8633999109679313,0.7223247135661013,0.9424307423052015
0.8523087874070427,0.7223247135661013,0.9424307423052015
-0.7994189833132831,0.583121857775794,0.9075412929269695
0.7883278597523947,0.583121857775794,0.9075412929269695
-0.8021748068460548,0.6356225443494588,0.9173693997430806
0.7910836832851664,0.6356225443494588,0.9173693997430806
-0.8646962425516864,0.6158017243325247,0.92688350947768
0.8536051189907978,0.6158017243325247,0.92688350947768
-0.7910960974945268,0.4747634595499385,0.8824275348356636
0.7800049739336383,0.4747634595499385,0.8824275348356637
-0.795302471107658,0.5301909702015979,0.8961044825836488
0.7842113475467695,0.5301909702015979,0.8961044825836489
-0.8581466796176668,0.5103727633291078,0.9052777077884184
0.8470555560567784,0.5103727633291078,0.9052777077884184
-0.7845528235757046,0.3473986393834214,0.845633350027074
0.7734617000148158,0.3473986393834215,0.8456333500270739
-0.7884945942261783,0.4135720985522957,0.8657634370207686
0.7774034706652897,0.4135720985522957,0.8657634370207685
-0.8524443518860593,0.3937604960987822,0.8746645626749474
0.8413532283251708,0.3937604960987822,0.8746645626749473
-0.7611418967419189,0.2184472240960608,0.7998308274407809
0.7500507731810301,0.2184472240960608,0.799830827440781
-0.7748652228848219,0.2805078138473887,0.8227721051733197
0.7637740993239329,0.2805078138473887,0.8227721051733197
-0.8411276801378758,0.260708338642442,0.8322054061422011
0.8300365565769871,0.260708338642442,0.8322054061422011
-0.5712371296371824,-0.1515195776233465,0.6330307968599895
0.5601460060762938,-0.1515195776233465,0.6330307968599895
-0.6520589358384868,-0.04199629705821226,0.6893504121782152
0.6409678122775984,-0.04199629705821226,0.6893504121782154
-0.7126870059106883,-0.05431446840826019,0.6995088402861032
0.7015958823497998,-0.05431446840826019,0.6995088402861032
-0.9204303861881966,4.079102495725206,0.9314371354411212
0.9093392626273079,4.079102495725206,0.9314371354411212
-0.8723979425666534,4.166472616132368,0.9049124887754114
0.8613068190057646,4.166472616132367,0.9049124887754114
-0.8757151967649549,4.163532939236054,0.8444341111598963
0.8646240732040662,4.163532939236054,0.8444341111598962
-0.9487137748734127,3.929205767676336,0.9538732654803654
0.9376226513125241,3.929205767676337,0.9538732654803654
-0.9401859711861159,3.992986481109179,0.949413189048122
0.9290948476252272,3.99298648110918,0.949413189048122
-0.9443465662338964,3.988011680683628,0.8865177566637523
0.9332554426730076,3.988011680683628,0.8865177566637523
-0.9632605125451778,3.775667687172879,0.9545993806666542
0.952169388984289,3.775667687172879,0.9545993806666542
-0.9552327689221833,3.858435121841749,0.9541715531289096
0.9441416453612946,3.858435121841749,0.9541715531289094
-0.9604434269773212,3.8532336003364,0.8881046021360773
0.9493523034164325,3.853233600336401,0.8881046021360773
-0.9753407737118056,3.637371128012429,0.9531734729221082
0.9642496501509169,3.637371128012429,0.9531734729221081
-0.9706131524958007,3.700214984389577,0.9543852170483422
0.9595220289349121,3.700214984389577,0.9543852170483422
-0.978758394679317,3.695008860256722,0.8801513225976334
0.9676672711184283,3.695008860256722,0.8801513225976334
-0.9727520280057027,3.519093478794074,0.9488558652555625
0.9616609044448141,3.519093478794074,0.9488558652555625
-0.9757273993152946,3.578412826362753,0.9510245006294783
0.9646362757544059,3.578412826362752,0.9510245006294783
-0.989252543668642,3.573202237727856,0.8662685385838683
0.9781614201077533,3.573202237727855,0.8662685385838683
-0.9702107852675534,3.399529721572452,0.9508234826861937
0.9591196617066647,3.399529721572452,0.9508234826861937
-0.9700886340597974,3.459643175692126,0.948442344629054
0.9589975104989087,3.459643175692126,0.948442344629054
-0.9839128050083175,3.45442528881362,0.8669489277994331
0.9728216814474289,3.45442528881362,0.8669489277994331
-0.9820380514402387,3.272997372632785,0.963246547840571
0.97094692787935,3.272997372632785,0.963246547840571
-0.974391642932154,3.33745863508041,0.9563035894707708
0.9633005193712653,3.337458635080409,0.9563035894707708
-0.9882096622376304,3.332230950111714,0.8818511414888223
0.9771185386767416,3.332230950111714,0.8818511414888223
-0.9983758249192123,3.139898477771111,0.970689475225235
0.9872847013583235,3.139898477771111,0.9706894752252349
-0.9906905382619051,3.206575328417795,0.9680758134673765
0.9795994147010165,3.206575328417796,0.9680758134673765
-1.004417132583294,3.201343227076229,0.9014498637638175
0.993326009022405,3.201343227076229,0.9014498637638176
-1.006697885801475,3.002929690472258,0.9773985841495485
0.9956067622405864,3.002929690472258,0.9773985841495484
-1.003606826986181,3.075949377175853,0.9744602551904587
0.9925157034252922,3.075949377175854,0.9744602551904587
-1.01800657193872,3.070713885612818,0.9088985886995971
1.006915448377832,3.070713885612818,0.9088985886995971
-1.009628908490107,2.809631033631854,0.9688198992134498
0.9985377849292181,2.809631033631853,0.9688198992134498
-1.009506341617582,2.906495046185752,0.9751176620394686
0.998415218056693,2.906495046185752,0.9751176620394686
-1.024626488598585,2.901660719810895,0.9133527413272844
1.013535365037696,2.901660719810895,0.9133527413272844
-0.9966753835846063,2.664050774531192,0.9522338681594134
0.9855842600237177,2.664050774531192,0.9522338681594134
-1.004117846670353,2.727958020503485,0.9604869896691222
0.9930267231094643,2.727958020503484,0.9604869896691222
-1.020327279940907,2.721878599238505,0.9139063191390739
1.009236156380019,2.721878599238505,0.9139063191390739
-0.9849694651660748,2.596643648942406,0.9368823245333474
0.9738783416051861,2.596643648942406,0.9368823245333474
