0.4685179025745129,1.705722451828283,1.216766401430514
0.427137365369183,1.686792683762449,1.209151888564685
0.3712240423610951,1.690388450466016,1.209934569888582
0.3712103975869037,1.712678530922258,1.218280792344806
0.4270633519270671,1.736170036937268,1.225197739825572
0.3711558184901379,1.739771409015425,1.225982383423644
0.3710235441956843,1.770454112973768,1.233729714006678
-0.259508635637767,1.982333015691667,1.248140456234064
-0.3150584005681238,1.978464846683125,1.24727381007146
-0.3148675594559482,1.963037753949829,1.238983764683981
-0.3564762706517207,1.975017922614369,1.246500210346767
-0.4017513690432695,1.971632729616185,1.245738678417209
-0.4025132718602844,1.956148262717611,1.237627118069947
-0.3566184029138446,1.941353777077259,1.226679415282971
-0.4037728094297172,1.937161493831684,1.226730796975476
-0.4050300239741648,1.916793510490061,1.209171276998023
0.3689373104400752,1.976666349904266,1.284409815309027
0.4244942441681634,1.972904120314354,1.283565992978924
0.4245126884244982,1.957218396677016,1.283551907234765
0.4656649354187489,1.969397958392559,1.282779588403864
0.5102320272634905,1.96574757725366,1.281960805909016
0.5102911723421784,1.95006866349075,1.281948478235078
0.465774378450658,1.93497541446696,1.279959464900445
0.5103965610701677,1.931333858840495,1.279143319703184
0.5105992187641,1.909514091105281,1.27408828754117
0.3710381385565143,1.701436564185704,1.174828491521445
0.4269439165341962,1.698030716338649,1.174086884214057
0.4267477794194502,1.723880398034813,1.174791639823159
0.4685753239910399,1.694582005552097,1.173336352675996
0.5140098177255517,1.690639920731581,1.172478932656601
0.5147564178808244,1.716322963339559,1.173364562007666
0.4686832911450637,1.748988578364666,1.172913980671135
0.5159569010907142,1.745522220297525,1.173273744569449
0.5170756941473705,1.774704060330298,1.167329086142054
0.5109951558427417,1.971632729616185,1.245738678417209
0.4657200574511929,1.975017922614369,1.246500210346767
0.4657809412430301,1.959576971851885,1.23820061297586
0.4243021873675961,1.978464846683125,1.247273810071461
0.3687524224372393,1.982333015691667,1.248140456234064
0.3684031943619752,1.96684650665393,1.240035687216358
0.4237564483540217,1.945003894075066,1.227529719543834
0.367407705402839,1.948346290870195,1.229273478904922
0.3665169832920207,1.928995806181618,1.21196865974636
-0.6979729204491356,1.964062608630538,1.273166301043957
-0.7087480562229432,1.968981798237328,1.267600405525099
-0.633379458429929,1.974339660740387,1.269115107869778
-0.7093112092998924,1.970401450232817,1.260416083714512
-0.6998203902757291,1.967929743989166,1.253252289774218
-0.6321921454660475,1.972394972372868,1.252930587960811
-0.5462716616533018,1.979313994522446,1.261712162289316
-0.5470576359090433,1.975572829228231,1.252809119475832
-0.4639576877708722,1.978368255694161,1.253227998563172
-0.7254450409441929,1.78667162414851,1.233412907229619
-0.7248733584613865,1.819118594385468,1.242748089661007
-0.6425333746796021,1.818699233372333,1.246043597936714
-0.7241657550097049,1.850312864645309,1.252174291881707
-0.7235131640525067,1.878511072755366,1.260590899564782
-0.6411570746885972,1.878092647699219,1.263887377998615
-0.5491277112001936,1.850706350945592,1.257155341757898
-0.5484689828615375,1.878908877219946,1.265574663682168
-0.4639828609940809,1.881137886379846,1.266448058664476
-0.7031081103935868,1.673926678253997,1.177227780693337
-0.7125989294177502,1.666573792989716,1.182267515577808
-0.6373155367893936,1.658959040576959,1.180267594472185
-0.7120357763408008,1.664827708704294,1.189381263313026
-0.7012606405669933,1.668988655012903,1.196910267924372
-0.6332053994472934,1.662685828417541,1.196837404481255
-0.5489336088234391,1.654514645897485,1.187795983686649
-0.5482935272652605,1.660529922760354,1.197190697700187
-0.466025429538361,1.66196610567112,1.197708930764635
-0.7344003528081042,1.885907704067185,1.224459479378815
-0.7371058614173101,1.858004701124383,1.216106694523216
-0.6648033977209505,1.858637417290181,1.211338143790263
-0.7378134648689917,1.82711118628125,1.206745515083965
-0.7363322296997906,1.795082155063446,1.197500690318613
-0.661838645797587,1.796594467740626,1.193187822527756
-0.5854262050668505,1.829193289108173,1.1946615276063
-0.5774310635049219,1.798837533400574,1.187150407381252
-0.4953821419832765,1.801919331454539,1.17493065366945
0.8105044273664653,1.668988655012902,1.196910267924372
0.8212795631402728,1.664827708704293,1.189381263313026
0.7459000899554522,1.657013228450024,1.188046215810255
0.8218427162172223,1.666573792989716,1.182267515577808
0.8123518971930589,1.673926678253997,1.177227780693337
0.7447127599223322,1.66837213820337,1.174737906941996
0.6587487654669204,1.656626807937489,1.179476628257804
0.6595346805211475,1.666735089142069,1.173567800513869
0.5763456531632665,1.668379543667422,1.173722172523188
-0.1673735545453563,1.991785724978823,1.281647118484856
-0.167370307069213,1.998481978255987,1.27486825818407
-0.02717442505685064,2.000707582469299,1.275367513621488
-0.1673573171646398,2.000040540754806,1.266285054898223
-0.1673279030706841,1.996028891518023,1.257191195886501
-0.02716147509043021,1.998118150324391,1.257660946819684
0.136414244805246,2.002224377354529,1.266775272020677
0.1364052618899025,1.998118150324391,1.257660946819684
0.2765716898701564,1.996028891518023,1.257191195886501
0.8327569508519788,1.878511072755366,1.260590899564782
0.8334095418091772,1.850312864645309,1.252174291881707
0.7510718984151087,1.849894137597707,1.255470348893165
0.8341171452608587,1.819118594385468,1.242748089661007
0.8346888277436649,1.78667162414851,1.233412907229619
0.7523263487261503,1.786252824688449,1.236708180779729
0.6590673995127674,1.819506049853034,1.247725777314285
0.6596126982846696,1.787057911640442,1.238388561706838
0.5750743214350734,1.789256254727163,1.239246135102513
-0.1689625934759817,1.685921080488937,1.17753979080528
-0.1689921691752742,1.675314729580202,1.183473292840846
-0.0277767113293791,1.677529067490396,1.183955166340127
-0.1690052304482841,1.673025413303298,1.191898521024744
-0.1690084957665366,1.679109766708627,1.201440528696557
-0.02778169738767412,1.681245967787038,1.201905510939147
0.1370244869754874,1.675177241748066,1.192366881518672
0.1370254841871464,1.681245967787038,1.201905510939147
0.2782522825660088,1.679109766708627,1.201440528696557
0.8090641770752012,1.967929743989167,1.253252289774219
0.8185549960993646,1.970401450232816,1.260416083714512
0.7432824840917502,1.975871447364062,1.261246975880555
0.8179918430224153,1.968981798237328,1.267600405525099
0.8072167072486077,1.964062608630538,1.273166301043957
0.7391723402134803,1.968132854323768,1.275337989965718
0.6549440524640863,1.977692527704739,1.27013760054593
0.6543039643697379,1.971085982514102,1.276803498129033
0.5721247955786205,1.973870054108025,1.27762878488302
-0.1686713740073143,1.806569022230924,1.243039001963012
-0.1683669662351642,1.839158511370779,1.252432000591911
-0.0275438008298864,1.841333890335097,1.252911317816581
-0.1680150840767287,1.870534052323106,1.261928608507373
-0.1677106763045786,1.898885900948487,1.270405436860609
-0.02730043071555504,1.901101359208872,1.270899418888588
0.1366571001768798,1.872730920553907,1.262415788541452
0.1365442175150272,1.901101359208872,1.270899418888588
0.2769544631040508,1.898885900948487,1.270405436860609
0.8455760164992625,1.795082155063446,1.197500690318613
0.8470572516684637,1.82711118628125,1.206745515083965
0.7747574486747415,1.828110161772129,1.202047275639039
0.8463496482167821,1.858004701124383,1.216106694523216
0.8436441396075762,1.885907704067185,1.224459479378815
0.7691449420792923,1.886308898002354,1.219927868827875
0.6939490849014545,1.858898419356688,1.203810147032902
0.6847149052823056,1.886274858645525,1.213484064135601
0.6025915904336363,1.886503687446749,1.20087969877265
-0.4039520914395961,1.665213882125985,1.198415851656547
-0.3592609720270845,1.668711875173315,1.199177245487372
-0.3592481955821635,1.662629047114664,1.189635568614341
-0.3178902136667549,1.672065560994668,1.199907232404918
-0.2619802555616229,1.675660818340612,1.20068980360661
-0.2619741333415396,1.669573539785483,1.191147164099411
-0.3178554509458476,1.66828742200708,1.18194365506957
-0.2619496444612061,1.671851155463185,1.182719408573972
-0.2618941923042682,1.682431011756633,1.176780183674075
0.3712240423610951,1.675660818340612,1.200689803606609
0.4271340004662271,1.672065560994668,1.199907232404918
0.4271247205232615,1.665984788551175,1.190365999965155
0.4685047588265567,1.668711875173315,1.199177245487372
0.5131958782390683,1.665213882125986,1.198415851656547
0.5131761879646396,1.65911921970831,1.188871615743948
0.4684990615715565,1.664919431436589,1.181210575426127
0.5132765831312892,1.661351801866473,1.18043412394212
0.5135487051117915,1.671825810593631,1.174472014738626
-0.1409499623468766,1.908237392298253,1.205435933464065
-0.1226832422389269,1.882925960896569,1.193602363406546
-0.00888880120127605,1.88340305441408,1.207027942412748
-0.1230642508373062,1.853683592643359,1.18442439123562
-0.1420094810548019,1.823721021133661,1.17940525143285
-0.01504615101716164,1.823626761141404,1.190756303625008
0.1182698577004778,1.854045965344363,1.197904008398266
0.1242899378166339,1.823626761141404,1.190756303625008
0.2512532678542741,1.823721021133661,1.17940525143285
-0.3564043241044968,1.980905548046762,1.279206829996976
-0.4009364364115597,1.977251767983166,1.278387312660708
-0.4009167788435818,1.983955269803089,1.271610022645681
0.510180223211032,1.977251767983166,1.278387312660708
0.465648110903969,1.980905548046762,1.279206829996976
0.4656353799510118,1.987601996004695,1.272428017670993
0.4244908792652074,1.984413017824808,1.279993517328212
0.3689373104400752,1.988175574378782,1.280837410347359
0.3689312216725715,1.994874368065514,1.274059102601194
-0.2596935236406029,1.988175574378783,1.280837410347359
-0.3152470924657352,1.984413017824808,1.279993517328212
-0.3152378583655167,1.991108161145335,1.273214423016625
-0.3563988543093158,1.98916456820179,1.263845704815393
-0.401017304836035,1.985552774908946,1.26303525133688
-0.4012897230560095,1.98163179368317,1.253961023242826
0.4244563457580352,1.992662930012652,1.26463042339378
0.3689068666025569,1.996443092202607,1.265478109533831
0.3688517174431715,1.992454452787123,1.256389255298993
-0.7841232020891104,1.820359093496639,1.236987933124536
-0.7847164394483972,1.787902447241974,1.227650658755481
-0.8147641902533789,1.789618165933309,1.219717788228308
0.8939602262478694,1.787902447241974,1.227650658755481
0.8933669888885826,1.820359093496639,1.236987933124536
0.923472488707212,1.822074394285684,1.229054972247637
0.8926593854369009,1.851560326769274,1.246415640736109
0.8920283493561831,1.879765369394163,1.254833726029027
0.9220761001611647,1.881480074274998,1.246900636317843
-0.7827845625567109,1.879765369394163,1.254833726029027
-0.7834155986374287,1.851560326769274,1.246415640736109
-0.813521098456058,1.853275326829333,1.238482614842143
-0.8159569115426828,1.823973626748179,1.220399336390841
-0.8162182234670322,1.791573216038795,1.211074220045773
-0.7898027028841174,1.79349371632499,1.20318562293197
0.9244930948904733,1.855134392048025,1.229818294899308
0.9235301333748179,1.88329971351076,1.23822779254824
0.8971146127919032,1.884882966109171,1.230266283089459
-0.2610829718925457,1.835646309357294,1.251658131326281
-0.2615087358041557,1.803086834270349,1.24227611468124
-0.3173566914779559,1.799456828935145,1.241480844726274
0.3707525226036279,1.803086834270349,1.24227611468124
0.370326758692018,1.835646309357294,1.251658131326281
0.4261091684455859,1.831985387136438,1.250851494169607
0.3698345941091523,1.866987155368534,1.261142044545559
0.3694088301975422,1.895308989941006,1.269607890914937
0.4250473701699462,1.891581144650851,1.26877668870909
-0.2601650433980702,1.895308989941006,1.269607890914938
-0.2605908073096802,1.866987155368534,1.261142044545559
-0.3162965127588579,1.863290334616255,1.260322232815637
-0.3582015314612465,1.828571283080232,1.250099242445595
-0.3587293584677329,1.796070428307903,1.240738949045413
-0.4035070755004336,1.792537700825225,1.239965005667913
0.4668304928322149,1.859843566780194,1.259557871627841
0.4662945680430199,1.88810624277693,1.268001878381273
0.5109788518935705,1.884486815372756,1.267194828052409
0.04413927712428679,-2.519807087542148,0.6036286703702767
0.04637721248282538,-2.563087227096077,0.5231010601107945
0.03104835541107689,-2.56335713948894,0.5212989807063746
0.06286657431660622,-2.563087227096077,0.5231010601107944
0.06510450967510582,-2.519807087542148,0.6036286703702767
0.08329349573663084,-2.526383137216906,0.5876602541199255
0.0615912057720919,-2.588317581321324,0.4597154683404777
0.06178950589714786,-2.582168387786942,0.4796252301507648
0.07575668815842582,-2.582391186375263,0.4801533579974389
0.04745428090226109,-2.582168387786942,0.4796252301507648
0.04765258102727753,-2.588317581321324,0.4597154683404777
0.03394928757659149,-2.588532803161446,0.4606802656125539
0.04766758499279867,-2.590688512958676,0.4496026425246639
0.04767913365326412,-2.592284497458666,0.4420988734007612
0.03402804885760459,-2.592500087467807,0.4431308629458503
0.06156465314614849,-2.592284497458665,0.4420988734007611
0.06157620180657076,-2.590688512958676,0.4496026425246639
0.07524999396199039,-2.590903954844686,0.4506060115954039
0.04769611432598732,-2.593594156963177,0.4323346017296042
0.04773157990385645,-2.594742331748338,0.4143988846042493
0.03418361666788011,-2.594958149868784,0.4155365259632103
0.06151220689561575,-2.594742331748338,0.4143988846042493
0.06154767247346997,-2.593594156963177,0.4323346017296043
0.07516536930652142,-2.593809868521659,0.4334038336368029
0.04779731414719204,-2.595563433614096,0.3848930619791525
0.04789555131808626,-2.595693441409507,0.345621529890348
0.0346699941225702,-2.595909347802328,0.3470214981524804
0.06134823548138592,-2.595693441409507,0.3456215298903479
0.06144647265228016,-2.595563433614096,0.3848930619791525
0.07486518703585118,-2.595779327940909,0.3861432428666687
0.04800682345867198,-2.595118670103477,0.3056675915122687
0.04813032474297133,-2.593394356185394,0.2690186863374701
0.03536638685273491,-2.593610049200386,0.2707108290632313
0.06111346205650088,-2.593394356185394,0.2690186863374701
0.06123696334080023,-2.595118670103477,0.3056675915122687
0.07424373355793786,-2.595334523151841,0.3072199499465417
0.04830080623949264,-2.589370957043213,0.2288434457562596
0.04456507119464869,-2.57051659268345,0.1867663815182513
0.02479101336886894,-2.570729839726261,0.1887722465802608
0.0646787156048235,-2.57051659268345,0.1867663815182513
0.06094298055997957,-2.589370957043213,0.2288434457562596
0.07337171206974197,-2.589586276647002,0.230688822733173
0.02898197503275647,-2.51291704573118,0.152867885732365
0.008392906649248062,-2.420270291511216,0.1332047732982132
-0.08250406245187869,-2.420466618296998,0.1354149301779491
0.1008508801502241,-2.420270291511216,0.1332047732982132
0.08026181176671569,-2.51291704573118,0.152867885732365
0.1306758708101827,-2.513123656208274,0.1550030446216599
-0.002435689421380154,-2.320906986855826,0.125488971934303
-0.0057813857134692,-2.237348579855774,0.1233404569379321
-0.1245483192132997,-2.237526925775901,0.1255882377648722
0.1150251725129413,-2.237348579855774,0.1233404569379321
0.1116794762208523,-2.320906986855826,0.125488971934303
0.2238679905542588,-2.321093231239387,0.1277285580104018
-0.01078803094663111,-2.171797769075351,0.1225224488616438
-0.0197397741981007,-2.109772292560953,0.1216461525847581
-0.1659521547209655,-2.109938798141037,0.1239003957366285
0.1289835609975728,-2.109772292560953,0.1216461525847581
0.1200318177461033,-2.171797769075351,0.1225224488616438
0.2486429833835594,-2.171970031232529,0.1247733496911824
-0.02762271782404373,-2.056691214714299,0.1202111751483004
-0.03007175284013434,-2.022225337566185,0.1180173889260844
-0.1965992129135696,-2.022383717923796,0.1202854727139736
0.1393155396396065,-2.022225337566186,0.1180173889260844
0.1368665046235158,-2.056691214714299,0.1202111751483004
0.2985785907112166,-2.056852793845865,0.1224708915142628
-0.02985669580803583,-1.990598691722235,0.1156264885197613
-0.02971311562938325,-1.94943236421504,0.1133002963023568
-0.1955354113080179,-1.949583988665456,0.1155863717723207
0.1389569024288554,-1.94943236421504,0.1133002963023568
0.139100482607508,-1.990598691722235,0.1156264885197613
0.3052050904019794,-1.990754136814608,0.1179036915519423
-0.02961480678950982,-1.900345772662457,0.1105848999836372
-0.02955652064727386,-1.846151234423144,0.1078373474938267
-0.1950709140712688,-1.846293273364194,0.1101442594505834
0.138800307446746,-1.846151234423144,0.1078373474938267
0.138858593588982,-1.900345772662457,0.1105848999836372
0.3044875911616345,-1.900492841392152,0.1128813323728247
-0.02955396543505871,-1.790853966596563,0.106225646983607
-0.02963781499531924,-1.736004394836848,0.1057629742989722
-0.1953120520663804,-1.736136211062823,0.1080777982188814
0.1388816017947914,-1.736004394836848,0.1057629742989722
0.1387977522345309,-1.790853966596563,0.1062256469836071
0.3043071215154048,-1.790990873404766,0.1085387062021397
-0.02985370878058194,-1.680698153352807,0.1053076729812282
-0.03020396390946076,-1.6247108812659,0.1049868074671536
-0.196991381778386,-1.624832368354124,0.1073045918010274
0.1394477507089329,-1.624710881265899,0.1049868074671535
0.1390974955800541,-1.680698153352807,0.1053076729812282
0.3051962301819408,-1.680824836613091,0.1076242334870412
-0.03064757516665722,-1.568498222610236,0.1061961630889992
-0.03113085808460575,-1.515682391150413,0.1086021850995849
-0.1997407660646143,-1.515793759317444,0.1109061798537046
0.1403746448840779,-1.515682391150413,0.1086021850995849
0.1398913619661294,-1.568498222610236,0.1061961630889992
0.3075510230221254,-1.5686144926083,0.1085093347634239
-0.03158744894347372,-1.473052170381514,0.1101419786722994
-0.03199558985462328,-1.442486606769108,0.110610315209839
-0.2023057621602223,-1.442591181644101,0.1129066506616319
0.1412393766540954,-1.442486606769108,0.110610315209839
0.1408312357429459,-1.473052170381514,0.1101419786722994
0.3103389078339091,-1.473159582042829,0.1124401004282333
-0.0323781287606113,-1.420955009749246,0.111659632344208
-0.03079098357392375,-1.383098005293897,0.1133969734250863
-0.1987326190031525,-1.383197068319856,0.1156826801543466
0.1400347703733959,-1.383098005293897,0.1133969734250864
0.1416219155600835,-1.420955009749246,0.111659632344208
0.3126842485674786,-1.421057586279281,0.1139519655467802
-0.02272517957622338,-1.275110901959611,0.1141945345858344
-0.01188491199393544,-1.119874398213174,0.1137526080713093
-0.142652801576101,-1.119949031487502,0.1160369583579499
0.1211286987934076,-1.119874398213174,0.1137526080713093
0.1319689663756956,-1.275110901959611,0.1141945345858344
0.2840513501039993,-1.275199942715368,0.1164771993000277
-0.00654143546830961,-0.9981105399368271,0.1131941745095701
-0.005645184870388178,-0.9129906765889166,0.1128799220266456
-0.1241443157490645,-0.9130461090096618,0.1151676008656645
0.1148889716698604,-0.9129906765889168,0.1128799220266456
0.1157852222677818,-0.9981105399368269,0.1131941745095701
0.2360465908382733,-0.9981738723219615,0.1154806547435973
-0.005533744723378692,-0.8215522445773632,0.1126077150380482
-0.005596582489639387,-0.7074984499371952,0.1123591942283245
-0.1240001497531102,-0.7075348106488373,0.1146488591994266
0.1148403692891116,-0.7074984499371952,0.1123591942283245
0.1147775315228509,-0.8215522445773633,0.1126077150380482
0.2330575450833386,-0.8215991906081137,0.114896432114386
-0.005684652457533638,-0.58684520941192,0.1121876558138096
-0.005742760249348795,-0.4698113858280075,0.1120999810757128
-0.1244337470788009,-0.4698256868315062,0.1143906347237396
0.1149865470488209,-0.4698113858280075,0.1120999810757128
0.1149284392570058,-0.58684520941192,0.1121876558138096
0.233505172616321,-0.5868703723106641,0.1144779750575463
-0.005936062642759475,-0.3487157400861665,0.11206414896814
-0.006273772524898287,-0.2225507773205235,0.1120551909412494
-0.1260088533264605,-0.2225421300963606,0.1143460154254066
0.1155175593243704,-0.2225507773205235,0.1120551909412494
0.1151798494422316,-0.3487157400861665,0.11206414896814
0.2342509138575468,-0.3487188022171887,0.1143549392850716
-0.006609158892355804,-0.0969827468986233,0.1120551909412515
-0.006891630709327874,0.02636149075803628,0.1120537591876417
-0.1278415647933575,0.02639323950018424,0.1143445891327163
0.1161354175088,0.02636149075803626,0.1120537591876417
0.115852945691828,-0.0969827468986233,0.1120551909412515
0.2362474743079024,-0.09696244572049657,0.1143460154254082
-0.007166736907615488,0.1498944641740044,0.1120480321732001
-0.007486647756168788,0.2688263106829796,0.1120559071886051
-0.1296065241193415,0.2688805625562184,0.1143467289408913
0.116730434555641,0.2688263106829796,0.1120559071886051
0.1164105237070877,0.1498944641740044,0.1120480321732002
0.2379013807349889,0.1499376779967174,0.1143388839619473
-0.007842125648462581,0.3718278434727332,0.1120899122632211
-0.008142337087346508,0.4402023767443584,0.1121450689040314
-0.131551451590167,0.4402725340099021,0.1144355505804789
0.1173861238868187,0.4402023767443583,0.1121450689040314
0.1170859124479348,0.3718278434727331,0.1120899122632211
0.2399047412490305,0.3718916549059779,0.1143806043151739
-0.008446727336850304,0.4811144582339824,0.1122537772191945
-0.009435839477789842,0.5215362008859845,0.1124612623643005
-0.1353882813403673,0.5216139067340608,0.1147505380325818
0.118679626277262,0.5215362008859845,0.1124612623643005
0.1176905141363224,0.4811144582339824,0.1122537772191945
0.2416981308570947,0.4811884125449389,0.114543844266207
-0.01323306930225565,0.5667873211275425,0.1127717604591183
-0.02194878004520686,0.6195505893217886,0.1131784315758394
-0.172504581229925,0.6196373918735896,0.1154649718557183
0.131192566844679,0.6195505893217886,0.1131784315758394
0.1224768561017278,0.5667873211275424,0.1127717604591183
0.2558955373583733,0.5668692267266995,0.1150598518421925
-0.03045454779971955,0.6677969748590812,0.1134245608789167
-0.03304864645611005,0.6981311294748714,0.1130635820790225
-0.205429373625559,0.6982252250772578,0.1153505604117026
0.1422924332555821,0.6981311294748716,0.1130635820790225
0.1396983345991916,0.6677969748590813,0.1134245608789167
0.3069784588355098,0.6678882551521859,0.1157101623855892
-0.03264331798673809,0.7256108575650233,0.1119333493975912
-0.03216052464155287,0.764657371440964,0.1101513169134863
-0.2027949972030099,0.764757641335952,0.1124494030520025
0.141404311441025,0.764657371440964,0.1101513169134863
0.1418871047862102,0.7256108575650232,0.1119333493975912
0.313470861657453,0.7257075035577041,0.1142246386032383
-0.03158483291437222,0.8188788380819111,0.1079041244775247
-0.03097074430829947,0.8853806273075734,0.1056310112785655
-0.1992658312636526,0.8854921015135747,0.1079463385247622
0.1402145311077716,0.8853806273075733,0.1056310112785655
0.1408286197138443,0.8188788380819111,0.1079041244775247
0.3103311480815048,0.8189841402647666,0.1102107817370881
-0.03044269533572344,0.9547653117781521,0.1040238158435102
-0.03006154667742722,1.022112297177363,0.1040472566442976
-0.1965689390547817,1.022236461433376,0.1063686245626066
0.1393053334768993,1.022112297177362,0.1040472566442976
0.1396864821351956,0.9547653117781522,0.1040238158435101
0.3069433016631619,0.9548832255684636,0.1063452731684663
-0.02982458318258826,1.086977822212434,0.1069389320979045
-0.02971003171214999,1.149807850425709,0.1113861743405785
-0.1955262636902978,1.149943866090825,0.1136795505520254
0.1389538185116221,1.149807850425709,0.1113861743405785
0.1390683699820603,1.086977822212434,0.1069389320979045
0.3051098368658554,1.087108006630107,0.1092492707425538
-0.02967706113882188,1.211938070194645,0.1135260492278383
-0.02970399848826693,1.271973327275039,0.1132250968394548
-0.195508367741241,1.272120681103525,0.1155114591311848
0.138947785287739,1.271973327275039,0.1132250968394548
0.1389208479382941,1.211938070194645,0.1135260492278383
0.304672252080149,1.212079852158065,0.1158112636430852
-0.02978832893910144,1.325787624801031,0.1140793314794514
-0.0299168342410745,1.369644252445619,0.1167860245481886
-0.1961396882198979,1.369800671101048,0.1190588049401475
0.1391606210405466,1.369644252445619,0.1167860245481886
0.1390321157385735,1.325787624801031,0.1140793314794514
0.3050022983247526,1.325939973128067,0.1163624355951638
-0.03006559271506801,1.40019578642066,0.1191437045423634
-0.02859046037246701,1.436022693999498,0.1204676312189749
-0.1922053539994428,1.436185273230187,0.1227263694239281
0.1378342471719391,1.436022693999498,0.1204676312189749
0.1393093795145401,1.40019578642066,0.1191437045423634
0.3058247273454806,1.400355040560321,0.1214074923975475
-0.02222707091515971,1.517633333516964,0.1215897955953241
-0.01254080107775742,1.636731139929947,0.1228034764292098
-0.1445983215598539,1.636912346887608,0.1250533053784505
0.1217845878772295,1.636731139929947,0.1228034764292098
0.1314708577146317,1.517633333516963,0.1215897955953241
0.2825738436504187,1.517803487021391,0.1238442537010069
-0.005926770627594533,1.7362146248174,0.1238632402189289
-0.004048969780432017,1.799476169423877,0.1316503154623649
-0.1194095695359064,1.799672480728354,0.1338664012719321
0.1132927565799042,1.799476169423877,0.1316503154623649
0.1151705574270666,1.736214624817399,0.1238632402189289
0.2342233515735591,1.736405064825449,0.126109027073875
-0.003840259200457413,1.850402024659544,0.1601725926569881
-0.003786531274042935,1.899332481152798,0.2097739322069026
-0.1186311157221747,1.8995380601097,0.2116920431011724
0.1130303180735151,1.899332481152798,0.2097739322069027
0.1130840459999296,1.850402024659544,0.1601725926569881
0.2280342720813839,1.850603062386591,0.1622798903243096
-0.003926710109745343,1.943061869250275,0.2671341644228464
-0.004213425207273025,1.97784366479222,0.325225154042624
-0.1198973826848787,1.978056530362741,0.3267029170692313
0.1134572120067451,1.97784366479222,0.325225154042624
0.1131704969092174,1.943061869250275,0.2671341644228464
0.2282907056397121,1.943271506726488,0.2688334949911629
-0.004513011457486013,1.999390489112494,0.3833108002311064
-0.004735038283844233,2.008371889989326,0.4423851044576856
-0.1214446087163637,2.008587588880809,0.4434160022755915
0.1139788250833164,2.008371889989326,0.4423851044576855
0.1137567982569581,1.999390489112494,0.3833108002311064
0.23002981216956,1.999605354441222,0.3845670160966349
-0.00483230964240758,2.010414341645315,0.5051721704962748
-0.004829667468358636,2.008662163945401,0.5652806434830043
-0.1217253009462851,2.008877889777172,0.5658427997172809
0.1140734542678309,2.008662163945401,0.5652806434830043
0.1140760964418797,2.010414341645315,0.5051721704962747
0.2309769250501728,2.010630230096491,0.5059635892492789
-0.004812640091291395,2.004477867670614,0.6136884132423065
-0.004809802195119619,2.000502900132608,0.6470744859369786
-0.1216663759130224,2.000717868704105,0.6473246684776153
0.114053588994577,2.000502900132608,0.6470744859369786
0.1140564268907637,2.004477867670614,0.6136884132423065
0.2309185805743891,2.004693205158358,0.6140659351535127
0.1140535889945249,1.99602574094979,0.6886372839461122
0.1140535889945505,1.997998885515548,0.6688758184630983
0.2309101627124657,1.998213621689755,0.6690428475287257
-0.004809802195137847,1.997998885515548,0.6688758184630983
-0.004809802195155477,1.99602574094979,0.6886372839461122
-0.1168809694027712,1.996228516740823,0.688726081668013
-0.004809802195155501,1.993348311101181,0.7163922033810545
-0.004341390416652602,1.989485824869904,0.7626436373531189
-0.1109929703944059,1.989949663541621,0.7588836284385521
0.1135851772160652,1.989485824869904,0.7626436373531191
0.1140535889945249,1.993348311101181,0.7163922033810545
0.2213393496919334,1.993539078225114,0.7163795581973588
-0.001530919745722727,1.986427783039455,0.8316155877731062
0.004301863201584301,1.984174340258936,0.9136285660090132
-0.08903131825656824,1.98354185996152,0.9155711510747915
0.1049419235978879,1.984174340258936,0.9136285660090131
0.11077470654518,1.986427783039455,0.8316155877731063
0.2144500469109043,1.987164804122454,0.8241150466352152
-0.1528197409393239,1.924653821659305,1.013113851170208
-0.1555591409586568,1.945515485041168,1.016899035086815
-0.1142481348012768,1.946425857367425,1.017725710852677
0.09499559702220731,1.933112985584842,1.018664128071112
0.09609068306509172,1.962161186712171,1.014128511993641
0.1711510842977287,1.963485692484341,1.011505089829822
-0.1420715526600047,1.822570245713402,0.9885992141544844
-0.1463574287101499,1.851311558759614,0.9921239266944395
-0.1091949142956977,1.85105085474662,0.9919322915792944
0.09420686726941571,1.836930967097437,0.9915310106029632
0.09530484081564163,1.890128512542874,1.003070915637769
0.1674033342553096,1.889751769989442,1.002641820335597
-0.08939682943165767,1.66730759005174,1.003384031034711
-0.1018733164622228,1.716920023380416,0.9952295880103215
-0.06972650451180507,1.716613622474717,0.9963638198320328
0.08170951367101076,1.671708509199217,1.007731201250949
0.08979586801583642,1.779227957528896,0.9907293149784959
0.1538868415737747,1.772197039117022,0.9906801708845199
-0.1803964793846032,1.51484424295426,1.03222125818048
-0.140116104850651,1.597713345314075,1.013547444542547
-0.07816701619996036,1.602259003514167,1.015982889916281
0.08929409501851257,1.524761945160062,1.041520702098751
0.08263034452084198,1.608227245410052,1.020618297841902
0.1355952119112986,1.605634860660333,1.018597329583449
-0.2979643763700235,1.326542235745468,1.109107169577719
-0.2423392620572042,1.420305039160783,1.065892196336174
-0.1598156098835101,1.423548703647744,1.069009056469216
0.1077302217916479,1.330117412480083,1.116771826890083
0.09900817626453611,1.427251649866045,1.075443748223518
0.1862819597860581,1.425621775332566,1.072611479105136
-0.3409384097777687,1.178183626135736,1.169675841911829
-0.3309931103007575,1.245623567569235,1.14525333289068
-0.2269475461926662,1.24705343217232,1.147345251750664
0.1144524975987157,1.179083042493975,1.175748497052282
0.1129037732038381,1.247080874621857,1.151473441470138
0.2274995409264273,1.247068795659053,1.149656393396394
-0.3450842268074538,1.046169609433679,1.208439056016409
-0.3431048786800854,1.113423859591346,1.189677852929146
-0.2360128155799308,1.114585813349033,1.191839769347057
0.1150795745217333,1.046989545835501,1.215050063285554
0.1147801875675085,1.11428428688197,1.196028300442025
0.2330654235312143,1.1144170056094,1.194184692741045
-0.3480851697524117,0.9073058671623775,1.239538653698785
-0.3467552698803378,0.9768701105115778,1.2250156750332
-0.2386803010463966,0.9779210405245934,1.227357900394916
0.115533483137237,0.9080421996828805,1.246581579089278
0.115332328693196,0.9776483246683596,1.231856902069736
0.2347032028758826,0.9777683622283853,1.229876638835118
-0.3501174365190307,0.7765065680208521,1.265720681165516
-0.3491294344105601,0.8405886532119038,1.253213655592114
-0.2404151971251864,0.8415287808645063,1.255699759319512
0.1158408743177058,0.7771641519140223,1.273127228369676
0.1156914337327309,0.8412848181699439,1.260446502446733
0.2357683921707102,0.8413921998491648,1.25835719428941
-0.3514374028736821,0.6554982147678773,1.284266293683969
-0.3513152650537501,0.7121910949590951,1.276198185327539
-0.2420124701715553,0.7130268301814567,1.278801566126174
0.1160405262642907,0.6560829447408529,1.291930406474754
0.1160220522680293,0.7128099572746525,1.283750246437105
0.2367490838505807,0.7129054152173185,1.28157205438742
-0.3461016610098668,0.5676647885515118,1.295964183403569
-0.3492399305495729,0.6090197958076075,1.290630007769384
-0.2404959410314552,0.6097716485730489,1.293307026005378
0.1152334668677906,0.568196637799633,1.303790759085337
0.115708146862703,0.6095765431253486,1.298382501235037
0.2358179672119082,0.6096624199871237,1.296148499622689
-0.3394032417089001,0.4576560047906944,1.306125224670649
-0.3432431727619688,0.5262249409803603,1.300375657855594
-0.2361138725443177,0.5269094781657691,1.303102402638608
0.1142202952458265,0.4581216224858349,1.314092919150768
0.1148011052845033,0.5267318410801748,1.308263501074518
0.2331274703580812,0.5268100291350216,1.305991811881763
-0.3301642209531713,0.2395419996241836,1.311312206569996
-0.334458885400218,0.3556335801960086,1.311923037754799
-0.2296948457646373,0.3561794196758551,1.314708702294319
0.1128228441123792,0.2398763002663587,1.319351939007108
0.1134724350006321,0.3560377745812445,1.319971253551047
0.2291863244344029,0.3561001205400804,1.317654909275757
-0.324113031647766,-0.004183446788357343,1.281346174883065
-0.3268848108689333,0.1184855177198101,1.301407754433947
-0.2241601694448134,0.1188385461921523,1.304139765422812
0.1119075694769911,-0.003995882745404527,1.288969732415239
0.1123268158578247,0.1187469354655573,1.309309931639571
0.2257881508848232,0.118787258489838,1.307034251207352
-0.3192749587676478,-0.2557486181627486,1.202904763373973
-0.3214385950375437,-0.1296755100077322,1.248201619309374
-0.2201804037757357,-0.1295242465309846,1.250662149446936
0.1111757851668595,-0.2557125106799233,1.209438909157397
0.1115030466849007,-0.1295634993337748,1.255364857890701
0.2233446594051597,-0.1295462219714088,1.253294931869905
-0.3200462971206189,-0.492285178853542,1.094682044368903
-0.3188593265489662,-0.3767080475948614,1.150242807007026
-0.2182956301090344,-0.3767576316053802,1.152203508662501
0.111274434302756,-0.4919723293396151,1.102319470469621
0.1111129185784569,-0.3767447645773415,1.156045571841616
0.2221874484589318,-0.3767504280788037,1.154354464122927
-0.321726257518794,-0.7067998281973302,0.9990621429714427
-0.3213078642499572,-0.607637496696278,1.040367863850169
-0.2194232391714777,-0.6056418734196768,1.04665028855449
0.1118223294121893,-0.7064840545295688,1.028829253729245
0.1113931734502935,-0.6057174938004237,1.057676168467656
0.2231531002493633,-0.6052688018658372,1.05299495554451
-0.1994021437290305,-0.7660895403089724,1.006357252988055
-0.272585896023755,-0.771355958352949,0.9993389389918691
-0.3044349346067357,-0.7530976877090346,0.9898826442211473
0.2208008713129634,-0.7706844821462808,1.011605742865226
0.138284348595043,-0.7832026286358507,1.015044855858465
0.1205809245671366,-0.760343359765741,1.017778166269046
-0.03235815478704752,-0.8186030281671228,1.009992570387135
-0.02495443600398195,-0.8847044856608458,1.00012530988551
-0.1037438698407168,-0.8837805066202819,0.9967227532283446
0.1341982228034465,-0.8847044856608458,1.00012530988551
0.1416019415865096,-0.8186030281671228,1.009992570387135
0.2178078797766309,-0.8125884369091875,1.007323945979358
-0.02222680185476713,-1.001813541496495,0.9870543370031157
-0.01985311392651534,-1.156560624010289,0.9758925570198372
-0.09232059852588921,-1.154291940542406,0.9729601386385005
0.1290969007259794,-1.156560624010289,0.9758925570198374
0.1314705886542313,-1.001813541496495,0.9870543370031157
0.2066141960796224,-0.9997829178357544,0.9839849823623678
-0.01822576249749154,-1.277106825497635,0.9694715837055384
-0.01714936252451193,-1.339013831543914,0.9666225175450272
-0.08698597711651285,-1.338287689089635,0.9637058947479542
0.1263931493239759,-1.339013831543914,0.9666225175450272
0.1274695492969555,-1.277106825497634,0.9694715837055385
0.198353548793819,-1.275476981121417,0.9665519801266258
-0.2078244538762485,-1.440001593062743,0.949792783363965
-0.2120015124004057,-1.386710369420206,0.9533217308020023
-0.1482909251747097,-1.386809304158894,0.9583842480529886
0.124316206237795,-1.440001593062651,0.9604706578712592
0.125435849052312,-1.387087723509822,0.9639996053092769
0.1943409680300967,-1.386942495019001,0.9610829825122038
-0.1958951047336507,-1.548849595983367,0.9423632524703418
-0.2024554153189982,-1.494532989939607,0.9461253237741943
-0.1409588752626644,-1.494532989939581,0.9511878410251895
0.1211185948152762,-1.548849595983268,0.9530411269776389
0.1228770582328713,-1.494532989939523,0.9568031982814973
0.1892923602779981,-1.494532989939554,0.953886575484414
-0.1811595337300198,-1.655729512956823,0.9323464150480378
-0.1887312658126782,-1.602509225142523,0.9378268472771583
-0.1304177977602475,-1.602509225142492,0.9428893645281516
0.1171698057737274,-1.655729512956734,0.9430242895553436
0.1191983581880332,-1.602509225142423,0.9485047217844551
0.18203412196367,-1.60250922514246,0.9455880989873741
-0.1638777149089643,-1.765579459976874,0.9192661354520957
-0.1729834351410811,-1.709387916557257,0.9262622916650186
-0.1183369844563148,-1.709387916557229,0.9313248089160151
0.1125464481135498,-1.765579459976757,0.9299440099593931
0.1149823102145058,-1.709387916557165,0.9369401661723253
0.1737156723582341,-1.709387916557199,0.9340235433752409
-0.1422736210354182,-1.894707936926222,0.8995120175710427
-0.1533883361044675,-1.827616734150771,0.9104009271752205
-0.1032982904383773,-1.827616734150728,0.9154634444262118
0.1067493850663801,-1.894707936926076,0.9101898920783313
0.1097340000350758,-1.827616734150634,0.9210788016825106
0.1633605236465938,-1.827616734150685,0.918162178885432
-0.7308754523102945,1.733279955162903,1.182251493386052
-0.6537649376066009,1.735388942763666,1.179010820035647
-0.657835877728,1.765196326487637,1.18534976475125
-0.7821473679502276,1.725032384885169,1.211645631450032
-0.8116688282575022,1.72652936446352,1.203803414920564
-0.8150687797704088,1.757012278173733,1.211191518291884
-0.4662557264733489,1.726014113146622,1.222985125115317
-0.5505195038480975,1.723845108594829,1.222141861395923
-0.5506510405324825,1.754473664240329,1.229865836890435
-0.1225117415871762,-2.025456015586035,0.8749594361527746
-0.1319215797334899,-1.962529464127489,0.8875101574134801
-0.08678566250585261,-1.962529464127442,0.8925726746644708
0.8329791455539298,1.723849003993992,1.217322909868216
0.7517068165577512,1.723209601040527,1.220520324423904
0.7526061291803943,1.753663253243363,1.228185211703848
0.8947407852233743,1.731076375391269,1.187708206636817
0.9218731017323256,1.728608462804743,1.195340509192055
0.9254841044654724,1.759048916278898,1.202565589288487
0.5840900257330505,1.741892636521262,1.174719930886029
0.672614800185021,1.73839548081118,1.176732765353455
0.6785065253338565,1.768466774214603,1.181242865893187
0.1014484956828675,-2.025456015585875,0.885637310660063
0.1039713059365031,-1.962529464127337,0.8981880319207692
0.1519904726529818,-1.962529464127393,0.8952714091236907
-0.1646568867603342,1.761077380431642,1.17888096076633
-0.02448683664128153,1.763408941874234,1.181422045213614
-0.02083050613194594,1.793468442260171,1.185416892430563
-0.0955981804670113,-2.171965175621755,0.83336588105308
-0.1119935558051348,-2.089094236664097,0.8592034557641539
-0.07147803262762491,-2.089094236664041,0.8642659730151431
0.2782035046494235,1.743225166797336,1.226734868252802
0.1370073960121143,1.745364346718586,1.227200940438295
0.1369723261669597,1.77606215076067,1.23495379606243
0.09442981421878885,-2.171906283869845,0.8441530346794632
0.09862914061170666,-2.089094236663916,0.8698813302714381
0.1414501435776826,-2.089094236663982,0.8669647074743614
-0.1674223324619416,1.945837558380017,1.28239368462686
-0.02719350499465193,1.948070625653887,1.282894109700116
-0.02722857483980656,1.926212112380295,1.277824215028171
-0.03302776579630484,-2.3788772099038,0.7325524355878946
-0.06681898446477205,-2.278908159059025,0.7883537496547932
-0.03797031891524987,-2.27632568745888,0.7951544674505181
0.2723324972281851,1.951309655580521,1.231976750148026
0.1331637188927057,1.953102517697623,1.234331620277155
0.1295695770041498,1.932579176101507,1.226003701541242
-0.2619120316906657,1.739771409015425,1.225982383423644
-0.3178195651275949,1.736170036937268,1.225197739825572
-0.3176685087367318,1.766843485416616,1.232941614490393
-0.7206438146649332,1.925041226429485,1.27253830750571
-0.63938171090408,1.924782114808367,1.275819738981111
-0.6406601169334331,1.903111028567693,1.270773469256764
-0.7824054543343775,1.930974936596951,1.242643917037633
-0.8095377708433289,1.929789856866967,1.250553565754677
-0.8135291249897332,1.908275653258389,1.24510448141484
-0.471831024664862,1.933585119503022,1.228009160031251
-0.5603093879712956,1.931959196029674,1.230327549949529
-0.5665442928273087,1.91043507633396,1.222295562775059
0.08195355990438942,-2.378161097005693,0.7457911219904638
0.08788797925211396,-2.278495916796928,0.7997965779958139
0.1194455813339979,-2.276325687458779,0.7979630040269613
0.8370276950202422,1.931572512489745,1.236839988629904
0.7599231640516029,1.931757112182193,1.23318899737286
0.7643670212450433,1.910675273622449,1.227095004507521
0.8882996106601748,1.926293682813143,1.266875963085059
0.9178210709674497,1.928102018554451,1.259101061199359
0.921601373893614,1.906508386545575,1.253788648029933
0.5725427179664566,1.927973699582913,1.2783901277459
0.6567228727346727,1.925717492221318,1.277513301742566
0.6572284707995769,1.903926009615917,1.272461391812295
-0.406713114291242,1.745522220297525,1.173273744569449
-0.3594395043455915,1.748988578364665,1.172913980671135
-0.3584662891574874,1.775184199493803,1.164587145125609
0.01691846504464561,-2.444476940456672,0.6960822403753725
0.03277773864137581,-2.438402389316858,0.7064698734736111
0.03953462337798377,-2.474017486536693,0.6737246888851942
-0.4011527742706955,1.931333858840494,1.279143319703183
-0.3565305916511858,1.93497541446696,1.279959464900445
-0.3567049971818877,1.913149294897834,1.274901645617601
0.5132322740091527,1.729292950076492,1.223699436976957
0.4684605721302718,1.732807269355312,1.22446508974737
0.468304496343956,1.763473509590246,1.232206049404714
-0.2581639186033668,1.948346290870195,1.229273478904922
-0.3145126615545494,1.945003894075066,1.227529719543834
-0.3153991631144544,1.927824178731069,1.209278929312461
0.1082986385448119,-2.444844646403349,0.6893173293413877
0.1253343788789474,-2.439860337677294,0.6855845387253676
0.1307197952548384,-2.475721360565659,0.6406934515483072
0.3690055343110323,1.942232217193871,1.281585736228574
0.4245779439744482,1.938475380794569,1.28074383029885
0.4247326663141886,1.916641389063177,1.275682952470681
0.3696530749495655,1.756887399601752,1.175776869334237
0.426374719851568,1.752561974014202,1.173721265433126
0.4272434278334711,1.77874405321218,1.16541356510561
0.5130165962291894,1.937161493831684,1.226730796975476
0.4658621897133167,1.941353777077259,1.226679415282971
0.4649297011655666,1.924065474308849,1.208382150269551
-0.5450601775702659,1.971085982514102,1.276803498129033
-0.5457002656646143,1.977692527704739,1.27013760054593
-0.462842723284697,1.980578070613048,1.270852467640027
-0.5503689114851975,1.787057911640442,1.238388561706838
-0.5498236127132951,1.819506049853034,1.247725777314285
-0.4652770540730344,1.821711179226305,1.248587730365426
-0.5502908937216754,1.666735089142069,1.173567800513869
-0.5495049786674483,1.656626807937489,1.179476628257804
-0.4662934216682921,1.65803948901067,1.179713247536525
-0.5754711184828337,1.886274858645525,1.213484064135601
-0.5847052981019824,1.858898419356688,1.203810147032902
-0.5104829020596762,1.859198863021672,1.188968251920372
0.6575373140647326,1.660529922760354,1.197190697700187
0.6581773956229113,1.654514645897484,1.187795983686649
0.5752309136165723,1.655863386348515,1.188162952391726
0.1364192036190921,1.994021771095533,1.282148633501015
0.1364182118563229,2.000707582469299,1.275367513621488
0.2766140938686852,1.998481978255987,1.27486825818407
0.6577127696610094,1.878908877219946,1.265574663682168
0.6583714979996658,1.850706350945592,1.257155341757898
0.57384407919481,1.852924853219294,1.258023552697771
0.1370114658600562,1.688276963649044,1.178052262898019
0.1370204981288513,1.677529067490396,1.183955166340127
0.2782359559747464,1.675314729580202,1.183473292840846
0.6563014227085154,1.975572829228231,1.252809119475832
0.6555154484527738,1.979313994522446,1.261712162289317
0.5723928738425983,1.982209202091211,1.262284953113448
0.1369004702912112,1.808725811165659,1.243511517193783
0.1367875876293586,1.841333890335097,1.252911317816581
0.2776107530346364,1.839158511370779,1.25243200059191
-0.2596630798030847,1.996443092202607,1.265478109533831
-0.3152125589585629,1.992662930012652,1.26463042339378
-0.3151581807089736,1.988642852097284,1.255534796098187
0.6866748503043941,1.798837533400573,1.187150407381251
0.6946699918663227,1.829193289108173,1.1946615276063
0.620483175521495,1.829982279823505,1.179834626984891
-0.4040327963318171,1.661351801866473,1.18043412394212
-0.3592552747720843,1.664919431436589,1.181210575426127
-0.3592858509980998,1.675526942470822,1.175277333460479
-0.8142863465753459,1.883299713510759,1.23822779254824
-0.8152493080910012,1.855134392048025,1.229818294899308
-0.789460941613731,1.856815837070787,1.221878014466486
0.3711934312606783,1.671851155463185,1.182719408573972
0.4270992377453198,1.668287422007081,1.18194365506957
0.4270444442739373,1.678923676416704,1.176016627487495
0.1239196852158626,1.909748903421178,1.216932018095547
0.1181325880007483,1.88340305441408,1.207027942412748
0.2319270290383991,1.882925960896569,1.193602363406546
0.5102610916355072,1.985552774908946,1.26303525133688
0.4656426411087881,1.98916456820179,1.263845704815393
0.4656736293793699,1.985162806193658,1.25475403670982
0.9254620102665045,1.791573216038795,1.211074220045773
0.925200698342155,1.823973626748179,1.220399336390841
0.8994123318648849,1.825755110343362,1.212480684117878
-0.2971446406093437,1.907214527118521,1.098768857971945
-0.3257860715837622,1.907155466393908,1.103528032056836
-0.3254651234874842,1.909569714592431,1.066984463138598
-0.2671554936383993,1.827097277661343,1.067121828451983
-0.2485739344370153,1.851875513770869,1.068595356676529
-0.234310486854267,1.85115680395647,1.028080786578212
-0.3819806952382595,1.801473169092562,1.068536661803333
-0.3513240455001786,1.801599220316352,1.073075633710121
-0.3526976195242488,1.794260806586389,1.03733666652306
-0.4157272651791583,1.880730351966204,1.082462515622354
-0.4391713180144823,1.855880348232525,1.067961335993564
-0.4793540210805807,1.850749404992628,1.02464667136763
0.4064033682956444,1.812006266045038,1.070873590377478
0.4350713919501222,1.804699109098833,1.073452966857274
0.4291890888519541,1.797958163991948,1.037552226371461
0.3764617270226138,1.899712459703872,1.088298912330578
0.3578563713723955,1.879787743298298,1.076715752769033
0.3444939086208158,1.879050172863787,1.03549696316174
0.4907588685225803,1.896095321972974,1.096311155773531
0.4603418531827923,1.903773324403375,1.103109327971828
0.4671850448077152,1.905270219224391,1.066697335034453
0.5253813384767903,1.808320451184887,1.061344902196912
0.5485829606825966,1.827869544981288,1.059821007667797
0.5877389870058248,1.823252984579479,1.017358890089523
0.02102447465719157,-2.59117797990885,0.4518822178108219
0.02108026815357194,-2.592774300932894,0.4444434721442957
-0.00549225741813535,-2.590886808293491,0.4460757372604283
0.08829179879125371,-2.588806548344616,0.4619074115463365
0.0889107967808515,-2.582696732489504,0.4808085281886686
0.1158128892463106,-2.580879858732136,0.4817770158836379
-0.07410920825966962,-2.581094408431127,0.4561932912046781
-0.07401203217691479,-2.582683796679873,0.4488393832128209
-0.1707325978935503,-2.569825131522209,0.4519770324580857
0.1834792457703591,-2.578733275924479,0.4661041492493691
0.1849583976579848,-2.572788272052263,0.4839008629797166
0.2817356998430262,-2.560095866275975,0.4866044246465401
-0.2550956032553978,-2.556386441691165,0.4612335679071519
-0.2549635654728326,-2.557958842428906,0.4539749212682859
-0.3128840702366761,-2.549263853182045,0.4550144400248191
0.3645109329230707,-2.554050545160981,0.47101604227507
0.3652631524607118,-2.54846700371214,0.488252678389729
0.4226022728349438,-2.539868689418455,0.489120563283951
-0.3499475857188338,-2.541397692308098,0.4631599357011264
-0.3497969934147827,-2.542959787805113,0.4559770550403713
-0.3922899998978401,-2.531775843446464,0.459679463402144
0.4593870213338493,-2.53907710483716,0.472840300299041
0.4591418618592223,-2.53370802913605,0.4897785444286265
