-0.1390444737752196,-2.294547249246439,0.3682081922351578
-0.2244795940011867,-2.291095153091096,0.3650419985291584
0.2134177736683202,-2.294547249246439,0.3682081922351578
0.2140794379145861,-2.297918302457548,0.4322153409335676
0.2998374241911385,-2.294466206302209,0.4290491472275717
-0.550679739350155,-2.159904960287562,0.7446275786779113
-0.5538553721669073,-2.192632015729061,0.7110207615903885
-0.6389536965846914,-2.156939871093078,0.7132247724582678
0.6282286720600119,-2.192632015729061,0.7110207615903885
0.6250530392432596,-2.159904960287563,0.7446275786779113
0.7015216520219589,-2.131918876290655,0.7436600297574765
-0.5592335346760576,-2.168086711660931,0.6110310496387291
-0.5585230590289543,-2.17371458051476,0.5661769540130373
-0.645191811047739,-2.140390218493121,0.5656104058978482
0.6328963589220586,-2.17371458051476,0.5661769540130373
0.6336068345691621,-2.168086711660931,0.611031049638729
0.7203953364633779,-2.134963261156543,0.6106078651070351
-0.5461848002352736,-2.202638094579208,0.2855824238022934
-0.5479846160511298,-2.165646258134111,0.2334957388407415
-0.6223270986734333,-2.137828514607833,0.2325728417622672
0.6223579159442345,-2.165646258134111,0.2334957388407415
0.620558100128378,-2.202638094579208,0.2855824238022934
0.7049348786684486,-2.167427445097138,0.2836791092856396
-0.5591009424692925,-2.194065420710062,0.6807317667986741
-0.5598756056548944,-2.178046702047785,0.6478218173776791
-0.6467645230529682,-2.144567685905248,0.6478629861400225
0.6342489055479991,-2.178046702047785,0.6478218173776791
0.6334742423623974,-2.194065420710062,0.6807317667986741
0.7200692882196383,-2.159676057669394,0.6816638850597665
-0.5573501862829997,-2.191005123826338,0.5174446034722793
-0.5555238762418139,-2.213888438882762,0.4693759704487207
-0.6416566232050009,-2.179129894393797,0.4686133128548098
0.6298971761349181,-2.213888438882762,0.4693759704487207
0.631723486176104,-2.191005123826338,0.5174446034722793
0.7181860466844192,-2.157063499856871,0.5167741259611294
-0.5534313356885223,-2.228640607501462,0.4136500005241098
-0.550765216672624,-2.225297785409736,0.3494878180028029
-0.6360015459247344,-2.189961187046973,0.3490159332191724
0.6251385165657283,-2.225297785409736,0.3494878180028029
0.6278046355816267,-2.228640607501462,0.4136500005241098
0.71354725325735,-2.193355419507306,0.4131146315194569
-0.2494651040962166,0.6329342877635918,0.1925658074253069
-0.2525023036119731,0.7082603502705952,0.1927808627426347
-0.3776294033048708,0.7082603502706144,0.1896146690366098
0.3268756035050735,0.7082603502705952,0.1927808627426347
0.3238384039893169,0.6329342877635917,0.1925658074253069
0.4481684614754314,0.6329342877636088,0.1893996137192819
-0.2659437401805658,0.783779714948626,0.1930263907290524
-0.288082744966068,0.8498049497704165,0.1932590288446561
-0.4231871152657863,0.8498049497704501,0.1900928351386328
0.4031017553583225,0.9524071998747063,0.1936200487060298
0.3827901725286563,0.9008555138931358,0.1934444705348642
0.523624065215311,0.9008555138931743,0.1902782768288414
-0.2552887900787719,-1.880053900108799,0.2141054028931327
-0.2953158207263436,-1.822951383974597,0.213283133482019
-0.4298940554702926,-1.822951383974649,0.2099952789177629
0.3696891206194439,-1.822951383974597,0.213283133482019
0.3296620899718724,-1.880053900108799,0.2141054028931327
0.452645355242792,-1.880053900108853,0.2109392091871135
-0.3414869231171621,1.689576990092543,0.1989932479758251
-0.3348909824352372,1.716681605767526,0.2002355497377404
-0.4809020057040748,1.716681605767582,0.1961945660786497
0.4092642823283377,1.716681605767526,0.2002355497377404
0.4158602230102625,1.689576990092543,0.1989932479758251
0.5637073854636261,1.689576990092598,0.1936764002110557
-0.3402471594927687,1.62107460223237,0.1942411120077241
-0.3408217610553873,1.661450330536296,0.196780927563721
-0.4883804213935088,1.661450330536351,0.1898597831885062
0.4151950609484878,1.661450330536296,0.196780927563721
0.4146204593858694,1.62107460223237,0.1942411120077241
0.5619298966011483,1.621074602232424,0.1855746339098873
-0.3397496340916525,1.516261283671663,0.1937219416275521
-0.3398700823754684,1.57153154403409,0.1934395440530141
-0.4870159691536384,1.571531544034143,0.1830138862671008
0.4142433822685691,1.57153154403409,0.1934395440530141
0.4141229339847531,1.516261283671663,0.1937219416275522
0.5612165784799488,1.516261283671715,0.1817331590801786
-0.340409267550874,1.401219127165505,0.1875409443253404
-0.3398970594714919,1.459062337752178,0.1917139978420806
-0.487054647081253,1.459062337752229,0.1786507560972834
0.4142703593645924,1.459062337752178,0.1917139978420806
0.4147825674439746,1.401219127165505,0.1875409443253404
0.562162316122201,1.401219127165554,0.1739893436238485
-0.3431731084477986,1.279500320080405,0.1848055556342599
-0.3414688315714036,1.341501977084295,0.184827551224071
-0.4893081471412451,1.341501977084343,0.1712759505225791
0.4158421314645042,1.341501977084295,0.184827551224071
0.4175464083408992,1.279500320080405,0.1848055556342599
0.5661249234412763,1.279500320080451,0.1717423138894624
-0.3482800886839453,1.154399152097297,0.1884466290698001
-0.3455342387678901,1.215622696124895,0.1863136616011421
-0.4951368517999485,1.215622696124939,0.1743248790537684
0.4199075386609906,1.215622696124895,0.1863136616011421
0.4226533885770458,1.154399152097297,0.1884466290698002
0.5734469647659584,1.154399152097339,0.1780209712838867
-0.3530338637585366,1.068307309402476,0.1922324565770216
-0.350854249912668,1.104481241785616,0.1905552738851641
-0.5027643223693713,1.104481241785656,0.1818887957873272
0.4252275498057686,1.104481241785616,0.1905552738851641
0.4274071636516372,1.068307309402476,0.1922324565770217
0.5802626045246631,1.068307309402515,0.1853696315320112
-0.3518785744433227,-1.188403515064801,0.2039841457427182
-0.3466923390794391,-1.156421309269533,0.2049055040940813
-0.4977021197892296,-1.156421309269561,0.2005987398420908
0.4210656389725395,-1.156421309269533,0.2049055040940813
0.426251874336423,-1.188403515064801,0.2039841457427182
0.5784783685402983,-1.188403515064829,0.1981125195153941
-0.3482917860566335,-1.236767720536198,0.2024882339053978
-0.3501270216068508,-1.208547745862843,0.2029420611963715
-0.5015938111803571,-1.208547745862873,0.195373269251595
0.4245003214999511,-1.208547745862843,0.2029420611963715
0.4226650859497339,-1.236767720536198,0.2024882339053977
0.5733358750165633,-1.236767720536229,0.1933542518583738
-0.3482286857180417,1.006941419361292,0.1937013063169476
-0.3549296211138047,1.04210248958512,0.1933130823600184
-0.5086073127410467,1.042102489585158,0.1882878312462714
0.4293029210069053,1.042102489585121,0.1933130823600185
0.4226019856111423,1.006941419361292,0.1937013063169477
0.5745839303184437,1.00694141936133,0.1900219025051247
-0.3440892128356794,-1.324638222201289,0.1987856922632321
-0.3462501751895759,-1.276014381844726,0.2010433742298865
-0.4960354521571881,-1.276014381844758,0.1904846346140289
0.4206234750826763,-1.276014381844726,0.2010433742298865
0.4184625127287797,-1.324638222201289,0.1987856922632321
0.5673105110302233,-1.324638222201324,0.1869797456345618
-0.3405395004195762,-1.427932847499278,0.1979519808154396
-0.3421056392580419,-1.376389283671753,0.1976508978321335
-0.4900932980937102,-1.376389283671789,0.1848410738736779
0.4164789391511422,-1.376389283671753,0.1976508978321335
0.4149128003126765,-1.427932847499278,0.1979519808154396
0.5622211745143932,-1.427932847499317,0.1845273584829102
-0.339199221130881,-1.529345596848612,0.1988133583680597
-0.3395741479830091,-1.478849434104322,0.198379211144149
-0.4864638178780499,-1.478849434104362,0.1849545888116196
0.4139474478761095,-1.478849434104322,0.198379211144149
0.4135725210239813,-1.529345596848612,0.1988133583680597
0.5602995731208766,-1.529345596848654,0.1860035344096041
-0.3394712685624084,-1.630147041251692,0.2029038475003086
-0.3392106465655449,-1.580253922035145,0.2003256916557694
-0.4859426542398171,-1.580253922035189,0.1885197450270991
0.4135839464586453,-1.580253922035145,0.2003256916557694
0.4138445684555088,-1.630147041251692,0.2029038475003085
0.5606896162469138,-1.630147041251737,0.192345107884451
-0.3405528566828294,-1.713236588585897,0.2076346036909088
-0.3399108489699332,-1.675337631370797,0.2054518297191414
-0.4869465568796364,-1.675337631370844,0.1963178476721176
0.4142841488630336,-1.675337631370797,0.2054518297191414
0.4149261565759298,-1.713236588585897,0.2076346036909088
0.5622403238173004,-1.713236588585945,0.2001114345679712
-0.1933770637725123,2.088496370396129,0.2244964775957746
-0.1528741455860554,2.229721291941012,0.2563087102202628
-0.2355504610477195,2.229707687740234,0.2531425165142427
0.2272474454791559,2.229721291941012,0.2563087102202628
0.2677503636656127,2.088496370396129,0.2244964775957746
0.3677532395476384,2.0884963703962,0.2213302838897528
-0.2335520388885554,1.910745354056342,0.2034218070418132
-0.2189865370077348,1.978808196073203,0.2081295651171442
-0.3300970626236875,1.978808196073266,0.2049633714111215
0.2933598369008352,1.978808196073203,0.2081295651171442
0.3079253387816557,1.910745354056342,0.2034218070418132
0.4243286578255616,1.910745354056402,0.2002556133357901
-0.3064375764700629,1.768299966147401,0.2012885285820544
-0.2631261667534469,1.842672715556302,0.2024273815600717
-0.3882578061974918,1.84267271555636,0.1992611878540486
0.3374994666465473,1.842672715556302,0.2024273815600717
0.3808108763631632,1.768299966147401,0.2012885285820544
0.5185796722567695,1.768299966147458,0.1979473768854177
-0.2498677325887278,0.5074206162112066,0.1923743477517016
-0.2497430339722256,0.5716958506393199,0.1924336433022952
-0.3741936385576437,0.571695850639337,0.1892674495962704
0.324116333865326,0.5716958506393199,0.1924336433022952
0.3242410324818283,0.5074206162112066,0.1923743477517016
0.4487457228558057,0.5074206162112257,0.1892081540456773
-0.2499503804258684,0.3164655755702134,0.1923350497221696
-0.2499348396913333,0.4198008660976343,0.1923424392141194
-0.374468636567559,0.4198008660976551,0.1891762455080958
0.3243081395844338,0.4198008660976344,0.1923424392141195
0.3243236803189689,0.3164655755702134,0.1923350497221696
0.4488642177100947,0.3164655755702328,0.1891688560161463
-0.2499362527927344,0.09568882242032997,0.1923417671260235
-0.2499390783193612,0.2072016631024853,0.1923404236452527
-0.3744747136244782,0.2072016631025016,0.1891742299392294
0.3243123782124617,0.2072016631024853,0.1923404236452527
0.3243095526858349,0.09568882242032997,0.1923417671260235
0.4488439624694546,0.09568882242034328,0.1891755734200001
-0.2499150392541518,-0.1421862760549801,0.1923518540042087
-0.2499362527927344,-0.02255717724997067,0.1923417671260235
-0.3744706625763501,-0.02255717724996044,0.1891755734200001
0.3243095526858348,-0.02255717724997067,0.1923417671260235
0.3242883391472521,-0.14218627605498,0.1923518540042087
0.4488135479389567,-0.142186276054973,0.1891856602981852
-0.2496753548557442,-0.3394976653146625,0.1924658241525854
-0.2498301850998216,-0.2480141235141071,0.1923922015169494
-0.3743185899238609,-0.2480141235141032,0.1892260078109254
0.324203484992922,-0.248014123514107,0.1923922015169494
0.3240486547488445,-0.3394976653146625,0.1924658241525853
0.4484699047312542,-0.3394976653146614,0.1892996304465612
-0.2489229378335951,-0.5805433673429672,0.1928236294726751
-0.2491481268644808,-0.5482649542061996,0.1927165382316196
-0.3733407011610147,-0.5482649542062054,0.189550344525599
0.3238599400181853,-0.4290343790307971,0.1925555626430858
0.3236825024135355,-0.5041095428867926,0.1926399405880102
0.4479449403871031,-0.5041095428867971,0.189473746881989
-0.2545026607381384,-0.7829546878509825,0.1942104338842206
-0.2484677249665386,-0.6494185910699342,0.1930401320183506
-0.3723651871422091,-0.6494185910699422,0.1898739383123288
0.322841024859639,-0.6494185910699343,0.1930401320183506
0.3288759606312387,-0.7829546878509827,0.1942104338842206
0.4543582448821963,-0.7829546878509934,0.1910442401781982
-0.320737411938885,-1.075724633491828,0.2027088797098379
-0.2808438479884718,-0.9418915519070182,0.1978445715118011
-0.4136202574658307,-0.9418915519070343,0.1946783778057791
0.3552171478815722,-0.941891551907018,0.1978445715118011
0.3951107118319853,-1.075724633491828,0.2027088797098378
0.538993900710779,-1.075724633491851,0.199314571894623
-0.222833792085932,-2.015893115722614,0.2158004610505086
-0.2329019614399605,-1.940401944824429,0.214872977784089
-0.3492735105297671,-1.940401944824485,0.2117067840780698
0.3072752613330609,-1.940401944824429,0.214872977784089
0.2972070919790326,-2.015893115722614,0.2158004610505086
0.4102813232673843,-2.015778045850824,0.2126342673444894
-0.1692085449789262,-2.171746347132853,0.2239004747113888
-0.2037656825249067,-2.098758711900115,0.2165091474783392
-0.3103396299345906,-2.097953222797236,0.2133429537723204
0.2781389824180081,-2.098758711900115,0.2165091474783392
0.243581844872029,-2.171746347132854,0.2239004747113888
0.3386423584865424,-2.169588787035757,0.2207342810053719
-0.3305637961479918,-1.774083349829695,0.2119366276451677
-0.3415144676420545,-1.742353028411323,0.2098780963554285
-0.4892457163913958,-1.742353028411372,0.2042345842372987
0.4158877675351549,-1.742353028411323,0.2098780963554285
0.4049370960410922,-1.774083349829695,0.2119366276451677
0.549639892561135,-1.774083349829745,0.2079188079314902
-0.6802279569387429,0.6329342877636213,0.1740004670157989
-0.679585848195827,0.7082603502706284,0.1742155223331268
-0.7662315926318034,0.7082603502706285,0.1800494201862679
0.7539591480889315,0.7082603502706284,0.1742155223331269
0.7546012568318472,0.6329342877636213,0.1740004670157989
0.841540676574092,0.6329342877636213,0.179839160716201
-0.6799887303981804,0.7837797149486698,0.1744610503195457
-0.6814038991871477,0.8498049497704747,0.174693688435151
-0.7647293873873093,0.8498317994825411,0.1805568477411921
0.7593740437196596,0.9524515496564705,0.1742806973056811
0.7573539619537795,0.9008555138932026,0.17487913012536
0.8390267919278929,0.9009897624535351,0.1808978506077413
-0.6443286032702168,-1.879642535657627,0.1955400624836347
-0.6520832856475725,-1.822888997601835,0.1927729556520061
-0.7525017262032475,-1.818433458403814,0.1969802077102467
0.7264565855406768,-1.822888997601835,0.1927729556520062
0.7187019031633212,-1.879642535657627,0.1955400624836347
0.8155469323565669,-1.878820306879351,0.1996410575232317
-0.6563188640881896,1.689497507705595,0.147939267476032
-0.6565888768022474,1.71649019976661,0.1682358135375842
-0.7528196876172041,1.710875851388847,0.1696531509184351
0.7309621766953518,1.71649019976661,0.1682358135375842
0.730692163981294,1.689497507705595,0.147939267476032
0.8066096983056178,1.687161222087607,0.143590200303193
-0.6536757501645523,1.621634220302312,0.09359223972330523
-0.6546804020583565,1.661971667406037,0.122254243287408
-0.730579061791734,1.662523214752395,0.1191635619635326
0.7290537019514611,1.661971667406037,0.1222542432874079
0.7280490500576566,1.621634220302312,0.09359223972330519
0.8166467227764429,1.623036358799062,0.09056026195407842
-0.6546351301800906,1.516261283671753,0.04279621411712006
-0.6544966225316962,1.571643467648152,0.0660513411881952
-0.7432376606994607,1.571923895347502,0.06141198243527634
0.7288699224248006,1.571643467648152,0.06605134118819515
0.7290084300731949,1.516261283671754,0.04279621411712003
0.8178492764260311,1.516261283671754,0.03711349930195602
-0.6563160359821498,1.401219127165591,0.01316912637964622
-0.6550108057509375,1.459062337752266,0.02466875735733842
-0.7439188733670836,1.459062337752266,0.01843794592682709
0.7293841056440418,1.459062337752266,0.02466875735733839
0.7306893358752544,1.40121912716559,0.01316912637964619
0.8197087355732498,1.401219127165591,0.006772875153325243
-0.6628603032266403,1.279500320080484,0.01776031514951733
-0.6590160617083521,1.341501977084378,0.01045573327837672
-0.7483333294451937,1.341501977084378,0.004120259295612127
0.7333893616014567,1.341501977084378,0.01045573327837669
0.7372336031197448,1.279500320080484,0.0177603151495173
0.8263264223082338,1.279500320080484,0.01167666396234696
-0.6708253082255473,1.15430760199157,0.06105358533780801
-0.666882360296582,1.215622696124971,0.03538793409070959
-0.7536682841226722,1.215622696124971,0.02983324805668633
0.7412556601896866,1.215622696124971,0.03538793409070957
0.7451986081186519,1.15430760199157,0.06105358533780801
0.8287212133237386,1.154063077241184,0.05641147681735086
-0.681745651328479,1.067960433327787,0.1184334196458634
-0.6751416978687088,1.104023491256688,0.08988219726488012
-0.7582567385319188,1.102800867504755,0.08666312181862501
0.7495149977618133,1.104023491256688,0.08988219726488013
0.7561189512215834,1.067960433327787,0.1184334196458634
0.8285453829592084,1.06745653497462,0.1151911492203481
-0.6805701325682583,-1.188512925240994,0.1444746745412678
-0.684308321093652,-1.156602131287917,0.1688066217690368
-0.7836008100060437,-1.162714528055664,0.1702475152555776
0.7586816209867564,-1.156602131287917,0.1688066217690369
0.7549434324613626,-1.188512925240994,0.1444746745412678
0.8336563648823998,-1.19006895957515,0.1398613071351313
-0.6720646963342427,-1.236410661325284,0.09472230781952468
-0.6762556158801774,-1.208226851055594,0.1185733711233518
-0.7549188463635825,-1.207714627919514,0.1151579348271932
0.7506289157732818,-1.208226851055594,0.1185733711233518
0.7464379962273473,-1.236410661325284,0.09472230781952468
0.8378128105041277,-1.235409989896637,0.09128604226921064
-0.6881295472309422,1.007429266960022,0.1666218450081574
-0.6880010964729095,1.042565311750596,0.1460135193981519
-0.7596891751391729,1.045034631208095,0.1410069835028941
0.7623743963660139,1.042565311750596,0.1460135193981519
0.7625028471240467,1.007429266960022,0.1666218450081574
0.8498007945630328,1.014836461283492,0.1659702283294847
-0.6635979672832697,-1.324638222201348,0.05060295022001826
-0.6686561336396814,-1.275942970002588,0.07163794830263122
-0.7594173322372776,-1.275742835716859,0.06694121995598171
0.7430294335327858,-1.275942970002588,0.07163794830263122
0.7379712671763741,-1.324638222201348,0.05060295022001826
0.8280583012206261,-1.324638222201349,0.04516634236377189
-0.6545524403888133,-1.427932847499344,0.02548514862518422
-0.6585433414318187,-1.376389283671816,0.03440754326785784
-0.7479937223307289,-1.376389283671816,0.02846617844803659
0.7329166413249231,-1.376389283671816,0.03440754326785785
0.7289257402819178,-1.427932847499345,0.02548514862518422
0.8178519335010657,-1.427932847499345,0.01921162969976825
-0.6511370841765815,-1.529345596848685,0.03557000380378419
-0.6520924885944136,-1.478849434104392,0.02591237895389367
-0.7406588074323686,-1.478849434104391,0.01963973014549618
0.7264657884875181,-1.478849434104392,0.02591237895389366
0.7255103840696857,-1.529345596848685,0.0355700038037842
0.8138778857176405,-1.529345596848685,0.02963468084932387
-0.6513864924457635,-1.6302502276047,0.07350457794631993
-0.651166198951081,-1.580253922035221,0.05214294961255576
-0.7394375805524828,-1.580253922035221,0.04672784991292905
0.7255394988441855,-1.580253922035221,0.05214294961255579
0.7257597923388679,-1.6302502276047,0.07350457794631993
0.8139685153856749,-1.630528605840808,0.06884701332518843
-0.6522757670687437,-1.71365894079135,0.1238861477365573
-0.650731311900567,-1.675853563135524,0.09771668549959987
-0.7388307266295053,-1.677245454316066,0.09431635496217794
0.7251046117936714,-1.675853563135525,0.0977166854995999
0.7266490669618481,-1.713658940791349,0.1238861477365573
0.8022496934534527,-1.714276062937317,0.1204203748281
-0.5423428361269554,2.090794449509122,0.2063583475791877
-0.4472550433229785,2.230298278157141,0.2380056473000062
-0.5121185267811257,2.22837095624421,0.2407155969081697
0.521628343216083,2.230298278157141,0.2380056473000062
0.6167161360200597,2.090794449509122,0.2063583475791877
0.6933574931907665,2.095152069277861,0.2116176417950019
-0.6322232552938101,1.910745354056446,0.1848564666323085
-0.6098846788855468,1.979267811895886,0.1896496667862231
-0.697608278681241,1.980139335849633,0.1951680206067273
0.684257978778651,1.979267811895885,0.1896496667862231
0.7065965551869144,1.910745354056446,0.1848564666323085
0.7991687859340708,1.910698958620927,0.1905286032264143
-0.652451507460114,1.768261684947297,0.1800363090144193
-0.6420820655135646,1.842672715556402,0.1838620411505669
-0.7352804266180653,1.842440738378809,0.1898575399907216
0.716455365406669,1.842672715556402,0.1838620411505669
0.7268248073532185,1.768261684947297,0.1800363090144193
0.8251334738942375,1.764227876994405,0.1868683408602003
-0.6822293964392098,0.5074206162112396,0.1738090073421949
-0.6811297728421836,0.5716958506393498,0.1738683028927876
-0.7684421198000863,0.5716958506393498,0.1797099439912061
0.7555030727352877,0.5716958506393497,0.1738683028927875
0.756602696332314,0.5074206162112396,0.1738090073421949
0.8451076112425624,0.5074206162112396,0.1796519708211395
-0.6835993518455048,0.3164655755702469,0.1737697093126645
-0.6832822809349399,0.4198008660976701,0.1737770988046138
-0.7731158127001059,0.4198008660976701,0.1796207739107067
0.7576555808280443,0.4198008660976701,0.1737770988046138
0.7579726517386094,0.3164655755702469,0.1737697093126645
0.8482378586756585,0.3164655755702469,0.1796135492189917
-0.6842839111687435,0.095688822420353,0.1737764267165183
-0.6837856438645531,0.2072016631025135,0.1737750832357476
-0.7743783335582138,0.2072016631025135,0.1796188032914498
0.7581589437576577,0.2072016631025135,0.1737750832357476
0.7586572110618483,0.09568882242035301,0.1737764267165184
0.8500010627292025,0.09568882242035301,0.1796201168095643
-0.6844686066361334,-0.1421862760549679,0.1737865135947033
-0.6845420221969883,-0.02255717724995297,0.1737764267165184
-0.7762843492601299,-0.02255717724995296,0.1796201168095643
0.7589153220900928,-0.02255717724995298,0.1737764267165183
0.758841906529238,-0.1421862760549679,0.1737865135947033
0.8505852461698378,-0.1421862760549679,0.1796331845023697
-0.684356847397581,-0.3394976653146606,0.1739004837430789
-0.6844330554209583,-0.2480141235141002,0.1738268611074431
-0.7764667581348325,-0.2480141235141001,0.1796854552735911
0.7588063553140627,-0.2480141235141002,0.1738268611074432
0.7587301472906854,-0.3394976653146606,0.1739004837430789
0.8512479075738129,-0.3394976653146606,0.179774175139344
-0.6823166620011755,-0.5805433673429787,0.1742582890631741
-0.6828159954030744,-0.5482649542062098,0.1741511978221192
-0.7750372504149311,-0.5482649542062097,0.1800292493951884
0.7582944258845666,-0.4290343790308004,0.1739902222335815
0.7576965467119394,-0.5041095428868003,0.1740746001785087
0.8500847271481902,-0.5041095428868002,0.1799543676842996
-0.6817816013848992,-0.7829546878510012,0.1756450934747171
-0.6817488735335068,-0.6494185910699479,0.1744747916088481
-0.7747149576988532,-0.6494185910699479,0.1803455944829236
0.7561221734266113,-0.6494185910699479,0.1744747916088481
0.7561549012780036,-0.7829546878510012,0.1756450934747171
0.850443617764125,-0.7830318479976733,0.1815534457999035
-0.68613363405662,-1.075760797895535,0.1806368309172282
-0.6837716993147819,-0.9418915519070463,0.1792792311022983
-0.7786045368629264,-0.9422773526404074,0.1853612353241147
0.7581449992078865,-0.9418915519070462,0.1792792311022983
0.7605069339497244,-1.075760797895535,0.1806368309172282
0.861258007579915,-1.080914114922652,0.1877031540406146
-0.6258934945513796,-2.008861208991591,0.1972348489599056
-0.6367979918137031,-1.938345122568199,0.196307637374591
-0.7331618707184553,-1.935040751053809,0.2000423945300046
0.7111712917068074,-1.938345122568199,0.196307637374591
0.7002667944444839,-2.008861208991591,0.1972348489599056
0.7922402897578765,-2.00031895939442,0.200731648207469
-0.5685968112730145,-2.125965298261529,0.2051780628707147
-0.6016048085822943,-2.077508147468383,0.1979419053011057
-0.6869503847463844,-2.06219468187027,0.2010234455640879
0.6759781084753989,-2.077508147468383,0.1979419053011057
0.6429701111661191,-2.125965298261529,0.2051780628707147
0.7162984249162888,-2.106330018668018,0.2072266060711621
-0.6569129514949108,-1.773646645219822,0.1797574252920662
-0.6561353786977597,-1.741988316967952,0.1533220427889294
-0.7318429847829846,-1.739423092111092,0.1480478091712089
0.7305086785908641,-1.741988316967952,0.1533220427889294
0.7312862513880152,-1.773646645219822,0.1797574252920662
0.8278137882238342,-1.767256734026238,0.1786758576050243
-0.1482680150375739,2.282112970220699,0.9546863864813824
-0.1446346565822874,2.270318118816846,0.9909816194953449
-0.2236000304522834,2.270318118817024,0.9878154257893785
0.2190079564753878,2.270318118816846,0.9909816194953449
0.2226413149306744,2.282112970220698,0.9546863864813823
0.3031939188809402,2.282112970220891,0.9515201927754196
-0.1341593514022107,2.328454799580082,0.8484635933710975
-0.1457681759686928,2.299781175040149,0.9066986640760204
-0.2251445443802106,2.299781175040365,0.9035324703700636
0.2201414758617933,2.299781175040149,0.9066986640760203
0.2085326512953112,2.328454799580082,0.8484635933710973
0.2830315469216844,2.328444596429684,0.8452973996651489
-0.1158314325931721,2.340670661750391,0.3031927726660161
-0.09137611160575172,2.398637526541779,0.3647995716501079
-0.1497872973501917,2.398487880332399,0.3616333779440933
0.1657494114988522,2.398637526541779,0.364799571650108
0.1902047324862726,2.340670661750391,0.303192772666016
0.2577778513584438,2.340602640746174,0.3000265789599981
-0.09815065405800753,2.380216827494015,0.7510491920678927
-0.1177034085791444,2.356145900412613,0.7972617216387649
-0.1857873960115636,2.356094884659655,0.7940955279328225
0.1920767084722448,2.356145900412613,0.7972617216387647
0.172523953951108,2.380216827494015,0.7510491920678928
0.2334720527204527,2.380089854952924,0.7478829983619511
-0.07940890610276533,2.420020278707662,0.4408044109312789
-0.07669939836748972,2.419951494677441,0.5269878681859634
-0.1299490927640293,2.419733827463816,0.5238216744799676
0.1510726982605902,2.419951494677441,0.5269878681859633
0.1537822059958658,2.420020278707661,0.4408044109312789
0.2079662468188831,2.419816215694857,0.4376382172252707
-0.07688602948750731,2.412297934917436,0.6152357950082906
-0.08220655100235502,2.400247317088881,0.6926904187358257
-0.1374434508199479,2.400052323543466,0.6895242250298741
0.1565798508954555,2.400247317088881,0.6926904187358256
0.1512593293806078,2.412297934917435,0.6152357950082906
0.2045899716784052,2.412080267703868,0.6120696013023166
-0.4377866908160154,2.282123144242512,0.9356783739397103
-0.4286090121444328,2.270802104527351,0.9718848378818039
-0.4919844983043732,2.266803943882218,0.9703146175315337
0.5029823120375371,2.270802104527351,0.9718848378818039
0.5121599907091199,2.282123144242512,0.9356783739397102
0.5852050190637989,2.274967712831132,0.9371344047309891
-0.4159352432236946,2.32705493642693,0.8298982529617219
-0.4349627204558962,2.299783209844819,0.8880447892401762
-0.5158143519400966,2.291158110653447,0.88810227346189
0.5093360203490007,2.299783209844819,0.8880447892401761
0.4903085431167991,2.327054936426931,0.8298982529617218
0.5816224605889263,2.315551280592616,0.8284032218857087
-0.3809475112296826,2.3325248130887,0.2838882098167397
-0.3583867147076947,2.378833156828876,0.3454095667222543
-0.4640686921856644,2.34051068278214,0.3425597605561618
0.4327600146007992,2.378833156828876,0.3454095667222543
0.4553208111227871,2.3325248130887,0.2838882098167396
0.5328459836790754,2.311878614214793,0.2817844580053458
-0.3754407696152757,2.362796308249941,0.7324838516585288
-0.3944798398342029,2.34914658464518,0.7786963812293997
-0.496721916445008,2.329562896893891,0.7763708930634018
0.4688531397273075,2.34914658464518,0.7786963812293997
0.4498140695083803,2.362796308249941,0.7324838516585288
0.5630885319653045,2.328952978276107,0.7302363175207809
-0.3559325209813986,2.392168406944134,0.4220741376181273
-0.3561293924821642,2.390087747401319,0.5084225277765059
-0.4806871913899254,2.338906498486746,0.5075640798223291
0.4305026923752687,2.390087747401319,0.5084225277765058
0.430305820874503,2.392168406944134,0.4220741376181273
0.5508853406430259,2.343436183110699,0.4212428056008865
-0.3566651806047899,2.382434187641414,0.5966704545988708
-0.3613716101434927,2.373494376820905,0.6741250783264448
-0.4832516392267087,2.32692444297345,0.6722724956503315
0.4357449100365973,2.373494376820905,0.6741250783264446
0.4310384804978945,2.382434187641414,0.5966704545988707
0.5557718417429873,2.331469792871069,0.5952422918971232
-0.5438422365281773,1.037813279131413,1.295257961424763
-0.5447584613200351,0.9845222424068645,1.305769024084555
-0.5896151793864697,0.9799037672494438,1.277641839744039
-0.534971626171213,-0.3434843864419307,1.256786527639856
-0.5368828220927068,-0.4184242233691357,1.222916728646465
-0.58193745154738,-0.4229782173422259,1.195688844238521
-0.1220831162794878,0.586865260336322,1.386285396899933
-0.122806470989231,0.6513926170921128,1.38211038014348
-0.01529833726619206,0.6513926170920907,1.383765038912944
-0.1230519849506677,0.7132804738238761,1.377262388521215
-0.1230400552042877,0.7895723358910524,1.369870097090236
-0.0153749634640476,0.7895723358910276,1.371524755859701
-0.1121244368876694,-1.933599269606633,0.8765984874337859
-0.1152911359523889,-1.85402626553615,0.8950199329227694
-0.01283296712401988,-1.854026265536096,0.8966745916922277
-0.09167446103046459,2.142278330639401,1.041785583196669
-0.07402385409653618,2.228726571162845,1.022715056437501
0.0007045696640637211,2.228726571162728,1.02436971520695
-0.1105811237291108,1.995193753187925,1.062100244353547
-0.1064387787644089,2.057111781248843,1.053185162410573
-0.009928993183789578,2.057111781248772,1.054839821180036
-0.1129246207618577,1.847573933646181,1.081965155379621
-0.1115784715370235,1.927149168899274,1.071598649288307
-0.01161504510821136,1.927149168899211,1.07325330805777
-0.1150440561616685,1.714621890846562,1.09854829258014
-0.1141301929385819,1.775034935512591,1.09070149869431
-0.01245212525483215,1.775034935512532,1.092356157463773
-0.1166672715478798,1.60092873661811,1.125136545775834
-0.1158533250850938,1.657947344260263,1.109485027665816
-0.01301739061215847,1.657947344260207,1.111139686435278
-0.1183938019522879,1.486013958623978,1.16788520468618
-0.1175173245740938,1.543788405036769,1.144773039930479
-0.01356325778064255,1.543788405036716,1.146427698699941
-0.1200244208030345,1.364404719194529,1.222131114633964
-0.1192459102354994,1.426358278478545,1.194184236135511
-0.01413031213775702,1.426358278478496,1.195838894904973
-0.1212090374195543,1.235688356888101,1.273126016184976
-0.1206816698604684,1.300567108861235,1.248936604799947
-0.01460130629748278,1.300567108861189,1.250591263569407
-0.1219832557518618,1.104347066446787,1.312639744677962
-0.1216369472982229,1.171040454004691,1.294539203273673
-0.01491468054639987,1.171040454004648,1.296193862043133
-0.1228767677237068,0.8660563052760935,1.35951752164773
-0.1226565922666936,0.9328743376568777,1.347659528509613
-0.01524917025957439,0.9328743376568403,1.34931418727907
-0.1200986402487934,0.3993055557846983,1.393944532153738
-0.1210233606462606,0.500090358483578,1.390798746259225
-0.01471339634496805,0.5000903584835528,1.392453405028681
-0.119028419881646,0.1806684109615211,1.393225825029367
-0.1194498955669,0.2922544775818549,1.39483137583578
-0.0141972285617103,0.2922544775818295,1.396486034605222
-0.1187558033188127,-0.06270551765063878,1.377800478384863
-0.1187802033570146,0.05991514932335654,1.388335991288361
-0.01397753919715064,0.05991514932333748,1.389990650057798
-0.119726227433208,-0.2560392572769817,1.326763187217734
-0.1191103442546704,-0.1679618039961244,1.357688382309217
-0.01408584035841633,-0.1679618039961324,1.359343041078668
-0.1215114709516986,-0.4977307672149419,1.212945260671663
-0.1210803220251286,-0.4635568185572296,1.232938153149926
-0.01473208225611238,-0.463556818557226,1.234592811919348
-0.1226972505872224,-0.7026246927938803,1.09283126967875
-0.1220807538568578,-0.5685098044903324,1.168038206139975
-0.01506026919057806,-0.5685098044903243,1.1696928649094
-0.1231576235144487,-0.9947797429104489,1.008997825627136
-0.1230926730768674,-0.8601563452313608,1.03234901351968
-0.01539222450848096,-0.8601563452313448,1.034003672289133
-0.1227446043187634,-1.141796771384557,0.9973970881795906
-0.1230141374864707,-1.087082092730828,1.001441054480003
-0.01536646127920206,-1.087082092730802,1.003095713249457
-0.1219884805644959,-1.238110110766169,0.9887154080515767
-0.1223917670764828,-1.187803325356069,0.9936393544496285
-0.01516229560746107,-1.187803325356035,0.9952940132190786
-0.1211088314987127,-1.341394663555587,0.9768063318507262
-0.1215577113273808,-1.289854293372036,0.9829469307846271
-0.01488868756062576,-1.289854293372,0.9846015895540796
-0.1201437438718969,-1.44281172340574,0.9650706859720201
-0.1206376188010648,-1.392311636323478,0.9709167478545752
-0.01458685555562599,-1.392311636323439,0.9725714066240302
-0.1190788260072055,-1.547047008826452,0.950133577831194
-0.119630770263556,-1.493727533255784,0.9582300239500525
-0.01425656365115395,-1.493727533255737,0.959884682719504
-0.1177160135040296,-1.669575458005438,0.9313423467323356
-0.1184446036128259,-1.605913427570018,0.9412971019534974
-0.01386744728707778,-1.605913427569971,0.9429517607229521
-0.116149651430323,-1.793640727648479,0.9078330709213883
-0.1169286028201984,-1.733930484450768,0.9197537235615079
-0.01337013039151276,-1.733930484450721,0.9214083823309677
-0.07789184892833256,-2.150464867340099,0.8069870749497206
-0.09868161510120777,-2.040702810006081,0.8470790398148038
-0.007384292303596343,-2.040702810006016,0.8487336985842604
0.311058539889808,0.5868652603363553,1.38394137255459
0.3123023824981758,0.6513926170921444,1.379766355798132
0.4257850785804523,0.6513926170921737,1.37660016209214
0.3127245553575916,0.7132804738239078,1.374918364175865
0.3127040415949043,0.7895723358910874,1.367526072744887
0.4263609501070081,0.78957233589112,1.364359879038893
0.2939341200391155,-1.933599269606719,0.8742544630884506
0.2993794087356873,-1.854026265536227,0.8926759085774301
0.4131008156796445,-1.854026265536299,0.8895097148714444
0.2587694201088208,2.14227833063953,1.039441558851331
0.2284183673372599,2.228726571163012,1.020371032092174
-0.1540450674441595,2.228726571163012,1.020371032092175
0.3105236179233988,2.228726571163167,1.017204838386201
-0.3221310660780817,1.995193753188103,1.056590026302207
0.2912803201276564,1.995193753188017,1.0597562200082
-0.3123292824600471,2.057111781249038,1.047674944359235
0.2841573621980904,2.057111781248944,1.050841138065227
-0.2097840623049901,2.057111781248945,1.050841138065227
0.3867025823531516,2.057111781249038,1.047674944359235
-0.3279086534608556,1.847573933646348,1.076454937328284
0.2953100740266101,1.847573933646267,1.079621131034275
-0.3245898974871743,1.927149168899448,1.066088431236969
0.2929953068169454,1.927149168899364,1.06925462494296
-0.218622006923845,1.927149168899364,1.069254624942961
0.3989631973802788,1.927149168899448,1.066088431236969
-0.3330801402368053,1.714621890846719,1.093038074528803
0.2989545433588187,1.714621890846644,1.096204268234794
-0.3308808349912503,1.775034935512752,1.085191280642973
0.2973831123585299,1.775034935512675,1.088357474348965
-0.2230098124654295,1.775034935512674,1.088357474348965
0.4052541348843548,1.775034935512752,1.085191280642973
-0.3365449091352537,1.600928736618259,1.119626327724499
0.3017457389268199,1.600928736618187,1.122792521430489
-0.3348604645222901,1.657947344260416,1.10397480961448
0.3003461195178263,1.657947344260342,1.107141003320471
-0.2259728196247259,1.657947344260342,1.107141003320471
0.4092337644153946,1.657947344260416,1.10397480961448
-0.3405329166295124,1.486013958624119,1.162374986634846
0.3047145895511667,1.486013958624051,1.165541180340836
-0.3384257813260254,1.543788405036914,1.139262821879145
0.3032074452779852,1.543788405036844,1.142429015585135
-0.2288341453848847,1.543788405036844,1.142429015585135
0.4127990812191299,1.543788405036914,1.139262821879145
-0.3445529954973506,1.36440471919466,1.216620896582632
0.3075185157263159,1.364404719194597,1.219787090288621
-0.3426336788651997,1.426358278478681,1.188674018084178
0.3061798300138684,1.426358278478616,1.191840211790168
-0.231806530120768,1.426358278478616,1.191840211790168
0.4170069787583042,1.426358278478682,1.188674018084178
-0.3474735138173619,1.235688356888222,1.267615798133646
0.3095555199821271,1.235688356888164,1.270781991839634
-0.346173357635006,1.300567108861361,1.243426386748616
0.3086486865414562,1.3005671088613,1.246592580454604
-0.2342753866483557,1.3005671088613,1.246592580454604
0.4205466575281105,1.300567108861361,1.243426386748616
-0.3493822485013605,1.1043470664469,1.307129526626637
0.3108868249932542,1.104347066446846,1.310295720332622
-0.3485284700137699,1.171040454004806,1.289028985222345
0.3102913312410577,1.171040454004751,1.292195178928332
-0.2359180313479573,1.171040454004751,1.292195178928332
0.4229017699068745,1.171040454004806,1.289028985222345
-0.3515850861507164,0.8660563052761757,1.354007303596396
0.3124232610552549,0.8660563052761361,1.357173497302386
-0.3510422721745686,0.9328743376569791,1.342149310458291
0.3120446589516658,0.9328743376569303,1.345315504164275
-0.2376713590585653,0.9328743376569303,1.345315504164275
0.4254155720676732,0.9328743376569793,1.342149310458291
-0.344735973895608,0.3993055557847695,1.388434314102442
0.3076461395708293,0.3993055557847351,1.391600507808414
-0.3470157518626139,0.5000903584836468,1.38528852820791
0.3092362399955641,0.5000903584836137,1.388454721913891
-0.2348629401024637,0.5000903584836136,1.388454721913891
0.4213890517557183,0.5000903584836467,1.38528852820791
-0.3420974846619472,0.1806684109615847,1.387715606978101
0.3058058450720577,0.180668410961554,1.390881800684058
-0.3431365781906534,0.2922544775819245,1.389321157784502
0.3065305924313388,0.2922544775818909,1.392487351490465
-0.2321572925382384,0.2922544775818909,1.392487351490465
0.4175098780837579,0.2922544775819245,1.389321157784502
-0.3414253839544354,-0.06270551765060192,1.372290260333583
0.3053370680087008,-0.06270551765061969,1.375456454039546
-0.3414855390776914,0.05991514932340865,1.382825773237094
0.3053790250275086,0.05991514932338355,1.385991966943051
-0.2310057251344081,0.05991514932338354,1.385991966943052
0.4158588389707958,0.05991514932340865,1.382825773237094
-0.3438178384960562,-0.2560392572769716,1.321252969166417
0.3070057581346018,-0.2560392572769764,1.324419162872399
-0.3422994585570766,-0.1679618039961024,1.352178164257912
0.3059467179031309,-0.1679618039961129,1.355344357963888
-0.2315734180100305,-0.167961803996113,1.355344357963888
0.4166727584501812,-0.1679618039961024,1.352178164257912
-0.348413918353475,-0.4977307672149574,1.207435042620448
0.3100755687333321,-0.4977307672149499,1.21060123632638
-0.347156182739741,-0.4635568185572397,1.227427935098702
0.3093341877784612,-0.4635568185572349,1.230594128804639
-0.2349608878853607,-0.4635568185572349,1.230594128804639
0.4215294826328456,-0.4635568185572398,1.227427935098702
-0.3547948968361437,-0.7026246927939122,1.087321051627476
0.3121145728552837,-0.7026246927938968,1.090487245333437
-0.3509861751683778,-0.5685098044903547,1.162527988088744
0.3110544775924503,-0.5685098044903439,1.165694181794684
-0.2366811776993499,-0.5685098044903441,1.165694181794684
0.4253594750614824,-0.5685098044903547,1.162527988088744
-0.3581213185736651,-0.9947797429105072,1.003487607575818
0.3129062058603779,-0.9947797429104791,1.0066538012818
-0.357522905287774,-0.8601563452314049,1.026838795468372
0.3127945205134691,-0.8601563452313836,1.03000498917435
-0.2384212206203686,-0.8601563452313836,1.03000498917435
0.4318962051808785,-0.8601563452314049,1.026838795468372
-0.3571030734210189,-1.14179677138464,0.9918868701282837
0.3121959998345546,-1.1417967713846,0.9950530638342605
-0.3577675724185532,-1.0870820927309,0.9959308364286889
0.3126594748542745,-1.087082092730865,0.9990970301346689
-0.2382861749611741,-1.087082092730866,0.9990970301346689
0.4321408723116577,-1.0870820927309,0.9959308364286887
-0.3552389485676792,-1.238110110766266,0.9832051900002736
0.3108958093054976,-1.238110110766219,0.9863713837062487
-0.3562331990534873,-1.187803325356161,0.9881291363983262
0.3115892795217451,-1.187803325356116,0.9912953301043008
-0.2372159796286447,-1.187803325356116,0.9912953301043008
0.4306064989465916,-1.187803325356161,0.9881291363983262
-0.3530702881116509,-1.341394663555685,0.9712961137994107
0.3093832111656161,-1.341394663555638,0.9744623075053918
-0.3541769429946119,-1.289854293372135,0.9774367127333186
0.3101550812445879,-1.289854293372087,0.9806029064392963
-0.2357817813514875,-1.289854293372087,0.9806029064392962
0.4285502428877164,-1.289854293372135,0.9774367127333185
-0.3506909899866489,-1.442811723405856,0.9595604679207095
0.3077236973823045,-1.4428117234058,0.9627266616266881
-0.3519085744425098,-1.392311636323582,0.965406529803259
0.3085729386630059,-1.392311636323532,0.9685727235092403
-0.2341996387699055,-1.392311636323532,0.9685727235092404
0.4262818743356142,-1.392311636323582,0.965406529803259
-0.3480655733837016,-1.547047008826585,0.9446233597798861
0.3058925207870966,-1.547047008826521,0.9477895534858635
-0.3494263202192744,-1.493727533255911,0.9527198058987458
0.3068416150201822,-1.49372753325585,0.9558859996047224
-0.2324683151270817,-1.49372753325585,0.9558859996047224
0.423799620112379,-1.493727533255911,0.9527198058987458
-0.3447057362627614,-1.669575458005566,0.9258321286810118
0.3035491002828346,-1.669575458005504,0.9289983223869968
-0.3465019804913542,-1.605913427570151,0.9357868839021826
0.3048019454072937,-1.605913427570087,0.9389530776081633
-0.2304286455141932,-1.605913427570087,0.9389530776081634
0.4208752803844588,-1.605913427570151,0.9357868839021826
-0.3408440741281628,-1.793640727648615,0.9023228528700586
0.3008556666725117,-1.793640727648549,0.9054890465760466
-0.342764477550506,-1.733930484450898,0.9142435055101785
0.3021951103998061,-1.733930484450835,0.9174096992161662
-0.2278218105067057,-1.733930484450835,0.9174096992161662
0.4171377774436106,-1.733930484450898,0.9142435055101786
-0.2527740379582262,-2.148019632563476,0.8014768568983833
0.2350695672478031,-2.15046486734019,0.8046430506043747
-0.3003357973722342,-2.039695948627577,0.8415688217634838
0.2708185526840172,-2.040702810006173,0.8447350154694671
-0.1964452527909169,-2.040702810006173,0.8447350154694668
0.3747090972653386,-2.039695948627577,0.8415688217634837
-0.5430465404405177,0.5868652603364086,1.35443258647394
0.6174198403336223,0.5868652603364086,1.35443258647394
0.6206848989428793,0.6513926170921951,1.350257569717475
-0.5463115990497747,0.6513926170921951,1.350257569717475
-0.5887586520910718,0.5822319895061692,1.32277563227036
0.6665449995081469,0.6467607241234554,1.318993402028038
-0.547419793221575,0.7132804738239593,1.345409578095205
0.6217930931146795,0.7132804738239592,1.345409578095205
0.6217392449533282,0.7895723358911437,1.338017286664227
-0.5473659450602236,0.7895723358911438,1.338017286664227
-0.5931976139112083,0.70865086037181,1.314530891347736
0.667285153990979,0.7849460954775898,1.307675190770873
-0.6368359186742313,-1.924400260904123,0.8555261669698822
0.7112092185673358,-1.924400260904123,0.8555261669698819
0.7232798780890465,-1.851205819885187,0.8741105681679899
-0.6489065781959419,-1.851205819885187,0.87411056816799
-0.7358586479404576,-1.919634504026377,0.8501781263579036
0.827509473730794,-1.852353561999611,0.8688889601812461
-0.4700045862851844,2.145826831294376,1.020431786469061
0.5443778861782888,2.145826831294376,1.02043178646906
0.5095574141934605,2.232041218180004,1.001272842606173
-0.4351841143003562,2.232041218180004,1.001272842606173
-0.5279217113969785,2.144385041968178,1.016399488346426
0.5699038024974497,2.231412511156579,0.9962081256320672
-0.5120217731403104,1.995193753188166,1.041190879598748
0.586395073033415,1.995193753188166,1.041190879598748
0.5762789828832908,2.057821481380035,1.03218691126121
-0.5019056829901863,2.057821481380035,1.03218691126121
-0.5604879885901458,1.99061426485596,1.038607218304559
0.6262458088585601,2.053870157893431,1.029372756884678
-0.5227036916625789,1.847573933646407,1.061055790624825
0.5970769915556834,1.847573933646407,1.061055790624825
0.5909799989759536,1.927149168899508,1.05068928453351
-0.516606699082849,1.927149168899508,1.05068928453351
-0.5729291739569555,1.842990912719221,1.058597190100379
0.6402634431254909,1.922568159236703,1.048095682129999
-0.5317792111695205,1.714621890846775,1.076736093557471
0.6061525110626251,1.714621890846775,1.076736093557471
0.6025186701148666,1.775034935512809,1.069792133939515
-0.528145370221762,1.77503493551281,1.069792133939515
-0.5837644888681192,1.710034895231466,1.073902408056412
0.6535567898251765,1.770449872289704,1.067637016170529
-0.5337825100688928,1.600928736618312,1.094514872987847
0.6081558099619973,1.600928736618312,1.094514872987847
0.6078408478749415,1.65794734426047,1.08406149157165
-0.533467547981837,1.65794734426047,1.08406149157165
-0.589687838082172,1.5963375660271,1.081459107241158
0.6616898569107491,1.653358349124948,1.077242587235122
-0.5345888171544513,1.486013958624168,1.134938049693064
0.6089621170475559,1.486013958624168,1.134938049693064
0.608379322668172,1.543788405036965,1.111415505724691
-0.5340060227750675,1.543788405036965,1.111415505724691
-0.5877241208622491,1.481417805024106,1.116792508597657
0.6643035331053048,1.539194842471387,1.094305853666423
-0.5357986772092831,1.364404719194706,1.19027830420797
0.6101719771023877,1.364404719194706,1.19027830420797
0.6095237298639493,1.426358278478729,1.162112556796092
-0.5351504299708447,1.426358278478729,1.162112556796092
-0.5788708290618656,1.359803033038181,1.169763174758981
0.657751656683962,1.421759410284391,1.143184550616438
-0.5391011473044055,1.235688356888264,1.241273205758985
0.61347444719751,1.235688356888265,1.241273205758985
0.6115029539691417,1.300567108861406,1.217083794373954
-0.5371296540760372,1.300567108861406,1.217083794373954
-0.5805620063135427,1.231080640682003,1.217442346087864
0.6522217579375199,1.29596246625822,1.194825292516142
-0.5425957927353344,1.104347066446941,1.280786934251978
0.6169690926284388,1.104347066446941,1.280786934251978
0.6154059350478193,1.171040454004848,1.262686392847684
-0.5410326351547148,1.171040454004848,1.262686392847684
-0.5863305888338866,1.099733231499693,1.254363570506528
0.658239378543283,1.166429624811775,1.237460308383177
-0.5466289025179222,0.8660563052762048,1.327664711221733
0.6210022024110267,0.8660563052762048,1.327664711221733
0.6200083804841284,0.9328743376570151,1.315806718083633
-0.545635080591024,0.9328743376570151,1.315806718083633
-0.5919373791061897,0.8614333368800404,1.29804206635683
0.6651106597752292,0.9282539518019093,1.286994330062849
-0.5340890670714937,0.3993055557847945,1.362091721727793
0.6084623669645982,0.3993055557847945,1.362091721727793
0.6126363444810749,0.500090358483671,1.358945935833254
-0.5382630445879704,0.500090358483671,1.358945935833254
-0.5792031990730944,0.394666591139816,1.329583630113065
0.6580569411972893,0.4954548950597225,1.32682728045229
-0.5292583357905746,0.1806684109616071,1.361373014603462
0.6036316356836793,0.1806684109616071,1.361373014603462
0.6055340810485812,0.292254477581949,1.362978565409859
-0.5311607811554766,0.292254477581949,1.362978565409859
-0.5739143526380381,0.1760731618736543,1.32834793076684
0.6503832011810162,0.2876128732582093,1.330169442359982
-0.5280278066414367,-0.06270551765058893,1.345947667958939
0.6024011065345413,-0.06270551765058893,1.345947667958939
0.6025112427564039,0.05991514932342704,1.356483180862455
-0.5281379428632992,0.05991514932342704,1.356483180862455
-0.5725809400500789,-0.066893426285418,1.313139107414201
0.6470606750173493,0.05550804349852842,1.323408755566484
-0.5324080803393323,-0.256039257276968,1.29491037679176
0.6067813802324367,-0.256039257276968,1.29491037679176
0.6040014236671516,-0.1679618039960946,1.32583557188326
-0.5296281237740471,-0.1679618039960946,1.32583557188326
-0.5773079888385077,-0.2605528948337395,1.264290531602578
