0.254336819480222,-0.4734793360322629,0.2334035154616022
-0.07203207552949584,-0.5300244687108803,0.2264330290104673
-0.06865028390150949,-0.4970754411702804,0.2271057947514538
-0.230527087029456,-0.4969977413354317,0.2318678646862281
0.09871303370515075,-0.4970754411702804,0.2271057947514538
0.1020948253331371,-0.5300244687108803,0.2264330290104673
0.2705134875184357,-0.5299445839658095,0.2311990895530461
-0.07422444273957157,-0.6326201518353981,0.2209442820334379
-0.07409508312165859,-0.5758480153050684,0.2242911302980046
-0.2465045012101015,-0.5757650919168922,0.2290698958242028
0.1041578329252999,-0.5758480153050684,0.2242911302980046
0.1042871925432129,-0.6326201518353981,0.2209442820334379
0.2769468485176477,-0.6325334637831123,0.225742899876709
-0.07339346308673166,-0.7532247056358281,0.2197083658355832
-0.0737600926487163,-0.6930435635989666,0.2192620323505962
-0.2455214931474786,-0.6929528687598385,0.2240706287024399
0.1038228424523577,-0.6930435635989666,0.2192620323505962
0.103456212890373,-0.753224705635828,0.2197083658355832
0.2745083920103849,-0.753130020075206,0.224514314695469
-0.07307970673481537,-0.8716320220830029,0.2209852950088251
-0.07316747626341394,-0.8126738027289936,0.2203417035267772
-0.2437824983644985,-0.8125751749901153,0.225143895652068
0.1032302260670552,-0.8126738027289935,0.2203417035267772
0.1031424565384566,-0.8716320220830029,0.2209852950088251
0.2735876941143404,-0.8715294847168682,0.2257836695776697
-0.07314339242359985,-0.9893255921947207,0.2270491457440918
-0.07308238140324409,-0.9310714733239247,0.2232272184126416
-0.2435327929537744,-0.9309649944191676,0.2280122946868678
0.1031451312068854,-0.9310714733239247,0.2232272184126416
0.1032061422272412,-0.9893255921947207,0.2270491457440918
0.2737745756844311,-0.9892152503528968,0.231811551700689
-0.07339658975776869,-1.086339137215216,0.2340621455290266
-0.0732462972033739,-1.042089140555246,0.2308263428839903
-0.2440137933586625,-1.041975299866119,0.2355663438465931
0.1033090470070152,-1.042089140555246,0.2308263428839903
0.10345933956141,-1.086339137215216,0.2340621455290266
0.2745175670260548,-1.086222362227954,0.2387829528577935
-0.0713773563131969,-1.157382489846971,0.240439581154636
-0.07362170070969798,-1.1203348579342,0.2373879591917645
-0.2451153908763837,-1.120215828628579,0.2420890389732574
0.1036844505133393,-1.1203348579342,0.2373879591917645
0.1014401061168382,-1.157382489846971,0.240439581154636
0.268592255960048,-1.157261003845181,0.2451225597967867
-0.05573256666187761,-1.281111395349363,0.2436546317162765
-0.0640834340835959,-1.214439741723812,0.2424356775002954
-0.2171259590738853,-1.214314472151389,0.2471068160067627
0.09414618388723724,-1.214439741723812,0.2424356775002954
0.08579531646551891,-1.281111395349363,0.2436546317162765
0.222683623901921,-1.28098170465776,0.2483185398185898
-0.04884550742627716,-1.442064789433628,0.2471963885788141
-0.05086681723444353,-1.351572457429419,0.2447925053094876
-0.1783426444046584,-1.351438094336037,0.2494496639491492
0.08092956703808485,-1.351572457429419,0.2447925053094876
0.0789082572299134,-1.442064789433629,0.2471963885788141
0.2024739901863806,-1.441924425628359,0.2516181860316998
-0.04586631643481332,-1.659636689247982,0.275157726064942
-0.04742960997834495,-1.552919768454738,0.2544207076196784
-0.1682563801118623,-1.552772053653251,0.2574730397518362
0.07749235978195081,-1.552919768454738,0.2544207076196784
0.07592906623836915,-1.659636689247982,0.275157726064942
0.1937317452531877,-1.659481897852476,0.2759036692960558
-0.0451087110708241,-1.742170223072866,0.3790340327314306
-0.04502493311851274,-1.724430567666485,0.3180727898635201
-0.1612000100590707,-1.724271479670497,0.3182325228488702
0.07508768292206099,-1.724430567666485,0.3180727898635201
0.07517146087441792,-1.742170223072866,0.3790340327314305
0.1915086008917221,-1.7420099587279,0.3808220850746801
-0.0456490001848634,-1.752881464394788,0.5123863328136722
-0.04542202634887264,-1.74628005187746,0.4447843867237699
-0.1623652546812872,-1.74611951500223,0.4478406978105051
0.07548477615250444,-1.74628005187746,0.4447843867237699
0.07571174998850472,-1.752881464394788,0.5123863328136722
0.1930940446525845,-1.752720489767835,0.515456219760538
-0.04603197973929156,-1.760476085539858,0.6636275188328359
-0.04585349898608125,-1.76079288484356,0.5892219008923096
-0.1636313834683409,-1.760631385595867,0.5918360264961459
0.07591624878972257,-1.76079288484356,0.5892219008923096
0.07609472954293287,-1.760476085539858,0.6636275188328358
0.1942178735976765,-1.760314607299711,0.6658002966961715
-0.04621603470924179,-1.719694596797863,0.7546947921083163
-0.04614660168539981,-1.742803821680212,0.7170174403292378
-0.1644914745451886,-1.742643515320171,0.7188735281109597
0.07620935148904112,-1.742803821680212,0.7170174403292379
0.07627878451288314,-1.719694596797863,0.7546947921083164
0.1947579711050408,-1.719535822852747,0.7563273912001216
-0.04622657089616034,-1.694097976990902,0.8456818711567986
-0.04627878271441774,-1.704796467381305,0.7947073881190321
-0.1648793512991428,-1.704638681358371,0.7961026466802447
0.07634153251805907,-1.704796467381305,0.7947073881190322
0.07628932069980166,-1.694097976990902,0.8456818711567986
0.1947888888699529,-1.693940900404414,0.846774767160791
-0.0451137039310834,-1.639923807675677,0.9779559992984701
-0.04580791069184088,-1.676476716857273,0.9058444708352835
-0.1634976075421007,-1.676320808768743,0.9065805036323594
0.0758706604954822,-1.676476716857273,0.9058444708352835
0.07517645373472472,-1.639923807675677,0.97795599929847
0.1915232521200811,-1.639770323477348,0.9782642920803119
0.0752826149634423,-1.567459179832727,1.046525946055716
0.07670051114992567,-1.457451920325878,1.088954710315294
0.1959955008795281,-1.457310536171831,1.088604598104858
-0.3778033660719537,-1.339062969777076,1.111703719259625
-0.3827840070988616,-1.247893627400746,1.12818928563364
-0.2840937420531202,-1.250439748650079,1.128623424192233
0.07825242261526602,-1.342025567523272,1.113120793880138
0.07905398447108655,-1.25072209634138,1.129935241902562
0.2029016174312889,-1.250594420819713,1.12934204771094
0.07902816448480418,-1.180217258050574,1.140604457495284
0.07833280232782491,-1.110500879125703,1.148623471558688
0.2007853546754584,-1.110382501929175,1.14791942541582
0.07770210890463797,-1.035361352486594,1.156096788988872
0.07767951065159438,-0.9610309528889092,1.163568586073145
0.1988683121418648,-0.9609224873163123,1.162775890810698
0.07793481188286973,-0.892299805010541,1.171788246895276
0.07815699269750251,-0.8300451471179069,1.180275764214879
0.2002694525885252,-0.8299453674534347,1.17938396789626
0.07836348618461644,-0.7705969569469386,1.187171254512299
0.07856229164880366,-0.7116341556214041,1.192442443241763
0.2014587763725787,-0.7115422280061449,1.191478478497606
0.07875197461012472,-0.652184607652906,1.197884664831372
0.07829743163055591,-0.5920071944451645,1.206452730240772
0.2006815616323588,-0.5919231995122893,1.205405661442352
0.07592989031398922,-0.5315918142940166,1.222260926961144
0.07228081400216685,-0.4728547077890409,1.246838115193532
0.1830261829988173,-0.4727786140752764,1.245551494612706
-0.4047038439493151,1.577745036015139,1.886569137635328
-0.4023365085837567,1.531677225869966,1.886670862854977
-0.4116247764313706,1.536084622439532,1.839967136695954
0.06988190177468104,-0.419138457813557,1.27912772784884
0.06935516420883754,-0.3544659986510771,1.329871117757128
0.174441051278522,-0.3543977555089415,1.328091974849586
0.06941292337965559,-0.2435406159853062,1.421607557667616
0.0692279274688104,-0.09150290315613474,1.541796120245659
0.1740676832235741,-0.09145209757736325,1.538759913374494
0.06843335076463331,0.05606923884036173,1.642815678072751
0.06719581448317397,0.1819483367005878,1.707581456944561
0.1681045779701737,0.181981009227978,1.703561870245558
0.4323992583872461,1.531677225869966,1.886670862854977
0.4347665937528045,1.577745036015139,1.886569137635329
0.4438796943675893,1.581215753366936,1.840310077362401
-0.6041345486773342,1.496520488800774,1.870689371110786
-0.6036373758523315,1.52739765183073,1.871027120616698
-0.5917830639356411,1.537068289302189,1.831942128981002
-0.4058085561073542,1.686190790359075,1.887777024865093
-0.405566335539162,1.619029373169387,1.886990675334293
-0.4144756471176074,1.622259258239996,1.84119412942924
-0.6445783943080884,1.511021284207217,1.851060067457601
-0.644447434824891,1.480761114270149,1.850730546462116
-0.673057272971836,1.474477863855798,1.804960272220711
0.06621538676820039,0.2972573448134288,1.749545035870941
0.06612983823379431,0.4144250393320202,1.777342657315888
0.1648932968358172,0.4144678024288754,1.772915419762696
0.6337001256558206,1.52739765183073,1.871027120616698
0.6341972984808234,1.496520488800774,1.870689371110786
0.6222424949863471,1.504412449987634,1.831603228797965
0.6745101846283801,1.480761114270149,1.850730546462116
0.6746411441115776,1.511021284207218,1.851060067457601
0.7036046525162554,1.505126952878034,1.805317793496453
0.06751464196435113,0.5471860181737472,1.794795227197548
0.06964299684645559,0.6461560752814608,1.823303401159587
0.1737391553818824,0.6461341155105929,1.819195963825768
-0.6033581194223318,1.569376653038343,1.871897790612966
-0.6031179346673535,1.64142698663015,1.873409643002586
-0.5913662338364398,1.651847208615648,1.834329297966324
-0.1471869133204233,0.6408187103801017,1.935035789653363
-0.04148463541457039,0.6415607286569911,1.9371822427624
-0.04106877989262985,0.6596775218050923,1.878919490685589
-0.6444211595010214,1.622772064079503,1.853384545020475
-0.6445234083618434,1.552161453370375,1.851909525529004
-0.673750826018431,1.546795999550427,1.806157328879943
0.2609627128493255,0.6395314070187363,1.933132735860615
0.3316322159672848,0.6492670067864976,1.928724049971273
0.3393469705868796,0.6688129882752614,1.863437732498949
0.6331806844708426,1.641426986630149,1.873409643002586
0.6334208692258209,1.569376653038343,1.871897790612966
0.6215787698793844,1.579539925398806,1.832815765258584
0.4356290853426513,1.619029373169387,1.886990675334293
0.4358713059108436,1.686190790359075,1.887777024865093
0.4445877270095786,1.688523538227398,1.842702934598017
0.6745861581653327,1.552161453370375,1.851909525529004
0.6744839093045105,1.622772064079503,1.853384545020475
0.7040588954761013,1.618314384679559,1.807598677463592
-0.6189986172896242,2.293242823722298,1.847950245065352
-0.6385925373331469,2.2833485209964,1.841401666317976
-0.6612907134483402,2.311046603891154,1.818067142130902
-0.5990777038312963,2.230935146377467,1.869743359154991
-0.6042396782874107,2.282367622174583,1.856967715371859
-0.5951629244159888,2.312113192835796,1.835039861121303
-0.1386434695664901,0.6992860716720448,2.05171033029746
-0.03832278668419836,0.6993745911558905,2.053335329033114
-0.04064560894933406,0.6500054108205432,1.988033022995761
-0.6536567482422395,2.256548279828915,1.839828490465844
-0.6568312413569297,2.200064433731219,1.84883264816321
-0.6905931892798553,2.206268187245529,1.811872259811134
-0.3912227996776715,1.960461008612326,1.891635012195064
-0.4053293289384692,1.807075026865546,1.888183782569959
-0.4143887328026784,1.803277137531654,1.844146880343303
0.6343024280909,2.282367622174583,1.856967715371858
0.6291404536347856,2.230935146377467,1.869743359154991
0.6184710101886225,2.253051035422485,1.840221403362063
0.6686552871366361,2.2833485209964,1.841401666317976
0.6490613670931136,2.293242823722298,1.847950245065352
0.6530833693585053,2.327807859677354,1.828346207986616
0.6868939911604191,2.200064433731218,1.84883264816321
0.6837194980457287,2.256548279828915,1.839828490465844
0.715923861392786,2.27137295663711,1.810434126373594
-0.0453347877147785,2.105268272534645,1.915612809021489
-0.1608798671267355,2.09806841970584,1.910937098507102
-0.1606928291408986,2.096494940643314,1.873306792239466
-0.6019253729404432,2.087122744698804,1.880609309716219
-0.6008770955698203,2.158737918291457,1.878007244794639
-0.5909056807550075,2.176958425589104,1.843013385018611
0.2498639813834883,0.6981802035930306,2.048939081212196
0.3126508690984803,0.6986516160000061,2.04257155478539
0.3267114841556733,0.6576481583803546,1.983177033803626
-0.6552019679297036,2.129658768381926,1.857503065064258
-0.6535154407464701,2.059561848371004,1.860301255029618
-0.6863688140318096,2.060720162993038,1.815268573936221
0.6309398453733095,2.158737918291457,1.878007244794639
0.6319881227439326,2.087122744698804,1.880609309716219
0.6222811883309478,2.104087475444243,1.842886190986217
0.06591798647939649,0.7889408187593232,2.118826834593219
0.06504835190129597,0.9119475077458753,2.149164331194319
0.1615145182980626,0.9116256075631826,2.146037400494306
0.6835781905499594,2.059561848371004,1.860301255029618
0.685264717733193,2.129658768381926,1.857503065064258
0.7184479844346338,2.132366080843849,1.815126562712253
0.371687651633784,2.061053020553016,1.898626099453246
0.2909259588789137,2.089745469459597,1.904988690762598
0.2907900052095809,2.091477912330721,1.867113600112019
-0.6014379879114031,1.940537839478889,1.87796917020917
-0.6018711894270085,2.018711401396461,1.879895532148742
-0.5915308226828037,2.037213664885917,1.841078777833724
0.4353920787419587,1.807075026865546,1.888183782569959
0.4212855494811609,1.960461008612326,1.891635012195064
0.4312422997198931,1.959847346275817,1.847611366528909
-0.6513805968020283,1.992517512984893,1.859690909411431
-0.6488754832474943,1.915906029413145,1.857832989556314
-0.6808759819840407,1.915217332648873,1.811814114347488
-0.282588119294991,0.6986516160000063,2.04257155478539
-0.2198012315799989,0.6981802035930305,2.048939081212196
-0.2274310229387121,0.6478701402020428,1.983169786224032
0.6319339392304978,2.018711401396461,1.879895532148743
0.6315007377148924,1.940537839478889,1.87796917020917
0.6202367960948827,1.9604453098212,1.838876092315016
-0.3964721827165585,1.449502308138078,1.887975130949459
-0.3869613715015801,1.318463575673061,1.891349663937994
-0.3964406419571622,1.324605430063681,1.842873481169038
0.6789382330509837,1.915906029413145,1.857832989556314
0.6814433466055176,1.992517512984893,1.859690909411431
0.7139947983116315,1.992813858773123,1.813735286961657
0.06838553648768769,0.6993745911558905,2.053335329033114
0.1687062193699794,0.6992860716720448,2.05171033029746
0.1748778221720009,0.6493575598983787,1.98606638281883
-0.6026601324109286,1.732264080023952,1.874987049270574
-0.6018444180691267,1.837196442594872,1.876296206243595
-0.5907414003835266,1.854574740354756,1.837194218852216
-0.0415230818409735,2.086985575236454,1.988320700161011
-0.1506358371298324,2.082142189172602,1.985576912567331
-0.1576064306007394,2.099129100775638,1.946309019155458
-0.6464346408025365,1.814629619135084,1.856200783611678
-0.6448309940243791,1.711794034136114,1.854923521316854
-0.6749680184294016,1.708480888109943,1.809094701705346
0.3515339146604027,2.053396874438379,1.977723611050069
0.2778228676324485,2.076439936755875,1.982128114096077
0.2875656397336565,2.090630793962029,1.941442955259702
0.631907167872616,1.837196442594872,1.876296206243596
0.632722882214418,1.732264080023952,1.874987049270575
0.6215846177199247,1.745055203873731,1.835891255865988
-0.3603997574481502,1.969420390108465,1.982178619795501
-0.3696951403558244,1.829646983828329,1.995344113751322
-0.3964078090366159,1.812775777852847,1.941265769599861
0.6748937438278682,1.711794034136114,1.854923521316854
0.6764973906060259,1.814629619135084,1.856200783611678
0.7075519187765431,1.812638705002318,1.810313172278145
0.3997578901593138,1.82964698382833,1.995344113751322
0.3904625072516397,1.969420390108465,1.982178619795501
0.413478457317062,1.963723282663204,1.938086826162353
-0.6030870655299375,1.318227389124098,1.872953516883602
-0.6042340613234818,1.436035369808469,1.871432693279357
-0.5917725351285175,1.441145244270855,1.832349083387164
0.4170241213050696,1.318463575673061,1.891349663937993
0.4265349325200479,1.449502308138078,1.887975130949459
0.4359762246013823,1.455085114532918,1.8407218836176
-0.644252778124713,1.421484619936933,1.851455759250489
-0.6439832647911479,1.306030699769676,1.852939531393027
-0.6718651092161925,1.297504145998663,1.806766318519661
-0.367557954685989,1.70809632512102,2.005399640592247
-0.3645422600845312,1.636610120260858,2.012050951532434
-0.3943114405509144,1.623231292740321,1.947163015451447
0.634296811126971,1.436035369808468,1.871432693279357
0.6331498153334267,1.318227389124098,1.872953516883602
0.619587505188271,1.320504783230655,1.833875088277841
-0.3793994842999818,1.171074913824535,1.895625503888545
-0.3768914020978382,1.026191517066871,1.900522685936254
-0.3863803359286022,1.035263579337388,1.843773657705935
0.6740460145946371,1.306030699769676,1.852939531393027
0.6743155279282022,1.421484619936933,1.851455759250489
0.702507849218976,1.414439930422738,1.805542695129559
0.3946050098880206,1.636610120260858,2.012050951532434
0.3976207044894783,1.70809632512102,2.005399640592247
0.4257574058911696,1.692007115353791,1.94504948487079
-0.6003999976108866,1.047788480462617,1.866462139764473
-0.6014994533210316,1.17767726326874,1.871637834806124
-0.5869642044122567,1.17737281504887,1.832554923809586
-0.3621784689227107,1.591827131880016,2.016414471238917
-0.3595125934172612,1.542597600563124,2.021105433160745
-0.3903291048233881,1.533296853693056,1.950474927342423
-0.6432574396805701,1.168289072116473,1.851655902963306
-0.6421396684054753,1.040995750614784,1.846606302141985
-0.6694254289628976,1.029074821469127,1.800465278630011
0.3895753432207506,1.542597600563124,2.021105433160746
0.3922412187262001,1.591827131880016,2.016414471238917
0.4229005629267084,1.580590505066513,1.948593699150143
0.6315622031245209,1.17767726326874,1.871637834806124
0.6304627474143759,1.047788480462617,1.866462139764473
0.6157009491103731,1.044902891334943,1.827350340146147
-0.3550109015132804,1.457439306257144,2.028103507084331
-0.3489518223755299,1.325206513540418,2.037892626175526
-0.3767497996826016,1.318463959968651,1.960018904923014
0.6722024182089648,1.040995750614784,1.846606302141985
0.6733201894840595,1.168289072116473,1.851655902963306
0.7009197832208451,1.157996996296149,1.805381480486033
0.3790145721790192,1.325206513540418,2.037892626175526
0.3850736513167699,1.457439306257144,2.028103507084332
0.4150221409264249,1.449965333441525,1.953975432706958
-0.5996155526638699,0.7898353933540429,1.855232905522436
-0.5997274475493593,0.9191098365223328,1.860617318018248
-0.58543155786072,0.913079908278599,1.821440583417992
0.4069541519013276,1.026191517066871,1.900522685936254
0.4094622341034712,1.171074913824535,1.895625503888545
0.4189106918331169,1.177350217010699,1.843967173693167
-0.6412433388534532,0.9148883867638098,1.840903876389947
-0.6410942128651865,0.7881971290534698,1.835650643047878
-0.6681049703907889,0.7730422260560085,1.789493923135738
-0.3015694661637953,0.6492670067864976,1.928724049971273
-0.2308999630458332,0.6395314070187365,1.933132735860616
-0.2315963156957132,0.6583034886671898,1.873243996974908
0.6297901973528486,0.9191098365223328,1.860617318018248
0.6296783024673592,0.7898353933540429,1.855232905522436
0.6155638730730961,0.7815550025301514,1.8160341326244
-0.3765372609361913,0.8565527064248161,1.908246165110884
-0.3571241898832451,0.7109474253088968,1.918998703977358
-0.368817008298988,0.7349720789054253,1.851271670682548
0.6711569626686759,0.78819712905347,1.835650643047878
0.6713060886569426,0.9148883867638098,1.840903876389947
0.6983589301984933,0.901354811339095,1.794854601293895
-0.3443055375734153,1.177816786279211,2.04996621214669
-0.3425668311151048,1.036359040567679,2.060696868814559
-0.3682416170701778,1.026389087950287,1.976279904275125
-0.6021778410484759,0.545676277447087,1.839610027315688
-0.6003930628594023,0.6658044789534574,1.849377087927412
-0.5860757256418263,0.6565247861658834,1.810204828797643
0.3726295809185942,1.036359040567679,2.06069686881456
0.3743682873769046,1.177816786279211,2.04996621214669
0.4003540371924389,1.171075298120125,1.968150513597145
-0.6421304262344513,0.6666446229644079,1.829937489336275
-0.6445769526840778,0.5489865044258914,1.820349214547584
-0.67239154306307,0.5314999734211924,1.773439223849667
0.07154738521808902,0.6415607286569911,1.9371822427624
0.1772496631239272,0.6408187103801017,1.935035789653363
0.176557222610086,0.6591774018058203,1.875923614235159
0.6304558126628916,0.6658044789534575,1.849377087927412
0.6322405908519653,0.5456762774470871,1.839610027315688
0.617083880080439,0.5352290985688128,1.80060010403809
-0.342326996355745,0.8804257970727536,2.064432861784715
-0.3267947374315096,0.7481678845985029,2.050831048743214
-0.3504536797256019,0.7160592415454302,1.984403710558782
0.674639702487567,0.5489865044258914,1.820349214547584
0.6721931760379406,0.6666446229644079,1.829937489336275
0.699460029565784,0.6499303960982807,1.783435305129343
0.3568574872349989,0.7481678845985029,2.050831048743214
0.3723897461592344,0.8804257970727536,2.064432861784715
0.3986804983375617,0.8575390236595358,1.982061385758837
-0.6126057798834417,0.3253610128503002,1.794846375036566
-0.6048768631511454,0.4209298290922426,1.819983862201913
-0.5885909203883628,0.4110481118132972,1.781657609502819
-0.6391934204479984,0.2949322643407999,1.775949065700326
-0.6248190338011601,0.2924732479233102,1.781696279870721
-0.6270352708265792,0.2658425247456464,1.742751638908913
-0.648445603865951,0.4270113998158132,1.800964530046207
-0.6491269814930545,0.3316106572954171,1.779659362593198
-0.6759029861792073,0.3113004308908886,1.733883747432176
0.6548817836046494,0.2924732479233102,1.781696279870721
0.6692561702514878,0.2949322643407999,1.775949065700326
0.6883304831167496,0.2673206759812566,1.732663065153676
0.6349396129546348,0.4209298290922425,1.819983862201913
0.642668529686931,0.3253610128503001,1.794846375036566
0.6298456508960283,0.3090318323387845,1.75796207458635
0.3871869396867345,0.7109474253088967,1.918998703977358
0.4066000107396807,0.856552706424816,1.908246165110884
0.4163220958698983,0.8764406776778846,1.845937934612354
0.6791897312965436,0.3316106572954171,1.779659362593198
0.6785083536694402,0.4270113998158132,1.800964530046207
0.7070418983916614,0.4109189314568929,1.753974571472819
-0.4475364099724579,-1.624780913519047,0.9803546537149839
-0.4528754616421796,-1.661094679432951,0.9101135830051557
-0.5437506931902786,-1.641204184823154,0.911883196821381
0.4829382114456691,-1.661094679432951,0.9101135830051558
0.4775991597759473,-1.624780913519047,0.9803546537149839
0.5680388598406826,-1.605175191722067,0.9815775550655185
-0.4560953214725259,-1.678600654468252,0.8515115049718105
-0.4564968756076976,-1.689229151197179,0.801859218523876
-0.548430301608287,-1.668936125315344,0.8046080773180551
0.4865596254111869,-1.68922915119718,0.801859218523876
0.4861580712760151,-1.678600654468252,0.8515115049718105
0.5779413447794033,-1.658431071583575,0.85386498987187
-0.4560142890632496,-1.704029811289666,0.7628844852798444
-0.4554802889312526,-1.726987846685999,0.7261844237657721
-0.5472200344306776,-1.706370677605068,0.7294725055430145
0.485543038734742,-1.726987846685999,0.7261844237657721
0.4860770388667388,-1.704029811289666,0.7628844852798444
0.5779185222854021,-1.683609727699691,0.7659110596858215
-0.4545987468211061,-1.744544491761224,0.6741793514709149
-0.4532260751369513,-1.744859218441352,0.6017036962968956
-0.5445363469205313,-1.724088630828927,0.6058787691708982
0.4832888249404405,-1.744859218441352,0.6017036962968957
0.4846614966245955,-1.744544491761224,0.674179351470915
0.5762332903677691,-1.723776605950638,0.6778379969253616
-0.4516533021133827,-1.736999557564653,0.526861120006237
-0.4499076765929277,-1.730441334040914,0.4594972368519595
-0.5404815297988558,-1.7098129035854,0.4645856348316894
0.479970426396417,-1.730441334040914,0.4594972368519595
0.4817160519168718,-1.736999557564653,0.526861120006237
0.5727266783534492,-1.716296441976548,0.531569485866055
-0.4474980105495235,-1.726358393325745,0.3893906480734126
-0.4468536854844847,-1.708734797605398,0.3227366097649057
-0.5361878608989384,-1.688440811630995,0.3281330851825105
0.476916435287974,-1.708734797605398,0.3227366097649058
0.4775607603530128,-1.726358393325745,0.3893906480734126
0.5672587391917144,-1.705838554968413,0.3945787077510742
-0.4533246524265032,-1.644364825796771,0.2821470328757085
-0.4653477347065749,-1.538346088369163,0.2699291297620402
-0.5571111866868165,-1.519696283744469,0.2762354022283987
0.4954104845100642,-1.538346088369163,0.2699291297620402
0.4833874022299925,-1.644364825796771,0.2821470328757085
0.5734070272689803,-1.624848132054768,0.2880330126432713
-0.476237213260999,-1.428216365490886,0.267741553082
-0.4880176705484096,-1.33831606931804,0.2662082485471581
-0.5799556996659564,-1.32103549096631,0.272773904133911
0.5180804203518987,-1.33831606931804,0.2662082485471581
0.5062999630644882,-1.428216365490886,0.267741553082
0.6001390334615937,-1.410213736563055,0.2742630159375448
-0.5103788327152622,-1.268315990754972,0.2650998895756755
-0.5465746641790055,-1.202080528870855,0.2630430483769849
-0.6036569911391541,-1.185956996100159,0.2685510497715382
0.5766374139824948,-1.202080528870855,0.2630430483769849
0.5404415825187514,-1.268315990754972,0.2650998895756754
0.6205139473246916,-1.25163633489563,0.2716734428069851
-0.5775701342961266,-1.145396567601106,0.2558816993421403
-0.5864640500520458,-1.108591315623452,0.241290480753632
-0.615337547742434,-1.093225916154336,0.2264866191461408
0.6165267998555352,-1.108591315623453,0.2412904807536321
0.6076328840996158,-1.145396567601106,0.2558816993421403
0.6438154253184696,-1.129684753705762,0.2549594816240922
-0.5847327517246439,-1.07481800805631,0.2246171089327039
-0.5835768717205185,-1.030857511986944,0.2099528299943613
-0.6116441102301473,-1.016399826558955,0.1656579327882843
0.6136396215240076,-1.030857511986944,0.2099528299943612
0.6147955015281331,-1.07481800805631,0.2246171089327038
0.6430651613838856,-1.059964216940302,0.1940198859725838
-0.5827854447749276,-0.9784391631646257,0.1960909287616573
-0.5823162171492177,-0.9205661652676401,0.1834544034406788
-0.6105747498518689,-0.9068718016558075,0.1163075566160306
0.6123789669527069,-0.9205661652676401,0.1834544034406789
0.6128481945784167,-0.9784391631646257,0.1960909287616573
0.6411098297949668,-0.9642846801639657,0.1395924183316074
-0.5822956466308249,-0.8615155899032888,0.1740959656205472
-0.5829706703769255,-0.8029430980207424,0.1690751314221292
-0.6113538897709017,-0.7902584810861029,0.08811007871925397
0.6130334201804146,-0.8029430980207423,0.1690751314221291
0.6123583964343142,-0.8615155899032887,0.1740959656205472
0.6406130100335541,-0.8483281517071598,0.09838242362817931
-0.5847087049144359,-0.743882939911042,0.1684582214980374
-0.5875284040094833,-0.6840955261787649,0.1724174016404471
-0.616779964642411,-0.6724311678002806,0.09671582030525049
0.6175911538129724,-0.6840955261787649,0.1724174016404471
0.6147714547179251,-0.7438829399110419,0.1684582214980373
0.6434858051487967,-0.7317053306561169,0.08749756460503008
-0.5910996586674056,-0.624067427742024,0.1812306827810959
-0.5906918398493783,-0.5676667164839173,0.1934044518266091
-0.6213380831253886,-0.5569951700711543,0.1369233198123734
0.6207545896528675,-0.5676667164839173,0.193404451826609
0.6211624084708947,-0.624067427742024,0.1812306827810959
0.6510943659730298,-0.6129183864212686,0.1140996811436249
-0.5771737984724146,-0.5221429652525279,0.2056734716585001
-0.5546873023732243,-0.4894095029922168,0.2175151305073824
-0.586872055953077,-0.479400029271204,0.1865877956633658
0.5847500521767135,-0.4894095029922168,0.2175151305073824
0.6072365482759037,-0.522142965252528,0.2056734716585001
0.6384752632035011,-0.5118354919514107,0.1614002463722264
-0.5406470363082147,-0.4660434147436218,0.2311494419529689
-0.5320314388012302,-0.4286592511712207,0.2447415806842993
-0.5697254898574992,-0.4192726903004322,0.2414991559185785
0.5620941886047196,-0.4286592511712206,0.2447415806842993
0.5707097861117039,-0.4660434147436218,0.2311494419529689
0.6037073728308631,-0.4563292433882562,0.2145565941296485
-0.5053827021435521,-0.3339090285633306,0.2524018824997399
-0.4623127673041622,-0.1866461439189744,0.2534882840569842
-0.5407876740649733,-0.1792521882137529,0.2601445761260531
0.4923755171076515,-0.1866461439189744,0.2534882840569842
0.5354454519470414,-0.3339090285633306,0.2524018824997399
0.589926230465479,-0.3252678762666807,0.2570737074096086
-0.4295033239297433,-0.03992537494788076,0.2526063228730525
-0.4156385672572317,0.08525248119941334,0.2520067422365263
-0.5119549523445257,0.09031229667455266,0.258673591075554
0.445701317060721,0.08525248119941337,0.2520067422365263
0.4595660737332326,-0.03992537494788077,0.2526063228730525
0.5531772046940131,-0.03379095797440131,0.2592688993825624
-0.4114051981138175,0.1999406079315629,0.2515854912075475
-0.4108407231069274,0.3123002832509235,0.2512836989763961
-0.5062430210031642,0.3154109847550398,0.2579556998815094
0.4409034729104168,0.3123002832509235,0.2512836989763961
0.4414679479173068,0.1999406079315629,0.2515854912075475
0.5369777898181644,0.2040158720122193,0.2582553416832125
-0.4113334546242254,0.4276008797535513,0.2510876748634899
-0.4116091964006235,0.5491928870476971,0.2509779805012309
-0.5071579041368699,0.5502699609213307,0.2576521598123601
0.4416719462041128,0.5491928870476971,0.2509779805012309
0.4413962044277147,0.4276008797535513,0.2510876748634899
0.536892377730172,0.4297217720567859,0.2577610725442041
-0.4117312435182824,0.6785079117538061,0.2509294298340049
-0.4117617552976972,0.8132363338794454,0.2509172921671984
-0.5073395286161777,0.8120467010660876,0.2575919039148426
0.4418245051011865,0.8132363338794454,0.2509172921671983
0.4417939933217717,0.678507911753806,0.2509294298340049
0.5373659535238055,0.6784748682026488,0.2576039550943461
-0.4117617552976972,0.9473273068193042,0.2509172921671984
-0.4117666320990756,1.083321112827074,0.2509153522145203
-0.50734533454771,1.079812910922754,0.2575899777853545
0.4418293819025649,1.083321112827074,0.2509153522145203
0.4418245051011865,0.9473273068193043,0.2509172921671983
0.537402278419667,0.9449865569883688,0.2575919039148426
-0.4117861393045895,1.232349163015446,0.2509075924038082
-0.414963322920248,1.358070250604868,0.250918262645622
-0.5109021028222713,1.352203437966904,0.2575928674780936
0.4450260727237373,1.358070250604868,0.250918262645622
0.4418488891080788,1.232349163015446,0.2509075924038082
0.5374313080773283,1.227561615299047,0.2575822732674027
-0.4228575139456097,1.422079188280702,0.2509643377769369
-0.4292356442392042,1.454003281510373,0.2510390721951569
-0.5268199638909749,1.447312922424785,0.2577128161956185
0.4592983940426935,1.454003281510373,0.2510390721951569
0.452920263749099,1.422079188280702,0.2509643377769369
0.5497406546815189,1.41566288468283,0.2576386142997008
-0.4305653225431582,1.49715757884005,0.2511863663843885
-0.4316545189076798,1.571214962883161,0.2514674981099602
-0.5283096167647785,1.563518388702484,0.2581381893489238
0.4617172687111691,1.571214962883161,0.2514674981099601
0.4606280723466476,1.49715757884005,0.2511863663843885
0.5585694550767589,1.490096757485834,0.2578590608357584
-0.4465829196675247,1.664531943028578,0.2518882070968123
-0.4907352502356964,1.769644702334458,0.2517723365671966
-0.5564050655454039,1.76025729317278,0.2576135863687884
0.5207980000391856,1.769644702334458,0.2517723365671966
0.4766456694710139,1.664531943028578,0.2518882070968123
0.5645369662327023,1.656034280142828,0.2585559005614758
-0.5463210428340009,1.86013123973676,0.2481044949848228
-0.5852601477394457,1.905512802659415,0.2381633990861083
-0.6198964626353201,1.895030551957499,0.2277670321393408
0.6153228975429348,1.905512802659415,0.2381633990861083
0.5763837926374901,1.86013123973676,0.2481044949848228
0.6193889456400482,1.850042666746914,0.2490082642881431
-0.6026296300612917,1.934857720018958,0.2241658222164923
-0.6039010795038227,1.976554519896623,0.2090273542874172
-0.6364950309522631,1.965326281373202,0.1687735086753146
0.6339638293073118,1.976554519896623,0.2090273542874171
0.6326923798647809,1.934857720018958,0.2241658222164923
0.666092635666051,1.924006338401702,0.1990777767397046
-0.5992665222673483,2.034456273963178,0.1934097453807042
-0.5943228542263839,2.105471878727773,0.1791582109518118
-0.6255308760909206,2.093188924016746,0.1104695816882291
0.6243856040298732,2.105471878727773,0.1791582109518117
0.6293292720708377,2.034456273963178,0.1934097453807042
0.6613913800053366,2.022772562140978,0.1380776295036389
-0.590071840929649,2.179566055537941,0.1693014318298357
-0.587003436106237,2.251484224250185,0.1658429133161223
-0.616816959496038,2.237947812337511,0.08380887361061848
0.6170661859097264,2.251484224250185,0.1658429133161222
0.6201345907331385,2.179566055537941,0.1693014318298356
0.6505327078400741,2.166647032149361,0.09144265189504486
-0.5850957816656136,2.320752503229976,0.1697609851842685
-0.5841735948055236,2.387847125839323,0.1792770498317071
-0.6134479756961786,2.373140093316297,0.1013471883364832
0.6142363446090129,2.387847125839323,0.1792770498317071
0.6151585314691028,2.320752503229976,0.1697609851842685
0.6446086077700632,2.306621451029714,0.0876990271420536
-0.5839081680119915,2.454194440436768,0.1898555822797068
-0.5841250248503087,2.518304596545422,0.2006193899127201
-0.6133035452738848,2.502517847996239,0.145237300320005
0.6141877746537979,2.518304596545422,0.20061938991272
0.6139709178154809,2.454194440436768,0.1898555822797067
0.6431947294870177,2.438917842929394,0.1210907285810688
-0.5848039199650335,2.575771544852961,0.2143496124783837
-0.5858384409578948,2.622604945448355,0.2304908646704723
-0.6149076197219014,2.606090803184698,0.2050769878910484
0.6159011907613843,2.622604945448355,0.2304908646704723
0.6148666697685227,2.575771544852961,0.2143496124783837
0.6438281059625816,2.559652301039167,0.1740648370545195
-0.5870360083877937,2.655230167821864,0.2451512361288978
-0.5801419569009825,2.686669881164873,0.2560636324785692
-0.6135068539854799,2.669433312789068,0.2550582734517531
0.6102047067044719,2.686669881164874,0.2560636324785691
0.6170987581912832,2.655230167821864,0.2451512361288978
0.6463851064436355,2.638303705565054,0.2332676953521987
-0.548839535231065,2.746544054369893,0.2625857753293921
-0.5007492996595123,2.832811941359544,0.2654806675102427
-0.5724890436345018,2.814285065038394,0.2720515074971437
0.5308120494630017,2.832811941359544,0.2654806675102427
0.5789022850345542,2.746544054369894,0.2625857753293922
0.6278824488727677,2.728764900566135,0.2676485828810077
-0.4674291140156627,2.911772081086556,0.2669165930689672
-0.4572934140152361,2.971130589192891,0.2737144781481195
-0.5471948266715204,2.952202594340348,0.2802444450338143
0.4873561638187254,2.97113058919289,0.2737144781481194
0.497491863819152,2.911772081086555,0.2669165930689671
0.5841050302091061,2.892567363755252,0.2734772013259282
-0.4556132072603345,3.020001158009738,0.2973478909849611
-0.4551806751630184,3.057670404633602,0.3457891494273918
-0.5442465011074972,3.045608101477956,0.3518162601247533
0.4852434249665078,3.057670404633603,0.3457891494273918
0.4856759570638239,3.020001158009738,0.2973478909849611
0.5749128740890295,3.003798794491547,0.3037806459279414
-0.4563091729453068,3.0735978709263,0.4235093209339496
-0.458617348427628,3.070122380248654,0.5209856428370663
-0.5484136686298962,3.061518630948182,0.5254335014369218
0.4886800982311172,3.070122380248654,0.5209856428370664
0.4863719227487962,3.073597870926299,0.4235093209339496
0.5756423929411563,3.064271029196601,0.4286695471013172
-0.4610291420288187,3.062462037460493,0.6147015223430681
-0.4628165500915141,3.058912834157011,0.6984973757971186
-0.5538563283390025,3.050281357612161,0.7019827424516523
0.4928792998950033,3.058912834157011,0.6984973757971185
0.491091891832308,3.062462037460493,0.6147015223430682
0.5817024474869516,3.053824883771115,0.6187235041948578
-0.4635996248821472,3.060848648668765,0.7835706286832186
-0.4635783542849157,3.065611703917621,0.8568565344241875
-0.5547632717727521,3.056922720272846,0.8592135082210576
0.4936411040884049,3.06561170391762,0.8568565344241874
0.4936623746856365,3.060848648668763,0.7835706286832185
0.5848513446561852,3.052200553935691,0.7864498033639684
-0.4634412768355117,3.068314294415043,0.8979726056573322
-0.4634184305939443,3.068764726164614,0.9176526584914577
-0.5545728793560605,3.060048675093257,0.9195764277123129
0.4934811803974335,3.068764726164614,0.9176526584914577
0.4935040266390008,3.068314294415043,0.8979726056573322
0.5846628280762198,3.059602110118912,0.9000366056753764
-0.4634184305939444,3.068764726164614,0.9354700504572938
-0.4619881645742612,3.068141195082029,0.9595989035299879
-0.5528105108923034,3.059447777781983,0.9611981812238806
0.4920509143777503,3.068141195082029,0.9595989035299878
0.4934811803974335,3.068764726164614,0.9354700504572937
0.5846356291595496,3.060048675093256,0.9372668613259403
-0.4562671004955285,3.06564707075169,0.9921464349030107
-0.4458596202544226,3.059693225423062,1.038709711658212
-0.5337218097321071,3.050646909332726,1.039558729239948
0.4759223700579119,3.059693225423062,1.038709711658213
0.4863298502990178,3.06564707075169,0.9921464349030107
0.5758237868407645,3.057044188536891,0.9934113849209341
-0.4377648475557473,3.047664334589518,1.10118880204954
-0.4375634204639043,3.023773716570687,1.17624125258852
-0.5224345440827211,3.007622294775726,1.175759422997057
0.4676261702673937,3.023773716570688,1.17624125258852
0.4678275973592366,3.047664334589519,1.10118880204954
0.5542636647884502,3.036195873412474,1.101289558281871
-0.440349071865371,2.983609850354978,1.255832725058066
-0.4424425566998816,2.928012220072288,1.341792789009882
-0.5264045627408082,2.907859317902407,1.340500217440128
0.472505306503371,2.928012220072288,1.341792789009882
0.4704118216688603,2.983609850354978,1.255832725058066
0.5543334528695302,2.963931294870509,1.255102768653611
-0.4455302436258655,2.859208928322201,1.452451133466947
-0.4496977841056936,2.785881152067117,1.576323454009951
-0.5351021814649222,2.766999401334354,1.573253736362017
0.4797605339091829,2.785881152067117,1.576323454009951
0.4755929934293548,2.859208928322201,1.452451133466947
0.560168853808204,2.839671369471793,1.450320053027277
-0.4534301124056792,2.723163142632251,1.672111452777296
-0.4562593395856809,2.671362056939666,1.729059405437451
-0.5429682213021203,2.653504509531287,1.724832337653338
0.4863220893891702,2.671362056939666,1.729059405437451
0.4834928622091685,2.723163142632251,1.672111452777296
0.5696392732415507,2.704842311401082,1.668315905667591
-0.4587647534991028,2.615957957508268,1.766954161188947
-0.4607850917883754,2.55213467634153,1.795163844212788
-0.548395044073381,2.534972382770459,1.790463414994196
0.4908478415918648,2.55213467634153,1.795163844212789
0.4888275033025922,2.615957957508268,1.766954161188947
0.5760344792999328,2.598595917532593,1.762439947514692
-0.461418541884955,2.48477981492749,1.812637853672448
-0.4618156754732586,2.418212365698844,1.82050830787878
-0.5499733333346976,2.399236597200783,1.817335154425266
0.4918784252767479,2.418212365698844,1.82050830787878
0.4914812916884442,2.48477981492749,1.812637853672448
0.5792224525017777,2.466735678168178,1.807915184381506
-0.4617081050128207,2.351035084934285,1.822755373391447
-0.4625663219856896,2.27976025469559,1.822267680804365
-0.5404265742616368,2.268100779671278,1.822874413370373
0.4926290717891789,2.27976025469559,1.822267680804365
0.4917708548163099,2.351035084934285,1.822755373391447
0.574892949954924,2.336018730266491,1.821978024606303
-0.4650931966494213,2.205451832131679,1.82042167937743
-0.4648984335178729,2.136876042523828,1.81809602431353
-0.5440816268015297,2.121948585014946,1.819839015126489
0.4949611833213622,2.136876042523828,1.81809602431353
0.4951559464529107,2.205451832131679,1.82042167937743
0.5733733840948296,2.193056424484802,1.821789705040209
-0.4584764150860531,2.089006857080282,1.815426893025382
-0.4492621386838407,2.042034385142399,1.816032960717953
-0.5360252013845087,1.994772664340886,1.814968491001835
0.4793248884873301,2.0420343851424,1.816032960717953
0.4885391648895424,2.089006857080282,1.815426893025382
0.5708021696159182,2.063305781580446,1.817340997142615
-0.4526216556397394,1.930703034866258,1.817623746012697
-0.457787224226075,1.787562060755983,1.816613440300148
-0.5354739454498892,1.76518783935148,1.811995994372259
0.4878499740295643,1.787562060755983,1.816613440300148
0.4826844054432287,1.930703034866258,1.817623746012697
0.5661124954724556,1.885192345213694,1.813268964103596
-0.4552198293200966,1.683940504781851,1.815120283785547
-0.4547840248891321,1.617171974348322,1.81360671193505
-0.5323649116138952,1.598345907455228,1.80898845789123
0.4848467746926215,1.617171974348322,1.81360671193505
0.4852825791235859,1.683940504781851,1.815120283785547
0.5627822090756215,1.668227329820692,1.810496744932543
-0.4543510995280317,1.575693425307949,1.812725054557146
-0.452777871154185,1.53335199817026,1.812383042836234
-0.5318815135460312,1.518978526237938,1.807770884627481
0.4828406209576744,1.53335199817026,1.812383042836234
0.484413849331521,1.575693425307949,1.812725054557146
0.5623994722374744,1.556146626819611,1.808111192581384
-0.4482912989450829,1.456275572535541,1.813135745326143
-0.4404265626427227,1.327758571902412,1.814806428704666
-0.5247603868914395,1.32450789478809,1.810052181274249
0.4704893124462121,1.327758571902412,1.814806428704666
0.4783540487485722,1.456275572535541,1.813135745326143
0.559700141013457,1.449208575451172,1.808519837451539
-0.4339185079085058,1.181094078366632,1.8139968146666
-0.4321323883170011,1.04313767214268,1.809787593319342
-0.5189634860542617,1.044041478285328,1.803462925404627
0.4621951381204905,1.04313767214268,1.809787593319342
0.4639812577119951,1.181094078366632,1.8139968146666
0.5503567049405675,1.17918523001835,1.808726532922628
-0.4338316837011869,0.8991928776175284,1.805382809545046
-0.4268516959954066,0.7631742358155618,1.801412590106678
-0.5214454608664466,0.7744891835748917,1.791937817323922
0.4569144457988961,0.7631742358155619,1.801412590106679
0.4638944335046762,0.8991928776175283,1.805382809545046
0.5507685319222258,0.9076156130369215,1.797379002589356
-0.4181544214269435,0.650342464145346,1.790395798649304
-0.4122060748322142,0.534566251728542,1.775518137091239
-0.5180128153710453,0.5313304754190464,1.777166327053186
0.4422688246357035,0.534566251728542,1.775518137091239
0.4482171712304329,0.6503424641453461,1.790395798649304
0.5509467451984551,0.651781712243553,1.786238707059898
-0.4049122189092085,0.4130161590510983,1.759120488760426
-0.4070214506551267,0.2999108698132963,1.732453766379357
-0.5232686050261985,0.3024003980230108,1.734398197664961
0.4370842004586161,0.2999108698132964,1.732453766379357
0.434974968712698,0.4130161590510983,1.759120488760426
0.5444253796165334,0.4117473975539224,1.760328072730496
-0.4111751359064214,0.1882171386809094,1.692774027299845
-0.4120905911853816,0.06329414135876119,1.629619741856226
-0.5106972770635383,0.07206146512660841,1.62768488486894
0.4421533409888709,0.06329414135876116,1.629619741856225
0.4412378857099107,0.1882171386809093,1.692774027299845
0.5549205237538379,0.1968012345928409,1.693690247399372
-0.4125844649396191,-0.08585480721558909,1.529899824702069
-0.4126029663896397,-0.2375334006811287,1.412498599989033
-0.5020093600627053,-0.2293751959159262,1.410670258162174
0.442665716193129,-0.2375334006811287,1.412498599989033
0.4426472147431085,-0.08585480721558911,1.529899824702069
0.5328264431949247,-0.07839322736215509,1.527489622318929
-0.4121587483053022,-0.3477330665961927,1.323141656657703
-0.4156227479563908,-0.4119824135205569,1.273714469152949
-0.5086731719285591,-0.4022640212714534,1.272937758138754
0.4456854977598801,-0.4119824135205569,1.273714469152949
0.4422214981087915,-0.3477330665961926,1.323141656657703
0.5334300184714944,-0.3385892893895514,1.321990413245242
-0.431724187112615,-0.4653472310154379,1.242262397423924
-0.4562663340901813,-0.5237000566547198,1.218322702159245
-0.552861531085683,-0.5129825159110973,1.217965719889163
0.4863290838936706,-0.5237000566547196,1.218322702159245
0.4617869369161042,-0.4653472310154379,1.242262397423924
0.5567283334996463,-0.4551515696836322,1.241724013137383
-0.4721265037517943,-0.583720176024954,1.202924544786991
-0.4750352644622909,-0.6435038853235512,1.194578721295326
-0.5724640322279818,-0.6317148771581869,1.194401658024207
0.5050980142657804,-0.6435038853235511,1.194578721295326
0.5021892535552837,-0.583720176024954,1.202924544786991
0.5996193042786048,-0.5724658444018678,1.202684241395492
-0.473576438088641,-0.7025644913587814,1.189277662232496
-0.4720474517613396,-0.761141535235822,1.184143199710874
-0.5688822209023816,-0.7483004329024181,1.184045211158012
0.5021102015648289,-0.7611415352358221,1.184143199710874
0.5036391878921305,-0.7025644913587814,1.189277662232496
0.6007779304968486,-0.6902472737365223,1.189140767509586
-0.4704593378744059,-0.8202007923567588,1.177426567406965
-0.4687505748424082,-0.8820481562022031,1.169159202716429
-0.5649299011724409,-0.8681257236068382,1.169174754759608
0.4988133246458976,-0.8820481562022031,1.169159202716429
0.5005220876778953,-0.8202007923567588,1.177426567406965
0.5970411283717277,-0.806831492630496,1.177379473847972
-0.4667870871004635,-0.9503296383312929,1.161152746754081
-0.4669608872526163,-1.024173739709594,1.153874756139944
-0.5627844108355263,-1.0089802047278,1.154006125423015
0.4970236370561056,-1.024173739709594,1.153874756139944
0.4968498369039527,-0.9503296383312928,1.161152746754081
0.5926388077683107,-0.9357965292289875,1.161228967374709
-0.4718114663084501,-1.098821674507299,1.146595284615231
-0.4771594039765162,-1.168081941920363,1.13878427095548
-0.575010465934078,-1.151601361673792,1.139029987744295
0.5072221537800056,-1.168081941920363,1.13878427095548
0.5018742161119396,-1.098821674507299,1.146595284615231
0.5986620696500026,-1.082960524549216,1.146781813782283
-0.4773579820496002,-1.23812551029328,1.128391797756831
-0.4711932766525602,-1.328831638857618,1.112013489632452
-0.5678383013264954,-1.311026943182169,1.11244252704306
0.5012560264560494,-1.328831638857618,1.112013489632452
0.5074207318530896,-1.23812551029328,1.128391797756831
0.6053112725578498,-1.221018494293794,1.128716263066603
-0.4592577324189598,-1.443502827822248,1.088474235637509
-0.4483528818328381,-1.552790377295136,1.047146005685899
-0.5400092172822968,-1.533963964425047,1.047905302955273
0.4784156316363274,-1.552790377295136,1.047146005685899
0.4893204822224492,-1.443502827822248,1.088474235637509
0.5834730650540918,-1.42535388061844,1.088964437769227
-0.2659772228606996,-1.639584385455319,0.9786377725472624
-0.2692206813810494,-1.676131934331406,0.9074721685980476
-0.36300388173523,-1.673022795696968,0.9084816107039078
0.299283431184554,-1.676131934331406,0.9074721685980476
0.2960399726642042,-1.639584385455319,0.9786377725472624
0.3887530596681538,-1.636523584342903,0.9791826760749454
-0.2711275100039139,-1.719343476581104,0.7583051990083609
-0.2708031064608999,-1.742449312608562,0.7211220806955434
-0.3651083958731152,-1.739252463092513,0.7233479363505602
0.3008658562644045,-1.742449312608562,0.7211220806955433
0.3011902598074185,-1.719343476581104,0.758305199008361
0.3956025795886086,-1.716177186675535,0.7602883391947406
-0.2659538953217965,-1.741815806915341,0.382988216309085
-0.2655624696995342,-1.724078752942764,0.3184260309472421
-0.3581387173106135,-1.720906200195169,0.3193925072965865
0.2956252195030295,-1.724078752942765,0.3184260309472421
0.2960166451252963,-1.741815806915341,0.382988216309085
0.388722035680958,-1.738619795269302,0.3854375881412595
-0.271176736959289,-1.693750610393347,0.8480987531051298
-0.2714206799404914,-1.704447531902416,0.7977929289367589
-0.3659297251957684,-1.701300943264811,0.7995183101370758
0.3014834297439959,-1.704447531902416,0.7977929289367589
0.3012394867627936,-1.693750610393346,0.8480987531051298
0.3956680479794166,-1.690618169426239,0.8494957594342109
