3.526741197963505,2.853074568283486,0.3534048597140064
1.78770064030759,2.750134223732967,0.1922632602695959
1.786504507261157,2.815004165044317,0.2823729488562226
1.696112210079376,2.815847373258218,0.2751852056763069
3.434375188418326,2.815004165044317,0.2823729488562226
3.433179055371892,2.750134223732966,0.1922632602695958
3.538694230945109,2.75247499835492,0.1850257609586205
1.7865578597563,2.612539472097599,0.06557370442019346
1.786722870777898,2.681152234148253,0.1163627408709182
1.68103715963143,2.681620389072644,0.1042548741443823
3.434156824901584,2.681152234148253,0.1163627408709182
3.434321835923183,2.6125394720976,0.06557370442019343
3.540155065208444,2.6125394720976,0.05101801112632416
1.784556424471409,2.435695953696333,0.02145797616251604
1.786110547157198,2.530896030144799,0.03467546491756594
1.680082306270497,2.530896030144799,0.01909591999178097
3.434769148522284,2.530896030144799,0.03467546491756592
3.436323271208074,2.435695953696333,0.02145797616251605
3.542660789444796,2.435695953696333,0.005665485590582406
1.776170721579998,2.246169706926668,0.04923644242600159
1.781341534766158,2.339287241001365,0.02672183175386021
1.674517439756077,2.339287241001365,0.011299729535053
3.439538160913325,2.339287241001366,0.02672183175386023
3.444708974099485,2.246169706926668,0.0492364424260016
3.55223150985462,2.246160191155144,0.03463475277676101
1.7612149462852,2.061726859851518,0.1373452976591024
1.769007628922807,2.15299498295661,0.0857400360489301
1.660568693028955,2.152947404098993,0.07236973560651869
3.451872066756677,2.15299498295661,0.0857400360489301
3.459664749394282,2.061726859851518,0.1373452976591024
3.569138423204298,2.061218773506154,0.126203300037619
1.749685357734182,1.915164028298305,0.2929522712502667
1.75555647501884,1.979655272295968,0.2095415772614397
1.645135243090788,1.977494984219975,0.202836431575957
3.465323220660642,1.979655272295967,0.2095415772614397
3.4711943379453,1.915164028298305,0.2929522712502667
3.566343870858666,1.914523444170378,0.2863390085836123
1.755676866804142,-0.06729839074208692,0.3184822291780364
1.750735019920612,-0.02741086481043986,0.4019071290314026
1.631760921444407,-0.03721549234974368,0.3997772155015953
3.470144675758871,-0.02741086481043986,0.4019071290314027
3.465202828875341,-0.06729839074208692,0.3184822291780364
3.558950912961654,-0.07233448103194694,0.3051825546373085
1.765804061880937,-0.2044649757743431,0.1350051601630479
1.760814081808748,-0.1225945829803549,0.2240567692383976
1.667126104824964,-0.12182935476329,0.2149044764262011
3.460065613870735,-0.1225945829803549,0.2240567692383976
3.455075633798545,-0.2044649757743431,0.1350051601630479
3.563900799429219,-0.2016379026084738,0.1258185051293586
1.740796066063151,1.838898139111371,0.4234218712291812
1.744741658247628,1.874808630476818,0.3675941818094307
1.649538190361124,1.87846286942986,0.357689447425408
3.476138037431853,1.874808630476818,0.3675941818094306
3.480083629616331,1.838898139111371,0.4234218712291812
3.600700888554785,1.84742937957798,0.4228816342330318
1.775884838291197,-0.3653093384133914,0.02935843789967199
1.769862229726471,-0.2890779753245892,0.06881692375109345
1.661768884647624,-0.2885125606914153,0.05517258536755913
3.451017465953012,-0.2890779753245892,0.06881692375109347
3.444994857388285,-0.3653093384133914,0.02935843789967199
3.55228421211054,-0.3653093384133914,0.01389284239803968
1.786655243554134,-0.5118940907733968,-0.01508079086394302
1.781903323395256,-0.4387489438926808,0.002412296729447011
1.67537319401031,-0.4387489438926808,-0.01396037582673453
3.438976372284227,-0.4387489438926808,0.002412296729447011
3.434224452125348,-0.5118940907733968,-0.01508079086394302
3.54012950925723,-0.5118940907733969,-0.03211075640525189
1.790721869075481,-0.6558082848240028,0.002434182137170173
1.789584279978669,-0.5841494982254868,-0.01502200120988508
1.684108300709731,-0.5841494982254868,-0.03206602148695489
3.431295415700813,-0.5841494982254869,-0.01502200120988508
3.430157826604001,-0.6558082848240028,0.00243418213717019
3.53539683929475,-0.6558082848240028,-0.01397788008972748
1.790424992727543,-0.80244158656149,0.06631193735226448
1.790687202446974,-0.7280519685491012,0.02887996839770798
1.685562652566273,-0.7280519685491012,0.01335797190010455
3.430192493232508,-0.7280519685491013,0.028879968397708
3.430454702951939,-0.80244158656149,0.06631193735226451
3.535504769629509,-0.8032288194067889,0.0524727387679319
1.789366527318901,-0.9556414454724872,0.2129895953622742
1.791205473583573,-0.8809176952024276,0.1271310393414278
1.686285351308061,-0.8848538594289231,0.117224524970863
3.429674222095908,-0.8809176952024276,0.1271310393414279
3.431513168360581,-0.9556414454724873,0.2129895953622742
3.521548894014323,-0.9589076424576111,0.2029785427935503
1.819919042067556,3.077067878715796,0.5753248428666254
1.821191168705699,3.1241282818877,0.6239446202393105
1.719485551857737,3.125628872929331,0.6259141783565414
3.399688526973783,3.1241282818877,0.6239446202393104
3.400960653611927,3.077067878715796,0.5753248428666254
3.517664964177301,3.079720970163604,0.5800823275249276
1.808962350599894,2.993093719283095,0.4943423510850972
1.81497810706956,3.032722722432236,0.5291020440881901
1.697510814212215,3.033681789731584,0.5340904830316261
3.405901588609923,3.032722722432236,0.5291020440881901
3.411917345079588,2.993093719283095,0.4943423510850972
3.529301350194826,2.993336385112583,0.5001144680681262
1.788240600142079,2.909067020684196,0.4611339753987317
1.799180645884354,2.951010190197225,0.4752359376161375
1.684266083910881,2.950938172315305,0.4818330171796261
3.421699049795128,2.951010190197226,0.4752359376161375
3.432639095537403,2.909067020684196,0.4611339753987317
3.551131677153041,2.905125480638453,0.4691594244752993
1.7379502867933,1.654731795512596,0.4603173279321399
1.737543783820316,1.765039086291952,0.4533593814574536
1.611891667278271,1.771240480412502,0.4615965742360538
3.483335911859167,1.765039086291952,0.4533593814574536
3.482929408886183,1.654731795512596,0.4603173279321399
3.606803091159689,1.65507518541033,0.4672875513969628
1.739230076311619,1.466806958558987,0.4598007048073682
1.738948399084851,1.552742798987228,0.459899664588815
1.611279113548694,1.552811476966775,0.4665782846299071
3.481931296594631,1.552742798987228,0.459899664588815
3.481649619367864,1.466806958558987,0.4598007048073682
3.610263078975639,1.466806958558988,0.4664063023101891
1.739262225465499,1.246205325322404,0.4598061608617526
1.739255795634723,1.367619328301374,0.4598050696508756
1.610646117422184,1.367619328301374,0.4664105698078258
3.48162390004476,1.367619328301374,0.4598050696508756
3.481617470213984,1.246205325322404,0.4598061608617526
3.610226203077714,1.246205325322405,0.4664116366822348
1.739315863239684,0.9805977623040328,0.4598152640075418
1.739262225465499,1.113920729764612,0.4598061608617526
1.610653492601769,1.113920729764612,0.4664116366822349
3.481617470213983,1.113920729764612,0.4598061608617526
3.481563832439799,0.9805977623040328,0.4598152640075418
3.610164870495614,0.9805977623040328,0.4664234299358616
1.740015150901102,0.7392487214676984,0.4599339464196387
1.739530414336423,0.8545450841502087,0.4598516765906988
1.610960155512265,0.8545450841502087,0.4664706029503681
3.48134928134306,0.8545450841502087,0.4598516765906988
3.48086454477838,0.7392487214676984,0.4599339464196387
3.609364682750973,0.7392487214676984,0.4665683939924324
1.742214811051912,0.5280343354858432,0.4603073043992619
1.740881341676125,0.6333720653760808,0.4600809628196136
1.612507790951498,0.6333720653760808,0.4667236930881573
3.479998354003358,0.6333720653760808,0.4600809628196137
3.47866488462757,0.5280343354858432,0.4603073043992618
3.60684257188526,0.528020469896313,0.4669324242912479
1.745852998750831,0.271678664252613,0.4610729193749815
1.744075939066908,0.4068105798983819,0.460623239050607
1.616171886363763,0.4067412519507304,0.467179545683012
3.476803756612574,0.4068105798983818,0.460623239050607
3.475026696928651,0.271678664252613,0.4610729193749814
3.601673279342796,0.2714823377206709,0.4675967135292865
1.746598295588347,0.03840275478384662,0.4502661305931238
1.746262156124681,0.1430192717249737,0.4617343826830258
1.623660514159048,0.1425922626464752,0.4684622822804373
3.474617539554801,0.1430192717249737,0.4617343826830258
3.474281400091134,0.03840275478384661,0.4502661305931239
3.598444608112798,0.03185164231409463,0.4587823850276168
1.972172346797547,-1.245840723534888,0.5650874336325094
1.864670412987228,-1.175010695320089,0.5433624149302644
1.729195666547979,-1.17671132212115,0.5478727392001206
3.356209282692254,-1.175010695320089,0.5433624149302644
3.248707348881935,-1.245840723534888,0.5650874336325094
3.388016745147237,-1.246871896611888,0.5696074975983898
1.783016375049501,-1.051617107829881,0.4208314229607985
1.784770642329534,-1.012564502274536,0.3188160102968685
1.69460701167675,-1.009342640365049,0.3026650012990553
3.436109053349949,-1.012564502274536,0.3188160102968685
3.437863320629982,-1.051617107829881,0.4208314229607985
3.552315719290214,-1.044392293392198,0.4123160482712172
2.398725662017068,3.513761162826142,1.524420189167495
2.425427816536266,3.501235057503842,1.627392033681265
2.351501134363025,3.490231575107851,1.612559839346996
2.795451879143081,3.501235057503843,1.627392033681265
2.82215403366228,3.513761162826142,1.524420189167494
2.910509217137689,3.500110767674611,1.520484800301079
2.380445489125899,3.508621537126951,1.293350119155755
2.38098404551569,3.511989963065547,1.410020644790476
2.284505280637259,3.498226567846718,1.409239644409714
2.839895650163657,3.511989963065547,1.410020644790476
2.840434206553448,3.508621537126951,1.293350119155755
2.937164216826122,3.494865409974474,1.294223301889752
2.30874106388714,3.165221130108328,0.6635476113610439
2.307263631615831,3.195918793407374,0.6972508737127948
2.1674094431268,3.195918793409053,0.6972508737131116
2.913616064063516,3.195918793407375,0.6972508737127948
2.912138631792206,3.165221130108329,0.6635476113610439
3.051311285648066,3.165221130110972,0.6635476113615186
2.418732211730516,3.493764956230016,1.076389255299373
2.395851836621402,3.506290849837436,1.179421150195899
2.306157541717806,3.492675613784669,1.183784767845428
2.825027859057945,3.506290849837436,1.179421150195899
2.802147483948831,3.493764956230015,1.076389255299373
2.878396377200509,3.482759182998109,1.092165224113052
2.305719874771765,3.213320665241864,0.7396203611789449
2.314079493054736,3.219095329704432,0.7990406075992668
2.175829812026867,3.219087560384879,0.8004473496684257
2.906800202624611,3.219095329704431,0.7990406075992667
2.915159820907582,3.213320665241864,0.7396203611789449
3.055726139336688,3.213320665243025,0.7396203611791883
2.351593114510834,3.218877424053761,0.8770577388575787
2.402652288635962,3.243955997678557,0.9494644373748471
2.290319302152548,3.236725018046743,0.9717046927068322
2.818227407043385,3.243955997678557,0.9494644373748471
2.869286581168513,3.218877424053761,0.8770577388575784
2.996389860112414,3.218838577451348,0.8840914492023211
1.820148332376759,3.222504180404623,1.488252788085076
1.834345733882862,3.219155269642771,1.563037621275593
1.720655023434419,3.216229801591678,1.563294110321455
3.386533961796621,3.219155269642771,1.563037621275593
3.400731363302724,3.222504180404623,1.488252788085075
3.52226492542229,3.217742311305453,1.494258032804285
1.807452140680981,3.217817800501204,1.293848412175096
1.809820376295686,3.220654239053905,1.403542069143057
1.688630079518069,3.215684577777929,1.405894077057084
3.411059319383797,3.220654239053905,1.403542069143057
3.413427554998502,3.217817800501204,1.293848412175096
3.535111115414771,3.21337455490674,1.294437805743834
1.81935279963582,3.164933591203208,0.6633445977270907
1.814935590358151,3.195493620074403,0.6969025286957996
1.697922519123428,3.191066401221198,0.6947344725369464
3.405944105321332,3.195493620074403,0.6969025286957996
3.401526896043662,3.164933591203208,0.6633445977270904
3.503254022413432,3.162153153361462,0.661180565278313
1.810641013574381,3.215649483064615,1.060128926849825
1.808207166043999,3.215925810250761,1.179825348285699
1.685458839729573,3.211942246730247,1.179179858963607
3.412672529635484,3.215925810250761,1.179825348285699
3.410238682105102,3.215649483064615,1.060128926849825
3.535540658826286,3.211775986163148,1.058091485451959
1.808698302126054,3.213235630576715,0.7395506921758612
1.806044199106152,3.219074665373126,0.7959302789672997
1.686564996024583,3.215104512770024,0.7961357103306288
3.41483549657333,3.219074665373126,0.7959302789672996
3.412181393553429,3.213235630576715,0.7395506921758612
3.530231068258844,3.209204936287847,0.7392758371602071
1.8083298722712,3.218774102389088,0.8615060956959006
1.811692971509203,3.216827592997419,0.9460332950797382
1.685084534603198,3.212925427376231,0.9435356879901078
3.409186724170279,3.216827592997419,0.9460332950797383
3.412549823408283,3.218774102389089,0.8615060956959006
3.535821432575947,3.214817177433449,0.8604203175096818
2.387671825110673,-0.8935020144213129,1.497055186113101
2.368454389561109,-0.7892369005182274,1.508298270175131
2.44047343807393,-0.7892369005175696,1.509253113396316
1.841398101984529,3.197823023682832,1.684758212310997
1.838291936898306,3.151711266292661,1.876896601598742
1.715027252467977,3.152075918223425,1.851019166390364
1.836570503736999,3.107885294770761,2.054763548331876
1.841174524121647,3.07396667634504,2.156300374798864
1.743399130361704,3.07241423219318,2.109001457047944
1.841784864645003,3.016584172760958,2.211542477152585
1.836047496494319,2.930661037245849,2.240451917993684
1.744339206455582,2.930123640860904,2.184021424356899
1.829573495451352,2.839415014508917,2.252917426370579
1.824665990472706,2.755769764262078,2.256674532627474
1.731597783915696,2.756182735667011,2.199641652467181
1.820320163689832,2.682354861219952,2.257305568404366
1.815712047440965,2.612671260106878,2.257603476018024
1.721084916085851,2.613079760924702,2.200555588908252
1.810198524271125,2.531091295656907,2.257571808461987
1.804268232763117,2.435418500755588,2.257380970995004
1.706076076967496,2.4358510055065,2.200312766286372
1.799541567537527,2.336887606439965,2.257368221141027
1.796320658582647,2.240795302795815,2.257306980927766
1.699448015404125,2.241515281005302,2.200218563343463
1.793589371254473,2.146500238957639,2.256406836886685
1.791014681076249,2.05598910977361,2.254538523429907
1.695112278875743,2.056761442924192,2.197439930328733
1.788947176435206,1.973889756908347,2.252234093186194
1.787922162193885,1.89011576032648,2.250333602600854
1.69150803415947,1.890110560917007,2.193250858309038
1.788658276114263,1.779862183068166,2.249984327302508
1.791081636909527,1.651171831958506,2.251113876200043
1.695117080625102,1.65180321784637,2.194013918923086
1.794327690312344,1.544898569966212,2.252431659101093
1.797677090043939,1.463456727878934,2.25315316087723
1.702751180995958,1.464622079975229,2.196041058409897
1.800554732624946,1.370848946066291,2.252999088142732
1.802666544838125,1.255512643030402,2.251992044583908
1.708527237558028,1.256675310638181,2.19488510824115
1.803999483728364,1.130320015405882,2.250456530959104
1.804221250185643,1.00454772927233,2.247936967739391
1.710324245902831,1.005709522009184,2.190832226834307
1.802680288945034,0.8838769201543291,2.243197695108568
1.79669963128657,0.7754914547553111,2.235031071608468
1.703371658048002,0.7766728621013128,2.178034884049296
1.781576895035243,0.6880779309575547,2.222257474138959
1.753947498982346,0.6014588431709818,2.162466034980775
1.672382826575232,0.6036068042383498,2.111271856542876
1.711784662885476,0.4665925823331567,1.972014641795511
1.666354628716408,0.3037523903059122,1.708001069500783
1.595033534171175,0.3120650399632964,1.704530060425659
1.625209738571348,0.1892026236018529,1.551112168478833
1.605026821443746,0.1158905079443529,1.51531935380114
1.561851922559696,0.1096623983508821,1.507696991754711
1.608035650961655,0.03025825367461732,1.504814496825521
1.614087583902081,-0.07094441591318201,1.493530519699101
1.560581594695614,-0.07752671080969212,1.484224183015685
1.621234024543371,-0.164148643705472,1.485356315552607
1.628709793640087,-0.2425178403050044,1.480591869737503
1.563364675748704,-0.2491018195608305,1.47358786883356
1.636933128423007,-0.3159476840308548,1.475948259825992
1.646107083533295,-0.3890882988315106,1.469920915252943
1.572828119724664,-0.3956730445109467,1.464267816166306
1.656219531022507,-0.4613442542848709,1.462789617315891
1.667169751835223,-0.5330086098867118,1.455089672914756
1.585882129619446,-0.5395930275773867,1.449439914288235
1.678768435809048,-0.605262915050688,1.447611914551844
1.692647246996897,-0.685882584950312,1.43979053524705
1.601280541578271,-0.692465543906815,1.434100297434452
1.712258823666995,-0.7892369005189556,1.429703088537862
1.73441736862447,-0.8935020144222263,1.418460004475908
1.624807432270946,-0.8999739052390039,1.412433896281518
1.75234599438624,-0.9621896173251179,1.408939759002981
1.770640549679668,-1.009894613573116,1.399164179983397
1.647001062589035,-1.015597923348611,1.393310114607684
1.80760346648174,-1.067025650606078,1.382440405493903
1.864898118094326,-1.126600878799865,1.356103098865808
1.749871586458677,-1.132368560401104,1.350251513060405
2.642119548168603,-0.8935020144191317,1.498010029331026
2.644852447585029,-0.7892369005164887,1.509253113393236
2.713258329284482,-0.7892369005169564,1.509253113394569
2.469572003164551,3.14741141717695,1.938937373638889
2.497118978351656,3.219764692847335,1.810392325563462
2.573396302106062,3.219604351927344,1.821780846632346
2.44351651247377,3.073714265966299,2.166111810309431
2.44913542211633,3.106915182235119,2.071453056416342
2.558053163265283,3.106886390829154,2.072592581036806
2.440869221177461,2.930293894876957,2.254723096917632
2.442389875599737,3.016239976790992,2.224921707394586
2.555894795257661,3.016239976789429,2.224921707393623
2.438475037268284,2.755402621892295,2.270945711550496
2.43950736721054,2.839047872139203,2.267188605293792
2.554959201103377,2.839047872137094,2.267188605292365
2.436641399800899,2.612304117737448,2.27187465494103
2.437560860485715,2.681987718850347,2.271576747327378
2.554327410986183,2.681987718848266,2.2715767473259
2.434691054292228,2.435051358386537,2.271652149918012
2.435681151954944,2.530724153287661,2.271842987384992
2.553717301985376,2.530724153285671,2.271842987383512
2.432849068777488,2.240428160427238,2.271578159850839
2.433728484760397,2.336520464071117,2.271639400064039
2.553083512325188,2.336520464069227,2.271639400062561
2.431523113356649,2.055621967406013,2.268772094869908
2.432106679231929,2.146133096589535,2.270678015809991
2.552557112548691,2.146133096587833,2.270678015808587
2.552156552805925,1.889748617957228,2.26422859637255
2.430872579153801,1.889748617958819,2.264228596373994
2.431088198475057,1.97352261454083,2.26631718741283
2.431537198011031,1.650804689592582,2.265196998011005
2.431027426157365,1.779495040701009,2.263879352598497
2.552206812486655,1.779495040699545,2.263879352597109
2.432924600323006,1.463089585515119,2.267424339803288
2.432220029334987,1.544531427601538,2.266665226603717
2.552593903315444,1.544531427600701,2.266665226602811
2.433974169014629,1.255145500666956,2.266263223509937
2.433529933707773,1.370481803702842,2.26727026706901
2.553019067342179,1.370481803702313,2.267270267068355
2.434301212774872,1.004180586909061,2.262208146665177
2.43425456256157,1.129952873042443,2.264727709884889
2.553254264756411,1.129952873041917,2.26472770988411
2.433282255553642,0.775124312392604,2.249302250534765
2.433977060189096,0.8835097777913465,2.257468874034602
2.553164194039371,0.8835097777909358,2.257468874033886
2.431337726692894,0.6007553970176245,2.175177388868014
2.432354159832747,0.6877107885949041,2.236528653065061
2.552637438907599,0.6877107885945771,2.236528653064362
2.430797384659192,0.3095557087437763,1.717664303328659
2.430385502502805,0.4645439210174505,1.978486695529267
2.551998459227058,0.4645439210170838,1.978486695528338
2.490663667856706,-0.5330086098858009,1.53463969777153
2.486893775822312,-0.461344254284244,1.542339642172635
2.569089873916508,-0.4613442542840974,1.542339642171312
2.499865285314491,-0.6858825849487804,1.519340560103855
2.494675039853237,-0.6052629150494906,1.527161939408649
2.571694206531137,-0.6052629150492105,1.52716193940734
2.515786764243168,-0.8935020144197183,1.498010029332407
2.507621366394323,-0.7892369005169564,1.509253113394569
2.576027248093098,-0.7892369005164888,1.509253113393236
2.523672889913498,-1.009321317229986,1.478952034649192
2.520696649760658,-0.9621896173222391,1.488489783859223
2.580403450568831,-0.9621896173215657,1.488489783857782
2.536308870338325,-1.112140168155386,1.441738789767726
2.529050669026079,-1.061865983542937,1.464130898638198
2.583022368746296,-1.061551179026837,1.464261494094446
2.35020028963505,-0.6858825849497541,1.518385716884354
2.337984937794948,-0.6052629150502519,1.526207096189148
2.419072220988109,-0.6052629150498579,1.527161939410366
3.192066638121691,-1.123311620876641,1.376052482683265
3.234419876626362,-1.065005313095569,1.402133847618152
3.309974560012528,-1.065363184875006,1.389552484704987
2.856001457600672,3.147987245270612,1.929568451663024
2.806608737948391,3.220406056520258,1.792969707576838
2.913244710541943,3.215114093171902,1.763269268707251
2.903262796097832,3.073714265968267,2.166111810310555
2.893095130717236,3.107030347855369,2.069579272021993
3.024923704420143,3.107170809928428,2.067254690872382
2.907906770174821,2.930293894879751,2.254723096919459
2.905239183223981,3.016239976793289,2.224921707396001
3.0412291442138,3.016239976795514,2.224921707397372
2.912106734124865,2.75540262189542,2.270945711552665
2.910295783627116,2.839047872142303,2.267188605295891
3.048618337703229,2.839047872145305,2.267188605297923
2.915323367246051,2.612304117740442,2.271874654943205
2.913710416079305,2.681987718853406,2.271576747329551
3.053608128842126,2.681987718856369,2.271576747331656
2.918744733831613,2.435051358389391,2.271652149920186
2.917007868725098,2.530724153290587,2.271842987387168
3.058426685516463,2.530724153293421,2.271842987389275
2.921976011399204,2.240428160429916,2.271578159852989
2.92043330809594,2.336520464073896,2.271639400066212
3.063474648035314,2.336520464076586,2.271639400068317
2.924302050324426,2.055621967408328,2.268772094871874
2.923278337973318,2.146133096592037,2.270678015812055
3.067716839341279,2.146133096594461,2.270678015814053
3.070888880753012,1.889748617963422,2.264253069837817
2.925443240936293,1.889748617961157,2.264228596376117
2.925064993729495,1.973522614543115,2.266317187414837
2.924277342514627,1.650804689594276,2.265196998012719
2.925171602725774,1.77949504070316,2.263879352600537
3.070491936732006,1.779495040705244,2.263903824011391
2.921843511232006,1.463089585516031,2.267424339804331
2.923079495125551,1.544531427602769,2.266665226605048
3.067434746796814,1.544531427603961,2.266667673490896
2.920002319897032,1.255145500667732,2.266263223510991
2.920781613528979,1.370481803703619,2.267270267069972
3.064076859999522,1.370481803704371,2.267270267070904
2.919428607911982,1.00418058690977,2.262208146666322
2.919510443402305,1.129952873043216,2.264727709886034
3.062219303286489,1.129952873043964,2.264727709887143
2.921216099499159,0.7751243123931056,2.24930225053572
2.919997248094282,0.8835097777919501,2.257468874035655
3.062930669377102,0.8835097777925347,2.257468874036674
2.924627262310693,0.6007553970181523,2.175177388869255
2.922844198558301,0.6877107885953847,2.236528653066089
3.068357206086397,0.6877107885958503,2.236528653067084
2.924672112320662,0.3095557087442812,1.717855337973793
2.92629768840261,0.4645439210179894,1.978486695530632
3.077030251204047,0.4634183246834382,1.976477605241126
2.808438563644331,-0.5330086098860805,1.534639697773257
2.81467046869957,-0.4613442542844363,1.542339642174371
2.901208126415569,-0.4613442542846426,1.541384798953173
2.793227622368459,-0.6858825849492503,1.519340560105573
2.801807474691238,-0.6052629150498579,1.527161939410366
2.882894757884535,-0.605262915050252,1.526207096189148
2.766908262525449,-0.8935020144204877,1.498010029334218
2.780406257605417,-0.7892369005175698,1.509253113396316
2.852425306118372,-0.7892369005182274,1.508298270175131
2.753675134109495,-1.009461230348837,1.478893992225455
2.75879186553107,-0.9621896173231221,1.488489783861113
2.82165235175212,-0.9621896173240694,1.487534940640081
2.729840040539023,-1.113404388682139,1.441368685689883
2.743210950978611,-1.063125201604919,1.463608516808806
2.799863218160065,-1.064472386567502,1.461817750533234
2.64744835164864,-0.685882584948422,1.519340560102546
2.64918548914699,-0.6052629150492104,1.52716193940734
2.726204655825568,-0.6052629150494905,1.527161939408649
2.636333710658643,-1.198204831212094,1.318985487087384
2.690089777830591,-1.198160420784219,1.319055242980758
2.692695750221341,-1.214559504379604,1.295740927723688
3.382587758781177,3.151711266292661,1.876896601598742
3.379481593694953,3.197823023682831,1.684758212310997
3.49797653992158,3.197452970059942,1.670256661423384
3.379705171557836,3.07396667634504,2.156300374798864
3.384309191942484,3.107885294770761,2.054763548331876
3.492754217243691,3.107276533172331,2.018198180127682
3.384832199185163,2.930661037245849,2.240451917993684
3.379094831034479,3.016584172760958,2.211542477152584
3.471588181471317,3.015081464824961,2.157414119958952
3.396213705206776,2.755769764262078,2.256674532627474
3.39130620022813,2.839415014508917,2.252917426370579
3.483707641577166,2.83963913034848,2.196008758426369
3.405167648238517,2.612671260106878,2.257603476018023
3.400559531989651,2.682354861219952,2.257305568404366
3.494277693247464,2.682765691527667,2.200265778894394
3.416611462916364,2.435418500755587,2.257380970995004
3.410681171408357,2.531091295656907,2.257571808461987
3.507018364469442,2.531497235135451,2.200514312494196
3.424559037096835,2.240795302795815,2.257306980927766
3.421338128141954,2.336887606439965,2.257368221141027
3.519675690328285,2.337434563453679,2.200289353567644
3.429865014603234,2.05598910977361,2.254538523429906
3.427290324425009,2.146500238957639,2.256406836886685
3.523140642460212,2.147334410802159,2.199310970341871
3.432957533485598,1.89011576032648,2.250333602600854
3.431932519244276,1.973889756908347,2.252234093186194
3.528172045261695,1.974307095852724,2.195141754442814
3.429798058769956,1.651171831958506,2.251113876200043
3.43222141956522,1.779862183068166,2.249984327302508
3.52854209113852,1.779935221091673,2.192898976190286
3.423202605635543,1.463456727878934,2.25315316087723
3.426552005367138,1.544898569966212,2.252431659101093
3.522013844072305,1.545959236589967,2.195321030113433
3.418213150841357,1.255512643030402,2.251992044583908
3.420324963054536,1.370848946066291,2.252999088142732
3.514792598410856,1.372012172694922,2.195889312820919
3.41665844549384,1.00454772927233,2.247936967739391
3.416880211951118,1.130320015405882,2.250456530959104
3.510814848026803,1.131482660890512,2.193351765451449
3.424180064392911,0.7754914547553111,2.235031071608468
3.418199406734448,0.8838769201543291,2.243197695108568
3.512318872459002,0.8850353240232244,2.186089056373842
3.466932196697136,0.6014588431709818,2.162466034980775
3.439302800644239,0.6880779309575549,2.22225747413896
3.52818417932132,0.6893682965517773,2.165732405835033
3.554525066963074,0.3037523903059122,1.708001069500783
3.509095032794006,0.4665925823331567,1.972014641795511
3.584684016104493,0.4716125785801671,1.939771009822112
3.615852874235737,0.1158905079443529,1.51531935380114
3.595669957108134,0.1892026236018529,1.551112168478833
3.651474358645298,0.1909481968792877,1.553353036509235
3.606792111777402,-0.07094441591318203,1.493530519699101
3.612844044717827,0.0302582536746173,1.504814496825521
3.659718304517922,0.02374739237193428,1.49594484500135
3.592169902039395,-0.2425178403050044,1.480591869737503
3.599645671136112,-0.164148643705472,1.485356315552607
3.659747057431387,-0.1707318582705981,1.476813008561126
3.574772612146187,-0.3890882988315106,1.469920915252943
3.583946567256475,-0.3159476840308548,1.475948259825992
3.653521785708887,-0.3225321867038812,1.470023855461353
3.553709943844257,-0.533008609886712,1.455089672914756
3.564660164656974,-0.461344254284871,1.462789617315891
3.64175303581994,-0.4679289705809291,1.457138354763657
3.528232448682586,-0.6858825849503121,1.43979053524705
3.542111259870433,-0.6052629150506881,1.447611914551844
3.62787932303531,-0.6118467632285357,1.44196277699446
3.486462327055012,-0.8935020144222265,1.418460004475908
3.508620872012487,-0.7892369005189558,1.429703088537863
3.60846459760844,-0.7958185546288877,1.423848902458031
3.450239145999814,-1.009894613573116,1.399164179983397
3.468533701293242,-0.9621896173251179,1.408939759002981
3.585790146773527,-0.9683354074350502,1.402930045194202
3.355981577585157,-1.126600878799865,1.356103098865809
3.413276229197742,-1.067025650606078,1.382440405493903
3.543531772565073,-1.072748826457766,1.376604731506161
2.328544089444913,-0.5330086098863802,1.533684854552049
2.319671569263913,-0.4613442542846425,1.541384798953173
2.406209226979777,-0.4613442542844363,1.542339642174371
2.55416953036152,0.2043641821818638,1.565656312916218
2.439836990672381,0.2043641821822549,1.565884154135914
2.434343410291921,0.2227828574193561,1.57741110017266
2.650528066249946,-0.5330086098855879,1.534639697770213
2.651789821761619,-0.4613442542840974,1.542339642171312
2.733985919856493,-0.4613442542842441,1.542339642172635
2.81027791560368,-1.120789382457224,1.428001533486309
2.847520733791092,-1.068003737566603,1.452426514871349
2.366806738920676,-1.12710932702391,1.409764087396661
2.898905740601071,-1.070026521814393,1.436947648261691
2.821309599730037,-0.3890882988312746,1.549470940111404
2.310219271205778,-0.3890882988313866,1.548516096890215
2.828643267175892,-0.3159476840308197,1.555837516176361
2.299778144160784,-0.3159476840308364,1.554882672955181
2.921101551518698,-0.3159476840308363,1.554882672955181
2.392236428503455,-0.3159476840308197,1.555837516176361
2.482877538898739,-0.3890882988311702,1.54947094010966
2.653134027120359,-0.3890882988310905,1.54947094010833
2.478441153196139,-0.3159476840308043,1.555837516174609
2.654618853227073,-0.3159476840307924,1.555837516173273
2.566260842451054,-0.3159476840307924,1.555837516173273
2.742438542482666,-0.3159476840308043,1.555837516174609
2.836439682044374,-0.2425178403051712,1.561838052055559
2.288678191955654,-0.242517840305092,1.560883208834387
2.844994614575466,-0.1641486437058827,1.568538206428905
2.276498319050595,-0.1641486437056877,1.567583363207805
2.944381376628888,-0.1641486437056877,1.567583363207805
2.37588508110388,-0.1641486437058827,1.568538206428905
2.473724835786134,-0.242517840305245,1.5618380520538
2.656197370445228,-0.2425178403053013,1.561838052052458
2.46854966515727,-0.1641486437060644,1.568538206427078
2.65792946250655,-0.164148643706203,1.568538206425685
2.562950233171577,-0.164148643706203,1.568538206425685
2.752330030521534,-0.1641486437060644,1.568538206427078
2.85513139424189,-0.07094441591396269,1.577670614969898
2.262066330539299,-0.07094441591359217,1.576715771749064
2.865354427389598,0.03030393831307459,1.588446099624002
2.247276422451726,0.03060773319441726,1.587518118454871
2.973603273227756,0.03060773319441726,1.587518118454871
2.355525268289749,0.03030393831307458,1.588446099624002
1.622431657912811,3.151598646371979,1.755523817861527
3.598448037766671,3.151598646371979,1.755523817861527
1.640233738931835,3.19731622377355,1.620516765143203
3.580645956747647,3.19731622377355,1.620516765143203
1.602676419937499,3.196564590409426,1.525384364778584
3.618203275741983,3.196564590409426,1.525384364778584
1.655223564367578,3.064391560109511,1.946008760528846
3.565656131311905,3.064391560109511,1.946008760528846
1.64113460650843,3.10366147663274,1.880552781491618
3.579745089171052,3.10366147663274,1.880552781491618
1.586829506097198,3.095391630158772,1.648960828905721
3.634050189582284,3.095391630158772,1.648960828905721
1.655457537249296,2.92604471550018,2.001498887900941
3.565422158430186,2.92604471550018,2.001498887900941
1.65973288733573,3.006851103396126,1.980896506837162
3.561146808343752,3.006851103396126,1.980896506837162
1.58205293723151,2.991365262487565,1.697135275585649
3.638826758447972,2.991365262487565,1.697135275585649
1.643257702446142,2.756296097823906,2.014461852654677
3.577621993233339,2.756296097823906,2.014461852654677
1.648953081935614,2.838919407843029,2.01137688682499
3.571926613743868,2.838919407843029,2.011376886824991
1.572712030972325,2.837146196525344,1.715544819727193
3.648167664707157,2.837146196525344,1.715544819727193
1.631980816034282,2.613173402309569,2.015309590043496
3.5888988796452,2.613173402309569,2.015309590043496
1.637892193056457,2.682869608819916,2.015055500375932
3.582987502623025,2.682869608819916,2.015055500375931
1.561933227016715,2.682590163116785,1.718213098231473
3.658946468662767,2.682590163116785,1.718213098231473
1.616113956154892,2.436050533675546,2.014977141892433
3.604765739524591,2.436050533675546,2.014977141892433
1.624251301639495,2.531579577872781,2.01522592678093
3.596628394039987,2.531579577872781,2.01522592678093
1.549465576643943,2.531265130348225,1.718463096378994
3.671414119035539,2.531265130348225,1.718463096378994
1.610899721900803,2.242982919694158,2.014793775378034
3.60997997377868,2.242982919694158,2.014793775378033
1.611661661886192,2.338138966469934,2.014906692862842
3.60921803379329,2.338138966469934,2.014906692862842
1.538957349703159,2.33882650760679,1.718243333289009
3.681922345976324,2.33882650760679,1.718243333289009
1.606987858389011,2.058460031113207,2.011959078757227
3.613891837290471,2.058460031113207,2.011959078757228
1.609745860027814,2.149305783472572,2.013853323324925
3.611133835651669,2.149305783472572,2.013853323324925
1.536417798379976,2.1520352033696,1.71739453208611
3.684461897299507,2.1520352033696,1.71739453208611
1.602903419651465,1.888379276923073,2.007739292764851
3.617976276028017,1.888379276923073,2.007739292764851
1.60428421105306,1.974439724215072,2.009643769819959
3.616595484626422,1.974439724215072,2.009643769819959
1.53041284287249,1.974206507424936,1.713530165359496
3.690466852806992,1.974206507424936,1.713530165359496
1.606680007613074,1.652880055744147,2.008482335421461
3.614199688066408,1.652880055744146,2.008482335421461
1.603722232989634,1.778549060130308,2.007375920739668
3.617157462689849,1.778549060130308,2.007375920739668
1.529142388095383,1.775823629637339,1.711310649058035
3.6917373075841,1.775823629637339,1.711310649058035
1.615105678142156,1.468054363727002,2.010511791062337
3.605774017537327,1.468054363727002,2.010511791062337
1.61078100513681,1.548929729017919,2.009787084350577
3.610098690542672,1.548929729017919,2.009787084350577
1.535316446966404,1.552885645512963,1.7134097847334
3.685563248713078,1.552885645512963,1.7134097847334
1.621484376990525,1.260095752503246,2.009378629838877
3.599395318688957,1.260095752503247,2.009378629838877
1.61880947958205,1.375435080527544,2.010370311039196
3.602070216097432,1.375435080527544,2.010370311039196
1.543228197288807,1.379400842533128,1.713970042077893
3.677651498390675,1.379400842533128,1.713970042077893
1.623456812951879,1.009126104620499,2.00533543300474
3.597422882727603,1.009126104620499,2.00533543300474
1.623158852482708,1.134903005165363,2.007854863094371
3.597720843196774,1.134903005165363,2.00785486309437
1.547440049087556,1.138040314163656,1.711721864558719
3.673439646591926,1.138040314163656,1.711721864558719
1.617300486934209,0.780175969195011,1.99301694360882
3.603579208745273,0.7801759691950112,1.99301694360882
1.621597590069474,0.8884369575706145,2.000575068335122
3.599282105610008,0.8884369575706146,2.000575068335122
1.546070305548239,0.8907274551748083,1.704932431621799
3.674809390131243,0.8907274551748085,1.704932431621798
1.599189547517745,0.6089226238746159,1.943123055488826
3.621690148161737,0.608922623874616,1.943123055488826
1.610784778072078,0.6933520431503317,1.982792679107301
3.610094917607404,0.6933520431503316,1.982792679107301
1.537671591231391,0.6948120377764726,1.691752720917806
3.683208104448092,0.6948120377764726,1.691752720917806
1.548361707178725,0.316504889682156,1.645451497057103
3.672517988500757,0.316504889682156,1.645451497057103
1.576573688814539,0.4797936965873,1.820318013788442
3.644306006864943,0.4797936965872999,1.820318013788442
1.519623474847208,0.4807734502056726,1.614737081243576
3.701256220832273,0.4807734502056726,1.614737081243575
1.523306546913417,0.08974088714698938,1.488933856682736
3.697573148766066,0.08974088714698938,1.488933856682736
1.529727915544398,0.183118931296621,1.527132589829666
3.691151780135084,0.183118931296621,1.527132589829666
1.495435849522893,0.1676773925256456,1.469793076469263
3.725443846156589,0.1676773925256457,1.469793076469263
1.516283476444623,-0.1065627040597343,1.464665734247804
3.70459621923486,-0.1065627040597343,1.464665734247804
1.520096554225267,-0.003463073025771996,1.476533111935164
3.700783141454216,-0.003463073025772007,1.476533111935164
1.486675891874743,-0.04742925910894607,1.433675824611888
3.734203803804739,-0.04742925910894608,1.433675824611888
1.513958745813381,-0.2781452429012135,1.453890790611734
3.706920949866101,-0.2781452429012135,1.453890790611734
1.513950442646595,-0.1997719083871506,1.457211757455009
3.706929253032887,-0.1997719083871506,1.457211757455009
1.4825751393777,-0.2465680753931129,1.414720945279195
3.738304556301782,-0.2465680753931129,1.414720945279195
1.519345364599815,-0.424719848719418,1.444495991702958
3.701534331079668,-0.424719848719418,1.444495991702958
1.515947842834269,-0.3515779189560538,1.450262017993548
3.704931852845213,-0.3515779189560538,1.450262017993548
1.486040991903999,-0.3983832423569387,1.405819834574166
3.734838703775484,-0.3983832423569387,1.405819834574166
1.527609360256713,-0.5686383849531638,1.429682825350855
3.69327033542277,-0.5686383849531638,1.429682825350855
1.523367116001842,-0.4969756451726669,1.437374631669417
3.697512579677641,-0.496975645172667,1.437374631669417
1.492804378205115,-0.543782487092958,1.393652431689677
3.728075317474367,-0.543782487092958,1.393652431689677
1.53697696021623,-0.721504466475852,1.414164645641386
3.683902735463252,-0.7215044664758521,1.414164645641386
1.532048818905326,-0.6408896083542744,1.422208427733677
3.688830876774156,-0.6408896083542744,1.422208427733677
1.500408004598088,-0.6876902793371976,1.378493193135085
3.720471691081395,-0.6876902793371975,1.378493193135085
1.549487363238926,-0.9285228810940041,1.391016644181577
3.671392332440556,-0.9285228810940042,1.391016644181577
1.542999999185621,-0.8248517212242368,1.40319003773458
3.677879696493861,-0.8248517212242368,1.40319003773458
1.509519552096265,-0.8716367958799265,1.358619301698906
3.711360143583216,-0.8716367958799265,1.358619301698906
1.562292003815201,-1.040556351858286,1.37273481892362
3.658587691864281,-1.040556351858286,1.37273481892362
1.555155871014328,-0.9954458792315636,1.381585112441452
3.665723824665154,-0.9954458792315637,1.381585112441452
1.51929046796388,-1.039132655277344,1.337654681778884
3.701589227715602,-1.039132655277344,1.337654681778884
1.662917852767915,-1.151203209387988,1.334341037908924
3.557961842911567,-1.151203209387988,1.334341037908925
1.581152722414241,-1.096193590018846,1.356774857088403
3.639726973265241,-1.096193590018847,1.356774857088403
1.541729425750432,-1.132239868967763,1.31957445397515
3.67915026992905,-1.132239868967763,1.31957445397515
1.559357505183817,3.141145420375702,1.427121120394522
3.661522190495665,3.141145420375702,1.427121120394522
1.591032362464006,3.192500372696468,1.413465092281355
3.629847333215477,3.192500372696468,1.413465092281355
1.585141900589506,3.188524176347649,1.296031554867238
3.635737795089976,3.188524176347649,1.296031554867238
1.544885517429361,3.03025419771532,1.44633994685376
3.675994178250122,3.03025419771532,1.44633994685376
1.555953754798855,3.082251647206128,1.439530346484256
3.664925940880627,3.082251647206128,1.439530346484257
1.539474825637458,3.068217185630337,1.299583818767245
3.681404870042024,3.068217185630337,1.299583818767245
1.529318286039491,2.909977925476572,1.458385821305761
3.691561409639991,2.909977925476572,1.458385821305761
1.535059312562895,2.974700607441752,1.452258548618208
3.685820383116587,2.974700607441752,1.452258548618208
1.519178281986706,2.961711893139903,1.303427569254917
3.701701413692776,2.961711893139902,1.303427569254917
1.519047568312037,2.755786124914134,1.463429142259116
3.701832127367444,2.755786124914134,1.463429142259116
1.52444221005165,2.835312714463602,1.462212476857571
3.696437485627831,2.835312714463602,1.462212476857571
1.504839442567225,2.834040743861433,1.310558608761993
3.716040253112257,2.834040743861433,1.310558608761993
1.508127487059121,2.612609449080396,1.464510398564699
3.712752208620361,2.612609449080396,1.464510398564698
1.513587556053473,2.68233389520693,1.463926359540201
3.707292139626008,2.68233389520693,1.463926359540201
1.493301836356338,2.682270445401554,1.311618344034907
3.727577859323144,2.682270445401554,1.311618344034907
1.496848662296298,2.435772870307905,1.465141135919538
3.724031033383184,2.435772870307905,1.465141135919538
1.502344793662481,2.530983895632578,1.464903257030542
3.718534902017001,2.530983895632578,1.464903257030543
1.482435882532364,2.530912358480297,1.313635637233081
3.738443813147118,2.530912358480297,1.313635637233081
1.491084607044653,2.246160833404409,1.466054045564057
3.729795088634829,2.246160833404409,1.466054045564057
1.493180033492558,2.339236534897187,1.465574439497359
3.727699662186924,2.339236534897186,1.465574439497359
1.473027935919797,2.339332743398264,1.315604879475679
3.747851759759686,2.339332743398264,1.315604879475679
1.485046840363829,2.062269456911086,1.46503015173848
3.735832855315653,2.062269456911086,1.46503015173848
1.488512842007384,2.153857492046735,1.46593130545406
3.732366853672098,2.153857492046735,1.46593130545406
1.465846904801421,2.154305295508613,1.317678378291452
3.755032790878061,2.154305295508613,1.317678378291452
1.479748099294661,1.88279748112442,1.4623046938603
3.741131596384822,1.88279748112442,1.4623046938603
1.4819010654073,1.973982074543809,1.463647103442501
3.738978630272182,1.973982074543809,1.463647103442501
1.458659937249456,1.9739262068094,1.317700639508291
3.762219758430026,1.9739262068094,1.317700639508291
2.46241758121502,-0.07094441591430817,1.577670614967822
2.659981826511033,-0.07094441591457157,1.57767061496624
2.456017012565867,0.03014779459159713,1.588430698608765
2.662159807520839,0.03010875866094987,1.588426848353713
2.558719888157289,0.03010875866094987,1.588426848353713
2.764862683112938,0.03014779459159713,1.588430698608764
1.479011076401993,1.654259128249564,1.462068263333765
3.74186861927749,1.654259128249564,1.462068263333765
1.478717260164976,1.773729950866286,1.461751204695466
3.742162435514507,1.773729950866286,1.461751204695466
1.452855056720369,1.773034781127004,1.316365172896533
3.768024638959114,1.773034781127004,1.316365172896533
1.483887295844468,1.472944917644829,1.463109296228672
3.736992399835015,1.472944917644829,1.463109296228672
1.480906340064994,1.554301438613855,1.462671532598852
3.739973355614489,1.554301438613854,1.462671532598852
1.449150513770094,1.552852679393919,1.31565295895891
3.771729181909389,1.552852679393919,1.31565295895891
1.488572236394953,1.26127073331225,1.462514599527329
3.732307459284529,1.26127073331225,1.462514599527329
1.486645252130647,1.378471271791236,1.46306202976195
3.734234443548835,1.378471271791236,1.46306202976195
1.451380657253659,1.372830854394495,1.315775575037262
3.769499038425824,1.372830854394495,1.315775575037262
1.49002785965593,1.00567951936566,1.460323418561728
3.730851836023552,1.00567951936566,1.460323418561728
1.489760995189996,1.133842060277472,1.46175626264337
3.731118700489486,1.133842060277472,1.46175626264337
1.452815534855423,1.123334336040441,1.315784945867893
3.768064160824059,1.123334336040441,1.315784945867893
1.486504947115303,0.7729744937726087,1.452303281923119
3.734374748564179,0.7729744937726089,1.452303281923119
1.488912745520457,0.8832728858647315,1.456999609067154
3.731966950159025,0.8832728858647315,1.456999609067154
1.452643480577626,0.8679472269109001,1.314004532841752
3.768236215101856,0.8679472269109,1.314004532841752
1.480073091143515,0.590700999646496,1.442841197776147
3.740806604535968,0.590700999646496,1.442841197776146
1.48344313737622,0.6809992357972228,1.448487790871809
3.737436558303263,0.6809992357972228,1.448487790871809
1.451149717949755,0.6554116905994423,1.308814083216127
3.769729977729727,0.6554116905994423,1.308814083216128
1.472880727047886,0.3007496209358483,1.404342937508929
3.747998968631597,0.3007496209358482,1.404342937508929
1.476447685162049,0.4625726680283427,1.427686272619791
3.744432010517433,0.4625726680283427,1.427686272619791
1.451086834874616,0.4311372893975231,1.301285603857568
3.769792860804866,0.4311372893975231,1.301285603857568
1.467838705772608,0.03334426370866152,1.367990313943195
3.753040989906874,0.03334426370866151,1.367990313943195
1.469946955288283,0.1530097356472696,1.383128266672278
3.750932740391199,0.1530097356472696,1.383128266672278
1.454256940665729,0.1437355883271336,1.279869895911419
3.766622755013753,0.1437355883271336,1.279869895911419
1.465783592935953,-0.1856963828041528,1.347476309091235
3.755096102743529,-0.1856963828041528,1.347476309091235
1.466365911792331,-0.07804216906612232,1.356508112759681
3.75451378388715,-0.07804216906612232,1.356508112759681
1.4584613577488,-0.0859417577885552,1.255224296840779
3.762418337930682,-0.08594175778855517,1.255224296840779
1.469336533292079,-0.357299171353538,1.336383415125327
3.751543162387403,-0.357299171353538,1.336383415125327
1.466791855088997,-0.2789166435734264,1.340905161438859
3.754087840590485,-0.2789166435734264,1.340905161438859
1.462257020377251,-0.2869258802992041,1.245410441267948
3.758622675302231,-0.2869258802992041,1.245410441267948
1.47615746167049,-0.5038829912711835,1.329718329852068
3.744722234008992,-0.5038829912711835,1.329718329852068
1.472609191740904,-0.4307381400356789,1.333078302295193
3.748270503938578,-0.4307381400356789,1.333078302295194
1.468918973784493,-0.4387489438926808,1.241874221769487
3.751960721894988,-0.4387489438926807,1.241874221769487
1.483763772468221,-0.6477975843577932,1.317433965197291
3.737115923211261,-0.6477975843577932,1.317433965197291
1.479885041355169,-0.576138434471528,1.32459327945862
3.740994654324313,-0.576138434471528,1.32459327945862
1.476429845584338,-0.5841494982254869,1.238571988956537
3.744449850095144,-0.5841494982254869,1.238571988956537
1.492274825801576,-0.8006461286836323,1.300789363257164
3.728604869877906,-0.8006461286836322,1.300789363257164
1.487833640081874,-0.7200419609606652,1.309412233570294
3.733046055597608,-0.7200419609606652,1.309412233570294
1.484559871191907,-0.7280519685491009,1.223051362555269
3.736319824487575,-0.728051968549101,1.223051362555269
1.502793033773413,-1.006329259692348,1.281784195016834
3.71808666190607,-1.006329259692349,1.281784195016834
1.497407707765993,-0.9039776963029851,1.290916065114755
3.723471987913489,-0.9039776963029851,1.290916065114755
1.494356458833746,-0.9119850345557712,1.207503558333738
3.726523236845737,-0.9119850345557712,1.207503558333738
1.513928789344114,-1.108492283921476,1.272699168694501
3.706950906335369,-1.108492283921476,1.272699168694501
1.50761839122428,-1.069331809266066,1.276104021508955
3.713261304455203,-1.069331809266066,1.276104021508955
1.504734585683817,-1.076808868895589,1.202772916375764
3.716145109995665,-1.076808868895589,1.202772916375764
1.624523381989931,-1.211150306899347,1.271398968314966
3.596356313689551,-1.211150306899347,1.271398968314966
1.530805988131068,-1.159325075917875,1.270928790793243
3.690073707548415,-1.159325075917875,1.270928790793243
1.52837720644787,-1.173965590988788,1.209518452907122
