0.6306842331034412,0.8212258133574117,0.2560601277198664
0.6240484538328722,0.7535998052652229,0.2558517182394443
0.7447851965332806,0.7501761636097473,0.2566825109775731
-0.5094175358377602,0.9063121426195,0.2563972969938877
-0.5576590365670211,1.001957754602727,0.2558300600552171
-0.6421237305952,0.9978524910546825,0.2557610711347984
0.7008818558659703,1.001957754602727,0.2558300600552172
0.6526403551367094,0.9063121426195001,0.2563972969938876
0.7627457165639079,0.9023036896132148,0.2571878351236523
-0.6040866143204675,1.084363162172031,0.249861204222983
-0.6174510659386543,1.125970974458387,0.2364060607482769
-0.6665961138219652,1.121401736782183,0.2211965162670773
0.7606738852376034,1.125970974458387,0.2364060607482769
0.7473094336194166,1.084363162172031,0.249861204222983
0.8056766337366186,1.080163472979935,0.2450602068925197
-0.6139022877771729,1.152996077814733,0.2226395448014225
-0.6093214967181044,1.191141347478911,0.2127126212852954
-0.6564617868353794,1.185828288465999,0.1718943523783435
0.7525443160170536,1.191141347478911,0.2127126212852954
0.7571251070761221,1.152996077814733,0.2226395448014225
0.8052484260765478,1.147946637713025,0.1945078299835387
-0.6028660004447971,1.24403563218989,0.2033228067442697
-0.5950767653403911,1.308909653329617,0.1940778747096292
-0.6395020761344203,1.303076543086104,0.1308352226315571
0.7382995846393403,1.308909653329617,0.1940778747096292
0.7460888197437464,1.244035632189891,0.2033228067442697
0.7921368410730399,1.238515145316847,0.1504249920991186
-0.5878784164878182,1.376596004923005,0.1874958556995678
-0.582774111712833,1.442294534321359,0.1848672673141514
-0.6245106413304327,1.435788006983097,0.1116471248770011
0.7259969310117822,1.442294534321359,0.1848672673141513
0.7311012357867674,1.376596004923005,0.1874958556995677
0.773953326242965,1.370421168196662,0.1172542972942973
-0.5808455415840127,1.505572342202369,0.1862551142353181
-0.5821627816603555,1.566864476233329,0.1910956321665134
-0.6237657032948768,1.559729035574809,0.1228020745013704
0.7253856009593047,1.566864476233328,0.1910956321665134
0.7240683608829618,1.505572342202369,0.1862551142353181
0.765383395820082,1.498746345691672,0.1138142696403539
-0.5857842924912819,1.627473931071134,0.1981982878326892
-0.5902543504857943,1.686039701741552,0.2067254157129701
-0.6335459229398783,1.678332228798561,0.1547996051618767
0.7334771697847438,1.686039701741553,0.20672541571297
0.7290071117902311,1.627473931071134,0.1981982878326892
0.7714015252806735,1.620032492891093,0.136902661033395
-0.5936030479124782,1.738536783639218,0.2161922180406528
-0.5950532544521544,1.78134468704304,0.2269744180957713
-0.638994786572992,1.773248634930424,0.1985954808815349
0.7382760737511037,1.78134468704304,0.2269744180957712
0.7368258672114275,1.738536783639219,0.2161922180406528
0.7805301658546342,1.730682849354705,0.1755679371643696
-0.5950206171978796,1.811247437116196,0.2403082602050963
-0.5850024657685815,1.840116717421149,0.2541197477318423
-0.6331575261276637,1.831323950074886,0.2477620939197675
0.7282252850675308,1.840116717421148,0.2541197477318423
0.7382434364968289,1.811247437116196,0.2403082602050962
0.7821781234161742,1.802777857948242,0.2238717438554092
-0.547577812309059,1.894911869919641,0.2630246430756674
-0.4918813865357087,1.97374387974987,0.2661629102649071
-0.5833839735889062,1.964160125556032,0.2669743840227782
0.635104205834658,1.97374387974987,0.2661629102649071
0.6908006316080083,1.894911869919641,0.2630246430756674
0.7564156157225209,1.885749382340391,0.262403658358199
-0.4536036357365256,2.045875375226484,0.2671987149565748
-0.4420704402626286,2.101359231779291,0.2721023683636934
-0.5542583513015107,2.091164947767942,0.2729204801284155
0.585293259561578,2.101359231779291,0.2721023683636935
0.5968264550354748,2.045875375226484,0.2671987149565749
0.7052836651810601,2.035927452456992,0.2680082480377195
-0.4402431135282606,2.151038571953255,0.2891503272552951
-0.4382901873536945,2.196456461453761,0.3240934219443811
-0.5492684300406728,2.185916107822532,0.3248431873700686
0.5815130066526437,2.196456461453761,0.3240934219443811
0.5834659328272099,2.151038571953255,0.2891503272552951
0.6949393968842623,2.140728508203038,0.2900075626214361
-0.4335874119652329,2.229855909146616,0.3801568562879208
-0.4271902265154415,2.251196555319105,0.4504713868291206
-0.5358627748393615,2.240207084081508,0.4507275374983866
0.5704130458143908,2.251196555319105,0.4504713868291206
0.5768102312641821,2.229855909146616,0.3801568562879208
0.6868021334693356,2.219007938717543,0.3805625139259938
-0.4238337590831486,2.268154671680002,0.5180733227974231
-0.4242236873687316,2.285491604642917,0.5785194494247374
-0.5325899078473234,2.274333937081734,0.5787456940646845
0.5674465066676808,2.285491604642917,0.5785194494247375
0.5670565783820978,2.268154671680003,0.518073322797423
0.6752691752816227,2.257083543026131,0.5183708181025442
-0.4250362386941176,2.305053775326291,0.6398870279454403
-0.4250141674281555,2.321930478005416,0.6975001174740689
-0.5335531496513647,2.310588842365889,0.6975034407319326
0.5682369867271048,2.321930478005415,0.6975001174740689
0.5682590579930668,2.305053775326291,0.6398870279454403
0.6768028639564425,2.293797344696529,0.6399982947016418
-0.4248719301035396,2.329500684326435,0.7414041258803288
-0.4248482238827702,2.331041379365778,0.7764217088886476
-0.5333509386555018,2.31965374573398,0.7764160238517683
0.5680710431817195,2.331041379365778,0.7764217088886476
0.5680947494024888,2.329500684326435,0.7414041258803288
0.6766026452395744,2.318120829165253,0.7413251908823484
-0.4248482238827702,2.332157355309133,0.817479380184416
-0.4229731143086639,2.334504777841161,0.8654763200798668
-0.5310660183625675,2.323099658631373,0.8664747167519428
0.5661959336076132,2.334504777841161,0.8654763200798668
0.5680710431817195,2.332157355309133,0.817479380184416
0.6765737579544511,2.320764087475977,0.8179522044493782
-0.4173477855863449,2.33792012362134,0.9087218901487215
-0.4106392986157519,2.341229854055551,0.9411577101313302
-0.5159468324999618,2.329799515805804,0.941690518319529
0.544084779887417,2.343885646743595,0.9865751966105205
0.548779441091963,2.343643520788189,0.9633771558398319
0.6526170272617344,2.3322359314895,0.9634329251057372
-0.4007716323867961,2.324055746628612,1.013718529036235
-0.4109696944411456,2.265343060353931,1.034380493521116
-0.5208991281880586,2.254284876125532,1.033592768411748
0.5541925137400949,2.265343060353931,1.034380493521116
0.5439944516857453,2.324055746628612,1.013718529036235
0.6494745295618873,2.312870264271834,1.013098341057356
-0.4217138043830016,2.195794849682772,1.045098639934138
-0.4259192323702286,2.13535904229447,1.049485633891796
-0.5410373924341287,2.124306948353515,1.048265777666362
0.5691420516691778,2.13535904229447,1.049485633891796
0.5649366236819509,2.195794849682772,1.045098639934138
0.6787357925443895,2.184556766182521,1.044172751661616
-0.4292772791408112,2.063257273772273,1.051443383851132
-0.4315700631468198,1.978937334833724,1.053070235061062
-0.5468311529267054,1.968724471725062,1.05129522776573
0.5747928824457691,1.978937334833724,1.053070235061062
0.5725000984397605,2.063257273772273,1.051443383851132
0.6883952401264784,2.052592018897256,1.05001487713332
-0.4266705205544103,1.902073171330668,1.054660969562382
-0.4153235940773291,1.838057975885378,1.058171799949076
-0.5155183011519219,1.828600956090176,1.052733539372379
0.5585464133762785,1.838057975885378,1.058171799949077
0.5698933398533597,1.902073171330668,1.054660969562382
0.6793625619593309,1.892272698400823,1.051714154262728
-0.4051462329769131,1.778004187890562,1.067220369368318
-0.3994036868281138,1.7175858240685,1.081358253671441
-0.4942428174784098,1.708775159219037,1.065827348525165
0.5426265061270631,1.7175858240685,1.081358253671441
0.5483690522758623,1.778004187890562,1.067220369368318
0.6429037160182818,1.76886936756051,1.057669823891666
-0.397009505519498,1.657038478471055,1.096070961413939
-0.3965179115368534,1.595819208704013,1.109704217666818
-0.5005324856158429,1.587661843832006,1.076992088063606
0.5397407308358027,1.595819208704013,1.109704217666818
0.5402323248184473,1.657038478471055,1.096070961413939
0.6389433906416904,1.648552661112799,1.072498353885041
-0.3961237999631893,1.532606535927091,1.123463964016591
-0.3953622431610689,1.466958972093456,1.13818105753411
-0.5078489958797702,1.45949296576353,1.091357488981794
0.5385850624600183,1.466958972093456,1.13818105753411
0.5393466192621386,1.532606535927091,1.123463964016591
0.6482215262901095,1.524788318510044,1.082634806633317
-0.3951084907726101,1.399315019949728,1.154311270774558
-0.3956595560031382,1.331412648053544,1.170939404419237
-0.5125578585801441,1.324673872337481,1.118239975645129
0.5388823753020875,1.331412648053544,1.170939404419237
0.5383313100715594,1.399315019949728,1.154311270774558
0.6534455457093304,1.392211935692312,1.10369583831182
-0.3967342156211864,1.266289290773557,1.185779287275559
-0.3970463904129148,1.191872906635214,1.201541409344133
-0.5155847373634257,1.185882786941572,1.145480978733142
0.540269209711864,1.191872906635214,1.201541409344133
0.5399570349201357,1.266289290773557,1.185779287275559
0.6578137575536023,1.259899913681373,1.131634439822407
-0.3953548670872703,1.093498304029503,1.22281218031802
-0.3925725695729632,0.9936092007306763,1.244221537363427
-0.5129738392701494,0.9886828017802767,1.18218215060164
0.5357953888719124,0.9936092007306762,1.244221537363427
0.5385776863862195,1.093498304029503,1.22281218031802
0.6582650190927473,1.088035981922023,1.163765921780403
-0.3896439873496018,0.9071379197734172,1.261481586497712
-0.3872776148291881,0.8385504693574131,1.274398128228312
-0.5057053592833886,0.8344219314997488,1.208731862934734
0.5305004341281373,0.8385504693574131,1.274398128228312
0.5328668066485511,0.9071379197734173,1.261481586497712
0.6525216847576206,0.9026754549295135,1.197286927451581
-0.386348898734709,0.7985890629307266,1.281471045516799
-0.3868659705856403,0.7691959181286222,1.285500457018305
-0.504730412868017,0.7649740326341639,1.218493553851441
0.5300887898845895,0.7691959181286222,1.285500457018305
0.5295717180336581,0.7985890629307266,1.281471045516799
0.6473872364819895,0.7945386967642054,1.215002582359653
-0.3882413543272266,0.711617834961183,1.290728496333846
-0.3899959256908045,0.5994719415143052,1.297395243867234
-0.5071268986067421,0.5962060654397596,1.227522315784505
0.5332187449897539,0.5994719415143051,1.297395243867233
0.5314641736261759,0.711617834961183,1.290728496333846
0.6493477610503347,0.707477818822203,1.222708973987646
-0.3920667072125919,0.4656769358911316,1.29997453943314
-0.395407085299105,0.342030867841242,1.294077717565792
-0.5096257071836502,0.3406003048300597,1.221272013375475
0.5386299045980543,0.342030867841242,1.294077717565792
0.5352895265115411,0.4656769358911316,1.29997453943314
0.6510651307090617,0.4634921702962518,1.228254236534232
-0.4020772099642028,0.2195367769623037,1.27855772781724
-0.4147971796065131,0.09647552215820937,1.253273479249718
-0.5249035333493326,0.09636240811543537,1.180448516485609
0.5580199989054624,0.09647552215820937,1.253273479249718
0.5453000292631521,0.2195367769623037,1.27855772781724
0.6578199367661208,0.2187634169666601,1.205385882618196
-0.4369470410094327,-0.02159421836092273,1.219089840435651
-0.465443101319944,-0.1325612277046668,1.178722602702655
-0.565511223025492,-0.1314455180417485,1.109052125875064
0.6086659206188934,-0.1325612277046668,1.178722602702655
0.580169860308382,-0.02159421836092273,1.219089840435651
0.6859417247665784,-0.02107386683032626,1.147355023114186
-0.4907379280486157,-0.237761750302289,1.13673848013354
-0.5085548186421739,-0.340274880116528,1.093886757794211
-0.6005638037191345,-0.3380447490333238,1.033205445150387
0.6517776379411232,-0.340274880116528,1.093886757794211
0.633960747347565,-0.237761750302289,1.13673848013354
0.7292653330912371,-0.2360816207543668,1.070538163374046
-0.5198878004835026,-0.4449225606435938,1.047099291733664
-0.5186843064084453,-0.5591630335563573,0.9982935975771703
-0.6033538100438265,-0.5557585278280216,0.9575578469063024
0.6619071257073946,-0.5591630335563573,0.9982935975771703
0.6631106197824519,-0.4449225606435939,1.047099291733663
0.7520379362378508,-0.4421309757733687,0.9948402516767996
-0.4918451747058052,-0.6930908387043491,0.9543728505262789
-0.4483114490544582,-0.8310713335555721,0.9210004877088811
-0.5177614564062303,-0.8262079904790211,0.9083329971536123
0.5915342683534076,-0.8310713335555722,0.9210004877088812
0.6350679940047546,-0.6930908387043491,0.9543728505262789
0.7127773913844662,-0.6889677860095729,0.9278024782722243
-0.419064378523354,-0.9317406931965022,0.9026002081792136
-0.4122880465883852,-0.9904336171588022,0.8968889051646333
-0.4751967170681219,-0.9847152665255935,0.8945861731724198
0.5555108658873345,-0.9904336171588022,0.8968889051646333
0.5622871978223034,-0.9317406931965022,0.9026002081792137
0.6265106999378258,-0.9263372407460722,0.8982228588752315
-0.4133693711323868,-1.039183329419322,0.8948766660656163
-0.4148320024028568,-1.092489676054465,0.8915284473532819
-0.4778165737808001,-1.086223776154356,0.8892357586788906
0.558054821701806,-1.092489676054465,0.8915284473532819
0.556592190431336,-1.039183329419322,0.8948766660656162
0.6195231119293396,-1.033203427737614,0.8925777041910901
-0.4163363230119562,-1.147319125240189,0.8857640745693909
-0.4173639208793568,-1.201932609610351,0.8777303368121965
-0.4803758811073313,-1.195079528520957,0.8754635001852218
0.5605867401783059,-1.20193260961035,0.8777303368121964
0.5595591423109052,-1.147319125240188,0.8857640745693909
0.6225919857921116,-1.140759055400234,0.8834821859852071
-0.417217589232242,-1.255885526256709,0.8688009867364431
-0.415601876867323,-1.30939670024979,0.8591422926221954
-0.4780550219578942,-1.301967054822281,0.8569102824302131
0.5588246961662724,-1.30939670024979,0.8591422926221957
0.5604404085311912,-1.255885526256709,0.868800986736443
0.6232715516281501,-1.248742977983528,0.8665508800799139
-0.412623088150839,-1.363348384638889,0.8477130383748381
-0.4091576307725945,-1.419847054231946,0.8337665791942781
-0.4704174915680759,-1.411824822621842,0.8315821127688696
0.5523804500715438,-1.419847054231946,0.8337665791942781
0.5558459074497885,-1.363348384638889,0.8477130383748383
0.6177401581847117,-1.355629278638878,0.8455024419569985
-0.4068520157459596,-1.482223405595541,0.816850841574945
-0.4031729938161131,-1.549681308823151,0.7963477290458746
-0.4631996789543805,-1.540962492887835,0.7942333703272692
0.5463958131150625,-1.549681308823152,0.7963477290458745
0.550074835044909,-1.482223405595541,0.816850841574945
0.6108193273219739,-1.473866513546553,0.8146980683621463
-0.3942682857569743,-1.617873528211502,0.7726640106867763
-0.3825360799260323,-1.681144017383462,0.7491915692272895
-0.4394302942243032,-1.671719880172017,0.7476502192652018
0.5257588992249817,-1.681144017383463,0.7491915692272895
0.5374911050559237,-1.617873528211502,0.7726640106867762
0.5961247559103386,-1.608788848650464,0.7705940256241275
-0.3696947761180394,-1.745130065948273,0.72542705804624
-0.3509103605988883,-1.83308104773472,0.6929025688228719
-0.4030747654277355,-1.823028036789982,0.6965917110519212
0.4941331798978376,-1.83308104773472,0.6929025688228719
0.5129175954169887,-1.745130065948273,0.72542705804624
0.5679214348869324,-1.73536263198049,0.7258688622793458
-0.3179696824453916,-1.968371119883906,0.6420143260763845
-0.2861252427124197,-2.10163877760685,0.5899852774421672
-0.3301711028260273,-2.091181640924689,0.5927804484755328
0.429348062011369,-2.10163877760685,0.5899852774421672
0.461192501744341,-1.968371119883906,0.6420143260763846
0.5080708367851967,-1.958710029120428,0.6465002370813746
-0.1276587869766226,-2.175603289046054,0.557950934293374
-0.1281120566950295,-2.186498431090269,0.5510108895111918
-0.2122970434383871,-2.181160744475293,0.5544635945384666
0.274332790143444,-2.198824444210537,0.5387042030936255
0.2726341925028852,-2.191811659054971,0.5462767048856059
0.358406641579396,-2.186279823567786,0.5495512284812326
-0.1324821763475274,-2.201456754270774,0.4895609309104206
-0.1322446873510464,-2.192345911325729,0.4746363381698502
-0.2221027880394071,-2.18632003650176,0.4774588288564424
0.2754675066499799,-2.192345911325729,0.4746363381698501
0.2757049956464609,-2.201456754270774,0.4895609309104206
0.3656677795426107,-2.195399883413169,0.4922474815837136
-0.1287862478666573,-2.151130737930693,0.3371777352180922
-0.1331209785639744,-2.152563071133032,0.3035031197778532
-0.2232501785179477,-2.146542655100665,0.3084758386520244
0.2763437978629176,-2.152563071133032,0.3035031197778532
0.2720090671655956,-2.151130737930693,0.3371777352180921
0.3603427160078504,-2.145245081405798,0.3417273444937518
-0.1324499994638429,-2.204704938863355,0.5255206921377682
-0.1327157664124348,-2.205623433852256,0.5068692557768889
-0.2227815148991848,-2.199552387518108,0.5095446622902887
0.2759385857113683,-2.205623433852257,0.5068692557768889
0.2756728187627763,-2.204704938863354,0.5255206921377682
0.3652470619106919,-2.198701974384425,0.5283188033698456
-0.1318627462691779,-2.17726430967954,0.4541912936317036
-0.1312680160775492,-2.158718147746539,0.4256985345107682
-0.2206956080544972,-2.152806678065683,0.4291359113419358
0.2744908353764827,-2.158718147746538,0.4256985345107682
0.2750855655681113,-2.17726430967954,0.4541912936317036
0.3647753097506166,-2.171289744030225,0.4572706690509927
-0.130586589038227,-2.145327980594708,0.3962752544711501
-0.129830271112919,-2.142862927722535,0.3687815178753032
-0.2186241168654606,-2.137005399146376,0.3729340368318412
0.2730530904118533,-2.142862927722535,0.3687815178753032
0.2738094083371603,-2.145327980594707,0.3962752544711502
0.3629366328470131,-2.139462065652742,0.4000823243794808
-0.3606987800532643,-2.137139172199769,0.5718153017288824
-0.3767705295833426,-2.144593109446154,0.5689603447371693
-0.4085882484251097,-2.125060932213345,0.5869509115937599
0.56821412587309,-2.148765927610023,0.5648086535993869
0.5401946541521732,-2.146223538613157,0.5685345487240495
0.577309175692924,-2.125495008056388,0.5913640822524997
-0.4670861157046205,-2.146592581467098,0.496258840352352
-0.4675041317372106,-2.137640007532333,0.4795211633414657
-0.5429011680346343,-2.115642434293382,0.4825108816341638
0.6107269510361596,-2.137640007532333,0.4795211633414656
0.6103089350035695,-2.146592581467098,0.496258840352352
0.6841153037686384,-2.124238783647165,0.5016461280048248
-0.4568582780558445,-2.097744138675538,0.344545770204188
-0.4655678513711046,-2.10052889880733,0.3116297669734153
-0.5307840434703169,-2.082658608868925,0.3114691680020425
0.6087906706700539,-2.10052889880733,0.3116297669734152
0.6000810973547937,-2.097744138675537,0.344545770204188
0.6740130336534037,-2.077673759214564,0.3445445600554666
-0.4508465688468787,-2.150974322477382,0.5499155946124098
-0.4635195583164079,-2.150686879573288,0.5217412894063357
-0.5307342537732391,-2.128170168870656,0.5363357629988099
0.6067423776153571,-2.150686879573288,0.5217412894063357
0.5940693881458281,-2.150974322477383,0.5499155946124099
0.6504766823393124,-2.128638596602706,0.575075329996534
-0.466494054647739,-2.122820395932551,0.4595207037985651
-0.4649212378718048,-2.104596408655762,0.4316475301793732
-0.5399854155513009,-2.083913646358302,0.4343895223757829
0.6081440571707538,-2.104596408655762,0.4316475301793731
0.6097168739466879,-2.122820395932551,0.4595207037985651
0.6849872976831706,-2.101412497793846,0.4623824019084053
-0.4631191435875272,-2.091438848795636,0.4028640701603051
-0.4608190530049523,-2.089137284618848,0.3758670193661334
-0.5353062331253436,-2.069137589688434,0.3778624815560297
0.6040418723039016,-2.089137284618848,0.3758670193661334
0.6063419628864764,-2.091438848795636,0.4028640701603051
0.6811571065080638,-2.071279628250757,0.4054728070842315
-0.222237051639267,0.7588358514456064,0.2468442635613277
-0.2270164943014643,0.8267007963150299,0.2471176719732917
-0.3581793494265053,0.824369220140359,0.2527612683617195
0.3702393136003978,0.82670079631503,0.2471176719732917
0.3654598709382004,0.7588358514456065,0.2468442635613277
0.4949858699645466,0.7565533203209307,0.2525288808667942
-0.2461939529478921,0.9107143994508475,0.2478262827705145
-0.2906010139034283,1.003025603937327,0.2490160562296129
-0.4399238592762981,1.003748000871146,0.2535769906890905
0.4338238332023617,1.003025603937327,0.2490160562296129
0.3894167722468255,0.9107143994508473,0.2478262827705145
0.5262135954545689,0.9091880315069403,0.253235461891666
-0.2361676057045114,-1.787219135383404,0.2570846582670312
-0.2825623875608884,-1.725975002937535,0.2560824204302796
-0.4270053193696133,-1.719955554574219,0.2613051731529699
0.4257852068598217,-1.725975002937535,0.2560824204302796
0.3793904250034448,-1.787219135383405,0.2570846582670312
0.5102987193889963,-1.780839723097617,0.2626406086453236
-0.3354698296743297,1.821799598739558,0.2517031186719084
-0.3268603582218557,1.85250384769625,0.2539095179530888
-0.4840018064141491,1.847342541889983,0.2564853855381878
0.4700831775207891,1.85250384769625,0.2539095179530888
0.4786926489732631,1.821799598739558,0.2517031186719084
0.6383956385246128,1.817753148846774,0.2504675271697946
-0.3347158061024653,1.747179534671375,0.2497563242528045
-0.3354871898550965,1.790590244791005,0.2503113819549914
-0.4951978316321636,1.787323570274448,0.2458164595048271
0.4787100091540302,1.790590244791005,0.2503113819549914
0.4779386254013989,1.747179534671374,0.2497563242528045
0.6373092475276929,1.744228947376229,0.2432127133652218
-0.3305569082264042,1.635248617527052,0.2478628963015322
-0.3329345903123344,1.694272136848108,0.249080775716097
-0.4915200670827842,1.691501546013499,0.2410431634492156
0.476157409611268,1.694272136848108,0.2490807757160969
0.4737797275253377,1.635248617527052,0.2478628963015322
0.6313171414739109,1.632678830833323,0.2385891529484895
-0.3279299222737608,1.512394248780603,0.244597212471331
-0.3286305794321768,1.574165440652455,0.2462161757716879
-0.4853188833992453,1.571803465268454,0.2360264935481687
0.4718533987311103,1.574165440652455,0.2462161757716879
0.4711527415726943,1.512394248780603,0.244597212471331
0.6275322015934099,1.510242425404781,0.2338726255238533
-0.3316708000636898,1.382409835560734,0.2441046247599437
-0.3289557538518713,1.448621863079815,0.2438057133274178
-0.4857873920442885,1.446686999981341,0.2329866177416188
0.4721785731508048,1.448621863079815,0.2438057133274178
0.4748936193626234,1.382409835560734,0.2441046247599437
0.6329220277251162,1.380700232654351,0.233680339565121
-0.3396428912378154,1.248813374152552,0.2463897226103741
-0.3354996956028638,1.31419444907632,0.2452201326819434
-0.4952158498112911,1.312716921997215,0.2357184608555966
0.4787225149017974,1.31419444907632,0.2452201326819434
0.4828657105367489,1.248813374152552,0.2463897226103741
0.6444081515034241,1.247558280278519,0.2382553555408567
-0.3455132362574062,1.156471798845428,0.2457265669578405
-0.3430766538117406,1.195505668988426,0.2463621796661154
-0.5061326692441506,1.194431933462027,0.2398351016152875
0.486299473110674,1.195505668988426,0.2463621796661154
0.4887360555563396,1.156471798845428,0.2457265669578405
0.652866096607619,1.155901572620302,0.2412916554165041
-0.3382692531431722,-1.039647913746905,0.2399450421824319
-0.3318509405500945,-1.004690108492132,0.2452026245435329
-0.4909800409265527,-1.006425458200244,0.2477506830096588
0.4750737598490278,-1.004690108492132,0.2452026245435328
0.4814920724421055,-1.039647913746905,0.2399450421824319
0.642001634184262,-1.040954279961763,0.238604354094018
-0.3361592310142822,-1.092331062740421,0.2352551879526247
-0.3370738040213046,-1.061987811985434,0.2364882676634438
-0.4969212634319728,-1.062742725281064,0.2320005296776664
0.4802966233202378,-1.061987811985434,0.2364882676634438
0.4793820503132155,-1.092331062740421,0.2352551879526247
0.6388028881897268,-1.092863882580099,0.2290247671167702
-0.3340432255952311,1.08330524771701,0.248979744393717
-0.3474008775971499,1.126873636047539,0.2469122255820162
-0.5123629755163017,1.127886953934704,0.2457488516253504
0.4906236968960834,1.126873636047539,0.2469122255820162
0.4772660448941647,1.08330524771701,0.248979744393717
0.6386896147660186,1.085493537653143,0.2513602844169746
-0.3348076792624878,-1.18616862056568,0.2298836033302361
-0.3354089646509042,-1.134242862265861,0.2331897978038707
-0.4945073346911079,-1.134633093812058,0.2258020453968777
0.4786317839498375,-1.134242862265861,0.2331897978038707
0.4780304985614211,-1.18616862056568,0.2298836033302361
0.6368658877794512,-1.186382195290942,0.2215236841639546
-0.334258838854177,-1.296477713956126,0.2270170088384891
-0.3344412929828685,-1.241433961393738,0.2275756220039331
-0.493115182124656,-1.24145951769157,0.2184473437243845
0.4776641122818017,-1.241433961393738,0.2275756220039331
0.4774816581531104,-1.296477713956126,0.2270170088384891
0.6360751230068586,-1.296316005692812,0.2174175995189406
-0.3338867362924539,-1.404777138119671,0.2288110501164501
-0.3340724648268392,-1.350851912911173,0.2274710563887459
-0.492583777533245,-1.350505217977595,0.2178659421227856
0.4772952841257726,-1.350851912911173,0.2274710563887459
0.4771095555913872,-1.40477713811967,0.2288110501164501
0.6355390006784978,-1.404246983971123,0.2196672491208917
-0.3341700784815822,-1.512423745215439,0.235505960809934
-0.3338986360837926,-1.459142514644879,0.2315202683902529
-0.4923333265016083,-1.45842740384088,0.2231397851080411
0.4771214553827258,-1.459142514644879,0.2315202683902529
0.4773928977805155,-1.512423745215439,0.235505960809934
0.6359472377877906,-1.511527366133089,0.2280721866918896
-0.3352965715495551,-1.601749537309427,0.2449125731720704
-0.3346279092145055,-1.560683110225377,0.2400993482064009
-0.4933840572652942,-1.55962254777271,0.2337234624929669
0.4778507285134388,-1.560683110225377,0.2400993482064009
0.4785193908484884,-1.601749537309427,0.2449125731720704
0.6375940067175735,-1.600208151301432,0.2402794587381665
-0.2006506799824555,2.167196965820049,0.2808192838080141
-0.1996118931062873,2.212969840449153,0.31647219498455
-0.3191649072503418,2.205740194517768,0.3212819620289513
0.3428347124052207,2.212969840449153,0.31647219498455
0.3438734992813889,2.167196965820049,0.2808192838080141
0.4638844021866288,2.160123043960538,0.2860770170351447
-0.2110380019987123,2.061211816084784,0.2584217574746526
-0.2016226588799959,2.117129333121829,0.2634250212359204
-0.3220620021356791,2.110225746547052,0.2689013072024675
0.3448454781789293,2.11712933312183,0.2634250212359204
0.3542608212976457,2.061211816084785,0.2584217574746526
0.4776169275534965,2.05449846670863,0.2639609076756849
-0.2938309527169553,1.908800162486957,0.2559293770483478
-0.244521181093252,1.988516542579728,0.2573649119663588
0.3877440003921854,1.988516542579728,0.2573649119663589
0.4370537720158886,1.908800162486957,0.2559293770483478
-0.3777026258714671,1.982050510071665,0.2629173410563323
0.5845699013737618,1.90277373285901,0.2608958476643709
-0.2209992870332948,0.719105508285816,0.2467358545972735
0.3642221063322282,0.719105508285816,0.2467358545972735
0.3632437791489013,0.6897143408340486,0.2466808498418184
-0.2200209598499679,0.6897143408340486,0.2466808498418184
-0.3499796895421385,0.7169581439135935,0.2524218340229172
0.4917929430348351,0.6876669682650486,0.2523675203827032
-0.2189810156065792,0.6307840090590646,0.2466469384072885
0.3622038349055126,0.6307840090590646,0.2466469384072885
0.3613254842315284,0.5150379012221017,0.2466390850773841
-0.218102664932595,0.5150379012221017,0.2466390850773841
-0.34707178057332,0.6289371235972302,0.2523340350333196
0.4890290794032002,0.5135847960365191,0.2523262803777189
-0.2174088140189584,0.3778340550052373,0.2466447963212972
0.3606316333178918,0.3778340550052373,0.2466447963212972
0.3602470376072801,0.2526302881818004,0.2466462241322846
-0.2170242183083467,0.2526302881818004,0.2466462241322846
-0.3448065653812917,0.3768477315497357,0.2523319198618739
0.4874752623251142,0.2520699209403708,0.2523333297329164
-0.2174142353769126,0.1291783795843581,0.2466462241322919
0.360637054675846,0.1291783795843581,0.2466462241322919
0.361758012883764,0.005139598381754366,0.2466551574913841
-0.2185351935848306,0.005139598381754365,0.2466551574913841
-0.3448143764295034,0.1290380085534264,0.2523333297329196
0.4896522631486856,0.005421220162853126,0.2523421508475234
-0.219834392076297,-0.1139152959208897,0.2466908909277454
0.3630572113752304,-0.1139152959208897,0.2466908909277454
0.3640709732851048,-0.2258599335169488,0.246771626306623
-0.2208481539861714,-0.2258599335169488,0.246771626306623
-0.3483013184130889,-0.1132286370284499,0.2523774353059358
0.4929847575825614,-0.2247924273447093,0.2524571562734211
-0.2212018264399774,-0.332012334298293,0.2469159006403267
0.3644246457389108,-0.332012334298293,0.2469159006403267
0.36401650013612,-0.4354571528677345,0.2471380206255807
-0.2207936808371865,-0.4354571528677345,0.2471380206255807
-0.3502715066631834,-0.330583686637278,0.2525996178513005
0.4929062731149145,-0.4336765751937435,0.2528189469777275
-0.2197949128512184,-0.541045678539027,0.247448062643524
0.3630177321501518,-0.5410456785390269,0.247448062643524
0.3695044759271281,-0.6555898491400855,0.2478893557862879
-0.2262816566281947,-0.6555898491400856,0.2478893557862879
-0.3482444370684054,-0.5389058777379278,0.2531250934276884
0.4995776669188832,-0.6534634791667013,0.2535608418786386
-0.2562349847869392,-0.787862251012986,0.2485384818569959
0.3994578040858725,-0.7878622510129859,0.2485384818569959
0.4451358404102223,-0.919437073409707,0.2483592355685304
-0.3019130211112889,-0.9194370734097073,0.2483592355685305
-0.3945688105429633,-0.7868983645499823,0.2542018119105033
0.596154499635531,-0.9203254251057899,0.2533933806978042
-0.210322772969695,-1.851665258124713,0.2579004137868466
0.3535455922686285,-1.851665258124713,0.2579004137868466
0.343014552604727,-1.933433450447305,0.2595929265941869
-0.1997917333057931,-1.933433450447305,0.2595929265941869
-0.3332999313769729,-1.845066593438203,0.2634461144863927
0.4618023121085944,-1.926614329241428,0.2651173614706497
-0.1834556121898487,-2.02882991234564,0.2645869660643874
0.3266784314887858,-2.02882991234564,0.2645869660643874
0.2976030154678456,-2.112215498356582,0.2778756876163933
-0.1543801961689032,-2.112215498356582,0.2778756876163933
-0.294869798977505,-2.022032606635015,0.2700486526063028
0.3966424537684604,-2.10581280271109,0.2831704060855483
-0.3362981062920339,-1.635218601343034,0.2498387000608683
0.4795209255909673,-1.635218601343035,0.2498387000608683
0.4667108547825705,-1.672204866379488,0.2538812667538987
-0.3234880354836371,-1.672204866379488,0.2538812667538987
-0.4959090982001003,-1.632198904877667,0.2488528592607455
0.6228819360739724,-1.667277979754523,0.2570569336807186
-0.7105614117036834,0.8140186254344675,0.2568849253525808
0.8537842310026326,0.8140186254344675,0.2568849253525808
0.8487197455012634,0.7470215276676424,0.2566825109775731
-0.7054969262023142,0.7470215276676424,0.2566825109775731
-0.8095957962907334,0.8107784838819798,0.2643783624755524
0.9474587637557502,0.7440468173667274,0.2640558492472578
-0.719577257816032,0.993587035188094,0.2551663626753676
0.8628000771149812,0.993587035188094,0.2551663626753676
0.8590496735966513,0.8984391990597512,0.2571878351236523
-0.7158268542977021,0.8984391990597512,0.2571878351236523
-0.8180419510236185,0.9959746975644525,0.2628846715321921
0.9566614119341697,0.8950103074398096,0.2649564435295563
-0.6771382387134241,-1.69482226333376,0.2629509152627745
0.8203610580123733,-1.69482226333376,0.2629509152627745
0.8088565889574836,-1.754804664381918,0.2667002245429632
-0.6656337696585346,-1.754804664381918,0.2667002245429632
-0.7701990430345427,-1.681912815117349,0.2682275122516361
0.89893675889474,-1.746544878665344,0.2720249758050453
-0.6819172021920319,1.823097198119678,0.242833692472055
0.8251400214909812,1.823097198119678,0.242833692472055
0.8276247721226404,1.794803024996073,0.2124965637163082
-0.6844019528236911,1.794803024996073,0.2124965637163082
-0.7697338229577645,1.809086483202421,0.2452261120461216
0.8970872509059359,1.785693439980745,0.2084646231241479
-0.6844464245298374,1.765908289312614,0.1798859489531098
0.8276692438287866,1.765908289312614,0.1798859489531098
0.8260278181915329,1.723546580301941,0.1487605896938603
-0.6828049988925837,1.723546580301941,0.1487605896938603
-0.7539087208451646,1.759931178821972,0.1774989025501291
0.906903713954431,1.717728903799671,0.146327117038121
-0.6796901231169905,1.670965366179169,0.1201791160192833
0.8229129424159396,1.670965366179169,0.1201791160192833
0.8170238779804218,1.612818949644166,0.09594295076662859
-0.6738010586814727,1.612818949644166,0.09594295076662859
-0.7603362423151812,1.664200989503885,0.1159866824304703
0.8970647164665402,1.606016833077773,0.09071549439992691
-0.6687067112174089,1.55279687919048,0.0771518588383309
0.8119295305163581,1.55279687919048,0.0771518588383309
0.8100765804754041,1.492098745592216,0.06538345949553524
-0.666853761176455,1.492098745592217,0.06538345949553524
-0.7482116826786629,1.546260100499541,0.07129927574083915
0.8894143387492188,1.485830293430025,0.05917157273452961
-0.6695666638305422,1.429434181904046,0.06269322635809682
0.8127894831294913,1.429434181904046,0.06269322635809682
0.8199696638055219,1.36437235663595,0.07029636069604366
-0.6767468445065729,1.36437235663595,0.07029636069604366
-0.749259425220204,1.423442749212686,0.05641375514929486
0.9005194129069267,1.358668540922134,0.06426984392689777
-0.6868726985864208,1.297341973753218,0.08856779142957653
0.83009551788537,1.297341973753218,0.08856779142957653
0.8406543177995416,1.233022143356719,0.1151466162056314
-0.6974314985005924,1.233022143356719,0.1151466162056314
-0.7685873941148196,1.29193447736412,0.08314651118256744
0.9235955032715021,1.227648436690162,0.1107962525517758
-0.7049193937282274,1.1803423816829,0.1449361013978793
0.8481422130271767,1.1803423816829,0.1449361013978793
0.85449538910255,1.142704817649598,0.1758717842390765
-0.7112725698036009,1.142704817649598,0.1758717842390765
-0.7888498081435929,1.174199366397541,0.1423173871902375
0.9271939851603587,1.138009793250148,0.1733674777417028
-0.690846385782097,-0.995489105288609,0.2316831635930187
0.8340692050810462,-0.995489105288609,0.2316831635930187
0.8284291386194074,-1.029256642410909,0.1962188612191582
-0.6852063193204582,-1.029256642410909,0.1962188612191582
-0.7775010476348317,-0.9969090518413545,0.2339767762277949
0.8977683413221439,-1.026599715417461,0.1921725168233202
-0.6804615744843295,-1.049950967070831,0.1631787269921577
0.8236843937832787,-1.049950967070831,0.1631787269921577
0.8209318190540912,-1.079505330339589,0.1368699975505066
-0.677708999755142,-1.079505330339589,0.1368699975505066
-0.7502966977735375,-1.045050571041606,0.1609190871179815
0.9016702015252617,-1.073372815160489,0.1346663548622668
-0.7174952696908414,1.116791827568224,0.2102853978466715
0.8607180889897906,1.116791827568224,0.2102853978466715
0.8636969096001925,1.075783235434717,0.2408972476765045
-0.7204740903012432,1.075783235434717,0.2408972476765045
-0.790238551130781,1.115075927779291,0.2056416936364612
0.9562912482171702,1.07948547303022,0.2417155191359944
-0.6770259152327516,-1.120899436265846,0.112869938498196
0.8202487345317008,-1.120899436265846,0.112869938498196
0.818983847322082,-1.171975760552576,0.09097285190326951
-0.6757610280231327,-1.171975760552576,0.09097285190326951
-0.7570955326931435,-1.115410131064892,0.1093198807306245
0.8988490217554981,-1.166467213618095,0.08667238346903794
-0.6747920869887467,-1.226281059499968,0.07408946983260148
0.8180149062876959,-1.226281059499968,0.07408946983260149
0.8175323901509943,-1.280368619502293,0.06477251208836954
-0.6743095708520452,-1.280368619502293,0.06477251208836954
-0.7546461746844853,-1.220532446660734,0.06930989745765434
0.8973922876185266,-1.274380903310724,0.05968831685555755
-0.6738166881954701,-1.333798257047907,0.06521668620805395
0.8170395074944195,-1.333798257047907,0.06521668620805395
0.8165483319012471,-1.386786720194501,0.07529803310752789
-0.6733255126022978,-1.3867867201945,0.07529803310752789
-0.7536173380791164,-1.327574345963267,0.0601333956007677
0.8962264299133125,-1.380328564504025,0.07052474221600455
-0.6733569826566368,-1.440207688569102,0.09257392708105743
0.8165798019555861,-1.440207688569102,0.09257392708105744
0.8169041260616865,-1.492701787645762,0.1148317811216008
-0.673681306762737,-1.492701787645762,0.1148317811216008
-0.7529346845105485,-1.433513376309116,0.0882958198086877
0.8964378619725789,-1.486067971854646,0.1113021128043566
-0.6733179631449892,-1.540676588745558,0.1400890469208085
0.8165407824439386,-1.540676588745558,0.1400890469208085
0.8186299193233051,-1.580353816058519,0.1691840327138713
-0.6754071000243556,-1.58035381605852,0.1691840327138713
-0.7528472523302917,-1.535000914716707,0.1378211269466709
0.8871941703200952,-1.574580259441062,0.1666516387481614
-0.6433514224918002,2.176734049291277,0.3250305069147406
0.7865742417907496,2.176734049291277,0.3250305069147406
0.7896634239007656,2.131761266445162,0.2903628853360318
-0.6464406046018161,2.131761266445162,0.2903628853360318
-0.7223206742700852,2.169364888125049,0.3293920050741816
0.880309245641427,2.12443751259074,0.2971641759146372
-0.6505864857791769,2.081888207783718,0.2729915446713347
0.7938093050781263,2.081888207783718,0.2729915446713347
0.799218030901439,2.026773267942541,0.2680082480377195
-0.6559952116024896,2.02677326794254,0.2680082480377195
-0.7422613970387345,2.073366977243717,0.2797640604610782
0.8907953581147197,2.018092959725629,0.2749132618299127
-0.665005114957051,1.95534082039763,0.2669743840227782
0.8082279342560002,1.95534082039763,0.2669743840227781
0.8189244313052919,1.877290499028801,0.2614179780686565
-0.6757016120063426,1.877290499028802,0.2614179780686565
-0.7540905390001753,1.946783349745854,0.2743010579573322
0.9098614414546307,1.864672867386903,0.2699350583799941
-0.7022235478463255,0.7079813601730426,0.2565764594062147
0.8454463671452748,0.7079813601730425,0.2565764594062147
0.8428590940793577,0.6791007613933113,0.2565226507493481
-0.6996362747804082,0.6791007613933113,0.2565226507493481
-0.8005463133188102,0.7051792336404332,0.2639086137070498
0.9408529526014345,0.6764263065098828,0.2638513658851263
-0.6968860499304499,0.6211941378900822,0.256489476731405
0.8401088692293992,0.6211941378900822,0.256489476731405
0.8377859929156678,0.5074587135915836,0.2564817941750391
-0.6945631736167185,0.5074587135915836,0.2564817941750391
-0.794530363863726,0.618775669185387,0.2637513248069399
0.9351351407992175,0.5055430318720622,0.2634589442945302
-0.692728223294159,0.3726383040203051,0.2564873812258506
0.8359510425931083,0.3726383040203051,0.2564873812258506
0.8349339451023188,0.2496095144605594,0.2564887779885534
-0.6917111258033694,0.2496095144605594,0.2564887779885534
-0.7898442421894449,0.3713186190861859,0.2629558209776319
0.9319207372493172,0.2488336994295409,0.26241858870392
-0.6927425605564315,0.1283021507212362,0.2564887779885534
0.8359653798553808,0.1283021507212362,0.2564887779885534
0.8389298533247807,0.006418109234340313,0.2564975170884742
-0.6957070340258313,0.006418109234340311,0.2564975170884742
-0.7898604054935184,0.1280625957347031,0.2621101655167076
0.936424552069891,0.006717363595360827,0.2621292644477325
-0.6991428797444595,-0.110568622945008,0.2565324734881577
0.8423656990434089,-0.110568622945008,0.2565324734881577
0.8450466823886242,-0.2205686142437578,0.2566114532466086
-0.7018238630896752,-0.2205686142437578,0.2566114532466086
-0.7970748989762461,-0.1097522086336853,0.2624103935171572
0.9433205770979662,-0.2192659260706602,0.2628637043051227
-0.7027591812833059,-0.3248769885709277,0.2567525902819954
0.8459820005822551,-0.3248769885709277,0.2567525902819954
0.8449026233114709,-0.426524815451199,0.2569698801866709
-0.7016798040125218,-0.4265248154511989,0.2569698801866709
-0.801153017424817,-0.3231131873068137,0.2633749919517492
0.9431601623108462,-0.4243116625031937,0.2638590811756338
-0.6990384734298342,-0.5302791100249162,0.2572731802271723
0.8422612927287834,-0.5302791100249161,0.2572731802271723
0.8393685339448556,-0.6435230920383743,0.2577048772886209
-0.6961457146459061,-0.6435230920383743,0.2577048772886209
-0.7969613566911973,-0.5276072933906468,0.2642598262738511
0.9358166179416387,-0.6404319542356073,0.2647070924886111
-0.6951698357295533,-0.7762561858438192,0.2583398878747213
0.8383926550285028,-0.7762561858438191,0.2583398878747213
0.8381428512499928,-0.9095381556032878,0.2534858580806426
-0.6949200319510434,-0.9095381556032879,0.2534858580806427
-0.7870615270953764,-0.7729034518400979,0.2655167560072593
0.9289822833364231,-0.9103374498615342,0.2619036414064013
-0.6523186295963198,-1.818131261287437,0.267498241159696
0.7955414488952687,-1.818131261287437,0.2674982411596959
0.7734602587978186,-1.898126075499937,0.269171513215494
-0.6302374394988695,-1.898126075499937,0.269171513215494
-0.7421179494260963,-1.809731324245114,0.2725018248286215
0.8588372569398082,-1.889365231188738,0.2738809350306266
-0.5812934075573819,-1.989747706106841,0.2741623368278173
0.7245162268563312,-1.989747706106841,0.2741623368278173
0.6551962943237014,-2.065908790609065,0.2870696964452517
-0.5119734750247522,-2.065908790609065,0.2870696964452517
-0.6577992009922538,-1.980328481782609,0.2782436496108449
0.7190775648227195,-2.053195381333321,0.289451321111217
-0.680913065118855,-1.609984441283817,0.2069789182674413
0.8241358844178044,-1.609984441283817,0.2069789182674413
0.8264644403005601,-1.643173168337423,0.2441844336432373
-0.6832416210016108,-1.643173168337423,0.2441844336432374
-0.7497611186377337,-1.600758783877908,0.2017802450454956
0.9149698545814845,-1.628480947691559,0.2432943042572481
0.3316951760547511,2.355539179187313,0.9129765124648572
-0.1884723567558177,2.355539179187313,0.9129765124648572
-0.1849040251338888,2.358874778394722,0.9460712174149419
0.3281268444328222,2.358874778394722,0.9460712174149422
0.4463379736601458,2.347824497563231,0.9102914143421559
-0.2979739313374871,2.351148748715833,0.9429702960633404
-0.1797033316520377,2.361551328694346,0.9924112919192694
0.3229261509509711,2.361551328694346,0.9924112919192696
0.325423302410586,2.361307310288302,0.9687420177915477
-0.1822004831116525,2.361307310288302,0.9687420177915478
-0.2904808146933298,2.353816193113442,0.988728123968498
0.4373015093968419,2.353573004883359,0.9653562458746203
-0.1914645423934416,2.352097139146938,0.8688524735907273
0.334687361692375,2.352097139146938,0.8688524735907273
0.3356847569049163,2.349731369217039,0.8198805479480769
-0.1924619376059829,2.349731369217039,0.8198805479480769
-0.3074262709616902,2.344394167700429,0.8667217783655405
0.4520861291274708,2.342036446365455,0.8183651675980879
-0.1937076793193432,2.268137781567477,0.4454173384184139
0.3369304986182765,2.268137781567477,0.4454173384184139
0.3403332449054645,2.246630337419378,0.3736744737949097
-0.1971104256065311,2.246630337419378,0.3736744737949097
-0.3106581643030787,2.260720448572592,0.4486069554728264
0.4587836326293836,2.239286174982493,0.3777655144958915
-0.192461937605983,2.348606670832629,0.7779888517246013
0.3356847569049164,2.348606670832629,0.7779888517246013
0.3356973665526027,2.347053933758017,0.742259939110506
-0.1924745472536693,2.347053933758018,0.742259939110506
-0.3088633098285215,2.340915574321724,0.7769998256785371
0.452104297004752,2.339368119819862,0.7417198341782735
-0.1921297384973222,2.302700880169416,0.5760665050898118
0.3353525577962556,2.302700880169416,0.5760665050898118
0.3351451498609298,2.28522844215672,0.5143925061843228
-0.1919223305619964,2.28522844215672,0.5143925061843229
-0.3083846800690545,2.295165959924558,0.5776145617066874
0.4513086677106982,2.277752964960069,0.5167154747214737
-0.1925502051397873,2.339424558887019,0.6974640867130646
0.3357730244387208,2.339424558887019,0.6974640867130646
0.3357847644326439,2.32241594830691,0.6386806737999713
-0.1925619451337105,2.32241594830691,0.6386806737999713
-0.30899048496949,2.331764700874303,0.6974868257769682
0.4522302191556895,2.314813955353318,0.639442005596457
0.7594260131592905,2.315987723190402,0.9150851059528502
-0.6162031938603412,2.315987723190402,0.9150851059528502
-0.6063175320249031,2.319309046501976,0.945634518969957
0.7495403513238526,2.319309046501976,0.9456345189699571
0.8477785491462057,2.300788427210706,0.9273415360188456
-0.6933190910903715,2.304663284588286,0.9551315623142457
-0.5941063031043865,2.32190454910129,0.9871229853270953
0.7373291224033358,2.32190454910129,0.9871229853270953
0.7405950258557602,2.321873995533318,0.9656352908851272
-0.5973722065568109,2.321873995533318,0.9656352908851272
-0.6724133298291822,2.310267772002307,0.989059019853477
0.8261305437119548,2.308082193056936,0.9728701920375369
-0.6241162943449083,2.312605476549339,0.8717138867575616
0.7673391136438575,2.312605476549339,0.8717138867575616
0.7699768138053802,2.310280803592306,0.8207293778471563
-0.6267539945064309,2.310280803592306,0.8207293778471564
-0.7134887020447007,2.29707422287211,0.8837837005087746
0.8596920415255822,2.29467779937337,0.8279179717236497
-0.6283383789289408,2.230079877563973,0.4498875216487681
0.77156119822789,2.230079877563973,0.4498875216487681
0.7801662136096172,2.209114843950728,0.3797935626192944
-0.6369433943106678,2.209114843950728,0.3797935626192944
-0.7180951551648642,2.216662634427328,0.4471587084524584
0.8591617576079307,2.198235285061156,0.3784096755054485
-0.6267539945064309,2.309175642906141,0.776971458531324
0.7699768138053802,2.309175642906141,0.776971458531324
0.7700101611378325,2.307649879203984,0.7413251908823484
-0.6267873418388832,2.307649879203984,0.7413251908823484
-0.7164718647953567,2.293608548247947,0.7797230380663152
0.8597314434013011,2.292132360598418,0.7429674855366638
-0.6258754644798633,2.264067304695851,0.5787456940646845
0.7690982837788125,2.264067304695851,0.5787456940646845
0.7682077570653462,2.246893440863028,0.5182028149326206
-0.624984937766397,2.246893440863028,0.5182028149326204
-0.7154638140786864,2.249965897906594,0.5795940192369972
0.8576695197455838,2.23326602247345,0.5181391708914681
-0.6269874258335973,2.300153038020293,0.6975034407319327
0.7702102451325465,2.300153038020293,0.6975034407319327
0.7702412925884374,2.283439892522728,0.6399982947016418
-0.6270184732894883,2.283439892522728,0.6399982947016418
-0.7167252160912361,2.284879111389387,0.6990279581760637
0.8599701048402619,2.268709019694722,0.6412138914255122
0.1165844591079484,0.7779599321890622,1.362129771055247
-0.06539056559360884,0.776548500352206,1.355922800913916
0.1165471668545295,0.8077305211482814,1.357923457323964
-0.06527696172548868,0.8062578809691944,1.351755875023942
0.2084997810243586,0.8062578809691944,1.351755875023942
0.02667565244426094,0.8077305211482815,1.357923457323964
0.1166333265287476,0.8482050812190682,1.350540019544107
-0.06553943104203017,0.8466492253290638,1.344441575614205
0.1168513737078687,0.91767327891772,1.336926446850132
-0.06620367095005103,0.9159745963867925,1.330955480154498
0.2094264902489209,0.9159745963867925,1.330955480154498
0.02637144559092174,0.91767327891772,1.336926446850132
0.1184505831004633,-1.857269718505404,0.6943956444749333
-0.07107536295782976,-1.853365435455564,0.6930358635411238
0.1204981231000517,-1.768653092222785,0.7324611661081849
-0.07731281022258019,-1.764828686712014,0.7305921268119794
0.2205356295214501,-1.764828686712014,0.7305921268119793
0.02272469619873871,-1.768653092222785,0.7324611661081849
0.1206772687233188,2.293319445218699,1.049092595277394
-0.07785854382390844,2.288792433646106,1.045816899261397
0.1196403929083635,2.352786074650181,1.027523513813387
-0.07469989577933835,2.348136799664861,1.024449790263581
0.2179227150782082,2.348136799664861,1.024449790263581
0.02358242639042701,2.352786074650181,1.027523513813387
0.1221972451895154,2.161666272379577,1.064860892789425
-0.0824888675555418,2.157409939780454,1.061437542737187
0.1217696633069721,2.222878149920777,1.06028129775023
