-2.531997203826904,-177.6485748291016,109.527717590332
41.09098052978516,-177.6485748291016,109.527717590332
19.27949142456055,-180.0387725830078,109.5865249633789
7.856863498687744,-167.6043395996094,112.3213272094727
30.70211791992188,-167.6043395996094,112.3213272094727
7.918367862701416,-173.9650115966797,110.9479904174805
30.6406135559082,-173.9650115966797,110.9479904174805
-2.750753164291382,-166.1412200927734,112.2708129882813
41.30973434448242,-166.1412200927734,112.2708129882813
19.27949142456055,-168.3921203613281,112.3485260009766
7.628536224365234,-141.2197418212891,117.7887573242188
30.93044471740723,-141.2197418212891,117.7887573242188
-3.191116333007813,-139.9626007080078,117.7138671875
41.75009918212891,-139.9626007080078,117.7138671875
19.27949142456055,-141.8966064453125,117.8290786743164
30.87677192687988,-147.7519073486328,116.7098693847656
7.682209014892578,-147.7519073486328,116.7098693847656
7.736286640167236,-154.2303619384766,115.2862701416016
30.82269477844238,-154.2303619384766,115.2862701416016
7.793570995330811,-160.7996520996094,113.7470550537109
30.76541137695313,-160.7996520996094,113.7470550537109
-2.983303785324097,-152.8716430664063,115.2225341796875
41.54228591918945,-152.8716430664063,115.2225341796875
19.27949142456055,-154.9619140625,115.3205795288086
31.36338615417481,-64.85638427734375,129.3621215820313
7.195594787597656,-64.85638427734375,129.3621215820313
7.212442398071289,-74.56415557861328,126.2068405151367
31.34653854370117,-74.56415557861328,126.2068405151367
-3.993615388870239,-73.82741546630859,126.0944137573242
42.55259704589844,-73.82741546630859,126.0944137573242
19.27949142456055,-74.96083068847656,126.2673721313477
7.264343738555908,-85.69499206542969,124.9125671386719
31.29463768005371,-85.69499206542969,124.9125671386719
7.302976608276367,-93.37419891357422,123.9599075317383
31.25600433349609,-93.37419891357422,123.9599075317383
-3.81900691986084,-92.4906005859375,123.8574981689453
42.37798690795898,-92.4906005859375,123.8574981689453
19.27949142456055,-93.84994506835938,124.0150451660156
7.336723327636719,-99.44165802001953,123.1585540771484
31.22225761413574,-99.44165802001953,123.1585540771484
7.373967170715332,-105.7372512817383,122.3182144165039
31.18501472473145,-105.7372512817383,122.3182144165039
-3.682091236114502,-104.7571258544922,122.2231292724609
42.24107360839844,-104.7571258544922,122.2231292724609
19.27949142456055,-106.2649612426758,122.3694152832031
7.413255214691162,-112.0090560913086,121.4875564575195
31.14572715759277,-112.0090560913086,121.4875564575195
7.453136920928955,-118.0051727294922,120.7152404785156
31.10584449768066,-118.0051727294922,120.7152404785156
-3.529400587081909,-116.9292678833008,120.6273040771484
42.08838272094727,-116.9292678833008,120.6273040771484
19.27949142456055,-118.5844497680664,120.7625885009766
7.493489265441895,-123.7485275268555,119.9982833862305
31.06549263000488,-123.7485275268555,119.9982833862305
7.534190654754639,-129.2620849609375,119.3336944580078
31.0247917175293,-129.2620849609375,119.3336944580078
7.578214645385742,-134.9508209228516,118.6282577514648
30.98076629638672,-134.9508209228516,118.6282577514648
-3.37307620048523,-128.0982971191406,119.2519149780273
41.93205642700195,-128.0982971191406,119.2519149780273
19.27949142456055,-129.8886871337891,119.3777236938477
30.53739738464356,-184.1861877441406,107.8546600341797
8.021583557128906,-184.1861877441406,107.8546600341797
8.08121395111084,-189.7869720458984,105.4936065673828
30.47776794433594,-189.7869720458984,105.4936065673828
8.031498908996582,-194.7842407226563,102.4877319335938
30.5274829864502,-194.7842407226563,102.4877319335938
-2.318059682846069,-188.1506500244141,105.4735412597656
40.87704086303711,-188.1506500244141,105.4735412597656
19.27949142456055,-190.6679840087891,105.5044097900391
-26.96659660339356,244.5576782226563,135.1452026367188
65.52558135986328,244.5576782226563,135.1452026367188
64.97669982910156,236.1374359130859,142.0499572753906
-26.41771697998047,236.1374359130859,142.0499572753906
57.41902542114258,236.6637268066406,142.3256378173828
-18.86004447937012,236.6637268066406,142.3256378173828
65.11154937744141,223.5149078369141,150.7720489501953
-26.55256462097168,223.5149078369141,150.7720489501953
65.41094970703125,209.205322265625,160.2439575195313
-26.85197067260742,209.205322265625,160.2439575195313
57.81039047241211,209.8533020019531,160.6418151855469
-19.25140762329102,209.8533020019531,160.6418151855469
65.71537017822266,196.4685974121094,168.0486755371094
-27.15639114379883,196.4685974121094,168.0486755371094
65.86526489257813,188.5646820068359,171.7691955566406
-27.30628204345703,188.5646820068359,171.7691955566406
58.21857070922852,189.1420440673828,172.2444305419922
-19.65958976745606,189.1420440673828,172.2444305419922
65.97563171386719,182.9699554443359,173.1102142333984
-27.41664695739746,182.9699554443359,173.1102142333984
66.16146850585938,177.1608428955078,173.7764434814453
-27.60248947143555,177.1608428955078,173.7764434814453
58.46694564819336,177.6991882324219,174.2651672363281
-19.9079647064209,177.6991882324219,174.2651672363281
66.25644683837891,171.3540496826172,174.0582885742188
-27.69746208190918,171.3540496826172,174.0582885742188
66.09420013427734,165.7663269042969,174.2461700439453
-27.53521919250488,165.7663269042969,174.2461700439453
58.38330841064453,166.2656860351563,174.738037109375
-19.82432556152344,166.2656860351563,174.738037109375
65.91021728515625,160.5612335205078,174.4105377197266
-27.35123252868652,160.5612335205078,174.4105377197266
65.93995666503906,155.9023895263672,174.6218566894531
-27.38097190856934,155.9023895263672,174.6218566894531
58.22673416137695,156.3680114746094,175.1162414550781
-19.66775131225586,156.3680114746094,175.1162414550781
66.089599609375,151.2427368164063,174.7979431152344
-27.53062057495117,151.2427368164063,174.7979431152344
66.26534271240234,146.0352478027344,174.8566436767578
-27.70635795593262,146.0352478027344,174.8566436767578
58.49957656860352,146.4671020507813,175.3526153564453
-19.94059371948242,146.4671020507813,175.3526153564453
66.22853851318359,139.3157196044922,174.8440246582031
-27.66955947875977,139.3157196044922,174.8440246582031
65.74058532714844,130.1199645996094,174.8061828613281
-27.18160247802734,130.1199645996094,174.8061828613281
58.00411605834961,130.4973754882813,175.3018188476563
-19.44513702392578,130.4973754882813,175.3018188476563
65.49267578125,115.2680816650391,174.6165466308594
-26.93369483947754,115.2680816650391,174.6165466308594
65.71039581298828,95.99818420410156,174.2876892089844
-27.15141677856445,95.99818420410156,174.2876892089844
-27.44847869873047,77.64665222167969,173.9643859863281
66.00746154785156,77.64665222167969,173.9643859863281
57.94184494018555,96.25885772705078,174.7798461914063
-19.38286399841309,96.25885772705078,174.7798461914063
68.08879852294922,-36.29707717895508,150.0218963623047
-29.52981948852539,-36.29707717895508,150.0218963623047
69.23928833007813,-45.48527908325195,143.5603179931641
-30.68030738830566,-45.48527908325195,143.5603179931641
70.36082458496094,-51.41130828857422,138.1244354248047
-31.80183982849121,-51.41130828857422,138.1244354248047
60.95573806762695,-45.70864105224609,143.8461456298828
-22.39675712585449,-45.70864105224609,143.8461456298828
-28.16304206848145,32.47767639160156,172.35400390625
66.72202301025391,32.47767639160156,172.35400390625
67.02328491210938,13.35234832763672,169.528076171875
-28.46430206298828,13.35234832763672,169.528076171875
67.28932952880859,-4.034412860870361,164.7485656738281
-28.73034477233887,-4.034412860870361,164.7485656738281
59.042724609375,13.33028030395508,169.9882659912109
-20.48374557495117,13.33028030395508,169.9882659912109
67.64775848388672,-174.3410339355469,109.3982238769531
-29.08877754211426,-174.3410339355469,109.3982238769531
59.65876007080078,-175.0052337646484,109.4546661376953
-21.09977912902832,-175.0052337646484,109.4546661376953
68.13020324707031,-163.0264434814453,112.0997009277344
-29.57121849060059,-163.0264434814453,112.0997009277344
67.86859893798828,-169.2317352294922,110.7532272338867
-29.30961418151856,-169.2317352294922,110.7532272338867
60.06329727172852,-163.6519317626953,112.1742782592773
-21.50431442260742,-163.6519317626953,112.1742782592773
69.10137176513672,-137.2863464355469,117.4601745605469
-30.54238700866699,-137.2863464355469,117.4601745605469
60.87763977050781,-137.8237762451172,117.5707473754883
-22.31865692138672,-137.8237762451172,117.5707473754883
-30.31409645080566,-143.6589508056641,116.4023895263672
68.87307739257813,-143.6589508056641,116.4023895263672
68.64305877685547,-149.9791412353516,115.0066375732422
-30.08408164978027,-149.9791412353516,115.0066375732422
68.39940643310547,-156.3879699707031,113.4975357055664
-29.84042739868164,-156.3879699707031,113.4975357055664
60.49333953857422,-150.5599975585938,115.1007385253906
-21.93435859680176,-150.5599975585938,115.1007385253906
-32.37849807739258,-62.78836822509766,128.8071136474609
70.93747711181641,-62.78836822509766,128.8071136474609
70.87118530273438,-72.25900268554688,125.7135620117188
-32.31220626831055,-72.25900268554688,125.7135620117188
62.36166381835938,-72.57395935058594,125.8795547485352
-23.80268287658691,-72.57395935058594,125.8795547485352
70.65042877197266,-83.11793518066406,124.4446105957031
-32.09144592285156,-83.11793518066406,124.4446105957031
70.48610687255859,-90.60955810546875,123.5105895996094
-31.92712593078613,-90.60955810546875,123.5105895996094
62.03876876831055,-90.98729705810547,123.6617889404297
-23.47978782653809,-90.98729705810547,123.6617889404297
70.34256744384766,-96.52880859375,122.7249145507813
-31.7835865020752,-96.52880859375,122.7249145507813
70.18415832519531,-102.6706085205078,121.9010162353516
-31.62517547607422,-102.6706085205078,121.9010162353516
61.78557586669922,-103.0896148681641,122.0414123535156
-23.22659492492676,-103.0896148681641,122.0414123535156
70.01704406738281,-108.7892150878906,121.0866088867188
-31.45806503295898,-108.7892150878906,121.0866088867188
69.847412109375,-114.6388549804688,120.3294067382813
-31.28843307495117,-114.6388549804688,120.3294067382813
61.50321197509766,-115.0988006591797,120.4592437744141
-22.9442310333252,-115.0988006591797,120.4592437744141
69.67578125,-120.2419204711914,119.6264724731445
-31.11679840087891,-120.2419204711914,119.6264724731445
69.50266265869141,-125.6207885742188,118.9748840332031
-30.94367790222168,-125.6207885742188,118.9748840332031
69.31540679931641,-131.1705627441406,118.2832489013672
-30.75642395019531,-131.1705627441406,118.2832489013672
61.21413040161133,-126.1183090209961,119.0956268310547
-22.65514755249023,-126.1183090209961,119.0956268310547
-28.87059593200684,-179.2032318115234,107.7204208374023
67.42958068847656,-179.2032318115234,107.7204208374023
67.17594146728516,-184.6672058105469,105.4055557250977
-28.61696434020996,-184.6672058105469,105.4055557250977
67.38740539550781,-189.5424041748047,102.4584884643555
-28.82842254638672,-189.5424041748047,102.4584884643555
59.26313400268555,-185.3667297363281,105.435188293457
-20.70415306091309,-185.3667297363281,105.435188293457
85.28033447265625,242.9833984375,134.6550445556641
-46.72135162353516,242.9833984375,134.6550445556641
83.4991455078125,235.3375854492188,141.4550170898438
-44.94016265869141,235.3375854492188,141.4550170898438
73.03963470458984,236.0041198730469,141.6570129394531
-34.48065185546875,236.0041198730469,141.6570129394531
82.58327484130859,223.31494140625,150.0578002929688
-44.02429580688477,223.31494140625,150.0578002929688
82.54922485351563,209.205322265625,159.3959808349609
-43.9902458190918,209.205322265625,159.3959808349609
73.24105834960938,209.205322265625,159.6786346435547
-34.68207550048828,209.205322265625,159.6786346435547
82.88018035888672,196.4685974121094,167.0889892578125
-44.32120132446289,196.4685974121094,167.0889892578125
83.05933380126953,188.5646820068359,170.7562713623047
-44.50035095214844,188.5646820068359,170.7562713623047
73.70457458496094,188.5646820068359,171.0939178466797
-35.14559555053711,188.5646820068359,171.0939178466797
83.21622467041016,182.9699554443359,172.0781097412109
-44.65724563598633,182.9699554443359,172.0781097412109
83.48042297363281,177.1608428955078,172.7348022460938
-44.92144012451172,177.1608428955078,172.7348022460938
74.05187225341797,177.1608428955078,173.0820159912109
-35.49289321899414,177.1608428955078,173.0820159912109
83.64937591552734,171.3540496826172,173.0126037597656
-45.09038925170898,171.3540496826172,173.0126037597656
83.52053833007813,165.7663269042969,173.1977996826172
-44.96155548095703,165.7663269042969,173.1977996826172
74.04215240478516,165.7663269042969,173.5472564697266
-35.48317337036133,165.7663269042969,173.5472564697266
83.36079406738281,160.5612335205078,173.3598175048828
-44.80181121826172,160.5612335205078,173.3598175048828
83.43700408935547,155.9023895263672,173.5680999755859
-44.87802505493164,155.9023895263672,173.5680999755859
73.93045043945313,155.9023895263672,173.9193572998047
-35.3714714050293,155.9023895263672,173.9193572998047
83.64974975585938,151.2427368164063,173.7416687011719
-45.09076690673828,151.2427368164063,173.7416687011719
83.89957427978516,146.0352478027344,173.7995300292969
-45.34059524536133,146.0352478027344,173.7995300292969
74.31195831298828,146.0352478027344,174.1519012451172
-35.75297927856445,146.0352478027344,174.1519012451172
83.91635131835938,139.3157196044922,173.7870941162109
-45.35736846923828,139.3157196044922,173.7870941162109
83.42992401123047,130.1199645996094,173.7498016357422
-44.87094116210938,130.1199645996094,173.7498016357422
73.83746337890625,130.1199645996094,174.1019287109375
-35.27848052978516,130.1199645996094,174.1019287109375
83.23101806640625,115.2680816650391,173.5628662109375
-44.67203521728516,115.2680816650391,173.5628662109375
83.57123565673828,95.99818420410156,173.2387237548828
-45.01225662231445,95.99818420410156,173.2387237548828
-45.43456268310547,77.64665222167969,172.9200439453125
83.99354553222656,77.64665222167969,172.9200439453125
-35.33693695068359,95.99818420410156,173.58837890625
73.89591979980469,95.99818420410156,173.58837890625
-54.49980545043945,95.34627532958984,172.4885864257813
93.05878448486328,95.34627532958984,172.4885864257813
87.07360076904297,-36.29707717895508,149.3202056884766
-48.51461791992188,-36.29707717895508,149.3202056884766
89.07274627685547,-45.48527908325195,142.9511108398438
-50.51376342773438,-45.48527908325195,142.9511108398438
91.16664123535156,-51.41130828857422,137.593017578125
-52.60765838623047,-51.41130828857422,137.593017578125
78.02058410644531,-45.48527908325195,143.1541748046875
-39.46160125732422,-45.48527908325195,143.1541748046875
-61.74327087402344,-46.32859802246094,141.7266693115234
100.3022537231445,-46.32859802246094,141.7266693115234
85.00937652587891,32.47767639160156,171.3327178955078
-46.45039367675781,32.47767639160156,171.3327178955078
85.43765258789063,13.35234832763672,168.5472259521484
-46.87866973876953,13.35234832763672,168.5472259521484
85.81585693359375,-4.034412860870361,163.8361206054688
-47.25687789916992,-4.034412860870361,163.8361206054688
75.43525695800781,13.35234832763672,168.8741760253906
-36.87627410888672,13.35234832763672,168.8741760253906
-56.65534591674805,12.69440269470215,167.7624969482422
95.21433258056641,12.69440269470215,167.7624969482422
88.7447509765625,-171.0924682617188,109.2779312133789
-50.18576431274414,-171.0924682617188,109.2779312133789
76.41281127929688,-173.7996063232422,109.3180313110352
-37.85383224487305,-173.7996063232422,109.3180313110352
89.43058776855469,-161.4021606445313,111.9407501220703
-50.87160873413086,-161.4021606445313,111.9407501220703
89.05869293212891,-166.3892517089844,110.6135482788086
-50.49971008300781,-166.3892517089844,110.6135482788086
76.97846984863281,-162.7557373046875,111.9937286376953
-38.41948318481445,-162.7557373046875,111.9937286376953
90.81121063232422,-137.2863464355469,117.2245025634766
-52.25223159790039,-137.2863464355469,117.2245025634766
78.11714935302734,-137.2863464355469,117.3030548095703
-39.55816650390625,-137.2863464355469,117.3030548095703
90.48667144775391,-143.6589508056641,116.1818542480469
-51.92768859863281,-143.6589508056641,116.1818542480469
90.15968322753906,-149.9791412353516,114.8060836791992
-51.6006965637207,-149.9791412353516,114.8060836791992
89.81330108642578,-155.9819030761719,113.3185806274414
-51.25431823730469,-155.9819030761719,113.3185806274414
77.57978820800781,-149.9791412353516,114.872932434082
-39.02080917358398,-149.9791412353516,114.872932434082
93.11941528320313,-62.78836822509766,128.4090576171875
-54.5604362487793,-62.78836822509766,128.4090576171875
93.32720184326172,-72.25900268554688,125.3597717285156
-54.76821899414063,-72.25900268554688,125.3597717285156
80.19223022460938,-72.25900268554688,125.4777069091797
-41.63325119018555,-72.25900268554688,125.4777069091797
93.01336669921875,-83.11793518066406,124.1089859008789
-54.45438766479492,-83.11793518066406,124.1089859008789
92.77976989746094,-90.60955810546875,123.1883239746094
-54.22078704833984,-90.60955810546875,123.1883239746094
79.74073028564453,-90.60955810546875,123.2957458496094
-41.1817512512207,-90.60955810546875,123.2957458496094
92.57571411132813,-96.52880859375,122.4138946533203
-54.01673126220703,-96.52880859375,122.4138946533203
92.35050964355469,-102.6706085205078,121.6017913818359
-53.79153060913086,-102.6706085205078,121.6017913818359
79.38669586181641,-102.6706085205078,121.701530456543
-40.82771682739258,-102.6706085205078,121.701530456543
92.11294555664063,-108.7892150878906,120.7990341186523
-53.5539665222168,-108.7892150878906,120.7990341186523
91.87179565429688,-114.6388549804688,120.0526657104492
-53.31281661987305,-114.6388549804688,120.0526657104492
78.99187469482422,-114.6388549804688,120.1449127197266
-40.43289184570313,-114.6388549804688,120.1449127197266
91.62779998779297,-120.2419204711914,119.3597946166992
-53.06881713867188,-120.2419204711914,119.3597946166992
91.38169097900391,-125.6207885742188,118.7175369262695
-52.82270812988281,-125.6207885742188,118.7175369262695
91.11548614501953,-131.1705627441406,118.0357971191406
-52.5565071105957,-131.1705627441406,118.0357971191406
78.58765411376953,-125.6207885742188,118.8033142089844
-40.0286750793457,-125.6207885742188,118.8033142089844
88.43093109130859,-175.9570465087891,107.6235580444336
-49.87194442749023,-175.9570465087891,107.6235580444336
88.05940246582031,-181.4281768798828,105.340087890625
-49.50042343139648,-181.4281768798828,105.340087890625
88.36667633056641,-186.2968292236328,102.4377899169922
-49.80769729614258,-186.2968292236328,102.4377899169922
75.85718536376953,-184.1273651123047,105.3630676269531
-37.29820251464844,-184.1273651123047,105.3630676269531
103.2054748535156,230.5011596679688,135.9244995117188
-64.64649200439453,230.5011596679688,135.9244995117188
100.2185897827148,231.7406921386719,139.1597595214844
-61.65960693359375,231.7406921386719,139.1597595214844
94.15175628662109,233.8377532958984,140.8795166015625
-55.5927734375,233.8377532958984,140.8795166015625
98.66422271728516,239.2431640625,132.7989196777344
-60.1052360534668,239.2431640625,132.7989196777344
101.6012802124023,206.8432159423828,152.2122192382813
-63.04230117797852,206.8432159423828,152.2122192382813
97.656982421875,207.6678466796875,157.3109588623047
-59.09799957275391,207.6678466796875,157.3109588623047
91.74273681640625,208.8235473632813,158.8782501220703
-53.18375396728516,208.8235473632813,158.8782501220703
98.01447296142578,221.2606964111328,147.9683532714844
-59.45549011230469,221.2606964111328,147.9683532714844
102.7840347290039,185.4001617431641,161.4279632568359
-64.22505187988281,185.4001617431641,161.4279632568359
98.50636291503906,186.5076141357422,168.0023498535156
-59.94738006591797,186.5076141357422,168.0023498535156
92.37944030761719,188.0538940429688,170.0724487304688
-53.82046127319336,188.0538940429688,170.0724487304688
98.15223693847656,194.8031463623047,164.7886047363281
-59.59325408935547,194.8031463623047,164.7886047363281
103.563850402832,173.1704711914063,162.4038391113281
-65.00486755371094,173.1704711914063,162.4038391113281
99.17657470703125,174.5771026611328,169.4087371826172
-60.61758804321289,174.5771026611328,169.4087371826172
92.91107177734375,176.5192718505859,171.9089202880859
-54.35209274291992,176.5192718505859,171.9089202880859
98.81569671630859,180.5195159912109,168.8948364257813
-60.2567138671875,180.5195159912109,168.8948364257813
103.5638275146484,161.7614288330078,162.8180389404297
-65.00484466552734,161.7614288330078,162.8180389404297
99.20804595947266,163.1761627197266,169.8724212646484
-60.64906311035156,163.1761627197266,169.8724212646484
92.97030639648438,165.1231689453125,172.3720855712891
-54.41132354736328,165.1231689453125,172.3720855712891
99.37776184082031,168.7670745849609,169.6869659423828
-60.81878280639648,168.7670745849609,169.6869659423828
103.4107284545898,151.8848114013672,163.1493072509766
-64.85174560546875,151.8848114013672,163.1493072509766
99.08843994140625,153.306640625,170.2432861328125
-60.52946090698242,153.306640625,170.2432861328125
92.88477325439453,155.2578430175781,172.7425231933594
-54.3257942199707,155.2578430175781,172.7425231933594
99.00055694580078,157.9680938720703,170.0346832275391
-60.44157409667969,157.9680938720703,170.0346832275391
103.9710006713867,142.0048522949219,163.3563385009766
-65.41201782226563,142.0048522949219,163.3563385009766
99.64732360839844,143.4338836669922,170.4750518798828
-61.08834457397461,143.4338836669922,170.4750518798828
93.42474365234375,145.3892974853516,172.9740447998047
-54.86576080322266,145.3892974853516,172.9740447998047
99.345947265625,148.6443786621094,170.4171142578125
-60.78696823120117,148.6443786621094,170.4171142578125
103.2383346557617,126.0678329467773,163.4848022460938
-64.67935180664063,126.0678329467773,163.4848022460938
99.01091003417969,127.5087966918945,170.5505065917969
-60.45193099975586,127.5087966918945,170.5505065917969
92.89321136474609,129.4715881347656,172.9553985595703
-54.334228515625,129.4715881347656,172.9553985595703
99.64987945556641,136.7102966308594,170.4939270019531
-61.09089279174805,136.7102966308594,170.4939270019531
98.71846771240234,112.6499786376953,170.4647369384766
-60.15948867797852,112.6499786376953,170.4647369384766
104.2300262451172,51.07674789428711,162.8411407470703
-65.67105102539063,51.07674789428711,162.8411407470703
100.1529235839844,52.55134201049805,169.6556701660156
-61.59394454956055,52.55134201049805,169.6556701660156
94.12783050537109,54.53565216064453,171.8219299316406
-55.56884765625,54.53565216064453,171.8219299316406
-61.01588821411133,75.01472473144531,169.9622955322266
99.57486724853516,75.01472473144531,169.9622955322266
100.7416152954102,29.83114624023438,168.42236328125
-62.18263244628906,29.83114624023438,168.42236328125
112.0730133056641,-59.22170257568359,128.6200866699219
-73.51403045654297,-59.22170257568359,128.6200866699219
105.1327590942383,-57.0928955078125,131.9814147949219
-66.57378387451172,-57.0928955078125,131.9814147949219
110.1433181762695,-54.29598236083984,133.1021728515625
-71.58434295654297,-54.29598236083984,133.1021728515625
106.0407791137695,-24.85338020324707,148.5966949462891
-67.48179626464844,-24.85338020324707,148.5966949462891
102.3711547851563,-22.75555992126465,153.6434631347656
-63.81216812133789,-22.75555992126465,153.6434631347656
96.13059997558594,-21.83594703674316,156.0571746826172
-57.57161712646484,-21.83594703674316,156.0571746826172
101.7720260620117,-6.328264236450195,160.4827575683594
-63.21304321289063,-6.328264236450195,160.4827575683594
102.5869903564453,-41.73912811279297,144.7528839111328
-64.02801513671875,-41.73912811279297,144.7528839111328
107.7418518066406,-168.3775634765625,105.4662322998047
-69.18286895751953,-168.3775634765625,105.4662322998047
101.4835357666016,-167.9597778320313,108.3314590454102
-62.92455291748047,-167.9597778320313,108.3314590454102
108.6241607666016,-161.1489868164063,108.1312942504883
-70.06517791748047,-161.1489868164063,108.1312942504883
102.2974548339844,-160.1100158691406,110.9948348999023
-63.73847579956055,-160.1100158691406,110.9948348999023
108.110710144043,-163.8178863525391,106.8071441650391
-69.55172729492188,-163.8178863525391,106.8071441650391
110.4023132324219,-139.4967956542969,113.4199829101563
-71.84333038330078,-139.4967956542969,113.4199829101563
103.936408996582,-137.8352203369141,116.2798080444336
-65.37743377685547,-137.8352203369141,116.2798080444336
109.5634536743164,-152.1875152587891,110.9992446899414
-71.00447082519531,-152.1875152587891,110.9992446899414
103.1630401611328,-150.5274963378906,113.8608169555664
-64.60405731201172,-150.5274963378906,113.8608169555664
109.9860916137695,-145.8685455322266,112.3763275146484
-71.42710876464844,-145.8685455322266,112.3763275146484
109.1157073974609,-157.5741729736328,109.5103607177734
-70.55672454833984,-157.5741729736328,109.5103607177734
113.7985000610352,-75.03031158447266,121.3133926391602
-75.23951721191406,-75.03031158447266,121.3133926391602
106.9618530273438,-72.94713592529297,124.3550262451172
-68.40287017822266,-72.94713592529297,124.3550262451172
113.4476165771484,-65.40121459960938,124.1734390258789
-74.88863372802734,-65.40121459960938,124.1734390258789
112.9306030273438,-92.82218170166016,119.3901062011719
-74.37162017822266,-92.82218170166016,119.3901062011719
106.2715530395508,-91.15896606445313,122.2452011108398
-67.71257781982422,-91.15896606445313,122.2452011108398
113.2732620239258,-85.47022247314453,120.2491455078125
-74.71428680419922,-85.47022247314453,120.2491455078125
112.3746032714844,-104.8830947875977,117.8018264770508
-73.81562042236328,-104.8830947875977,117.8018264770508
105.7611999511719,-103.2199859619141,120.6582336425781
-67.20221710205078,-103.2199859619141,120.6582336425781
112.6659164428711,-98.74140167236328,118.6148223876953
-74.10693359375,-98.74140167236328,118.6148223876953
111.7581787109375,-116.8509216308594,116.2510452270508
-73.19919586181641,-116.8509216308594,116.2510452270508
105.1929397583008,-115.1881256103516,119.1086959838867
-66.63395690917969,-115.1881256103516,119.1086959838867
112.0681838989258,-111.0015182495117,116.9982070922852
-73.50920104980469,-111.0015182495117,116.9982070922852
111.1308517456055,-127.8322525024414,114.9145202636719
-72.57186889648438,-127.8322525024414,114.9145202636719
104.6120986938477,-126.1699066162109,117.7732162475586
-66.05311584472656,-126.1699066162109,117.7732162475586
111.4454498291016,-122.4537048339844,115.5574493408203
-72.88646697998047,-122.4537048339844,115.5574493408203
110.7909545898438,-133.3816070556641,114.2320938110352
-72.23197174072266,-133.3816070556641,114.2320938110352
106.8740539550781,-178.7258605957031,101.5167007446289
-68.31507110595703,-178.7258605957031,101.5167007446289
100.6821060180664,-178.3003082275391,104.3889541625977
-62.12312698364258,-178.3003082275391,104.3889541625977
107.3404693603516,-173.2444763183594,103.8083953857422
-68.78148651123047,-173.2444763183594,103.8083953857422
102.3907928466797,-184.2813720703125,99.56561279296875
-63.83180618286133,-184.2813720703125,99.56561279296875
107.3134765625,230.8467559814453,124.8514862060547
-68.75449371337891,230.8467559814453,124.8514862060547
106.7243804931641,230.6540985107422,128.23583984375
-68.16539764404297,230.6540985107422,128.23583984375
-64.48595428466797,238.4965972900391,122.8649215698242
103.0449371337891,238.4965972900391,122.8649215698242
109.4210052490234,206.8753662109375,130.4062805175781
-70.86202239990234,206.8753662109375,130.4062805175781
107.6954345703125,206.8113861083984,137.1536560058594
-69.13645172119141,206.8113861083984,137.1536560058594
108.0223083496094,220.4085540771484,127.5735321044922
-69.46332550048828,220.4085540771484,127.5735321044922
111.6504058837891,185.4204406738281,133.505126953125
-73.09142303466797,185.4204406738281,133.505126953125
109.6188659667969,185.3419647216797,142.1423034667969
-71.05988311767578,185.3419647216797,142.1423034667969
110.8501663208008,193.9712829589844,132.6250305175781
-72.29118347167969,193.9712829589844,132.6250305175781
112.5687866210938,173.1100921630859,133.8142242431641
-74.00980377197266,173.1100921630859,133.8142242431641
110.5049667358398,173.0383605957031,142.639892578125
-71.94598388671875,173.0383605957031,142.639892578125
112.1228866577148,179.1557464599609,133.6877899169922
-73.56390380859375,179.1557464599609,133.6877899169922
112.5478210449219,161.6756286621094,133.9546661376953
-73.98883819580078,161.6756286621094,133.9546661376953
110.4886474609375,161.6116333007813,142.8659820556641
-71.92967224121094,161.6116333007813,142.8659820556641
112.7798461914063,167.2834014892578,133.8984985351563
-74.22086334228516,167.2834014892578,133.8984985351563
112.361701965332,151.7765808105469,134.0669860839844
-73.80271911621094,151.7765808105469,134.0669860839844
110.309944152832,151.7194061279297,143.0467987060547
-71.75096130371094,151.7194061279297,143.0467987060547
112.2745056152344,156.4516906738281,134.0038146972656
-73.71553039550781,156.4516906738281,134.0038146972656
112.9525299072266,141.8737945556641,134.1371917724609
-74.39354705810547,141.8737945556641,134.1371917724609
110.8946304321289,141.8235626220703,143.1598205566406
-72.33564758300781,141.8235626220703,143.1598205566406
112.6431350708008,147.1005249023438,134.1196441650391
-74.08415222167969,147.1005249023438,134.1196441650391
112.0770111083984,125.9002990722656,134.1855010986328
-73.51802825927734,125.9002990722656,134.1855010986328
110.0539321899414,125.8611297607422,143.2375946044922
-71.49494934082031,125.8611297607422,143.2375946044922
112.8953475952148,135.12939453125,134.1492767333984
-74.33636474609375,135.12939453125,134.1492767333984
111.6283187866211,111.009033203125,134.1801452636719
-73.06934356689453,111.009033203125,134.1801452636719
112.8866348266602,50.80945587158203,133.9793548583984
-74.32765197753906,50.80945587158203,133.9793548583984
110.9183349609375,50.80048751831055,142.9057312011719
-72.35935211181641,50.80048751831055,142.9057312011719
-73.80570220947266,73.30941009521484,134.0566864013672
112.3646774291992,73.30941009521484,134.0566864013672
113.2627487182617,26.40632057189941,133.4789886474609
-74.70376586914063,26.40632057189941,133.4789886474609
113.7238540649414,-36.33531188964844,128.6563873291016
-75.16487121582031,-36.33531188964844,128.6563873291016
112.0510559082031,-32.32870101928711,134.9422454833984
-73.49207305908203,-32.32870101928711,134.9422454833984
113.2799911499023,-19.32544136047363,130.3981475830078
-74.72100830078125,-19.32544136047363,130.3981475830078
113.9952392578125,-52.39801788330078,127.2011947631836
-75.43626403808594,-52.39801788330078,127.2011947631836
111.4118347167969,-166.2373809814453,102.2781982421875
-72.85285186767578,-166.2373809814453,102.2781982421875
110.8304290771484,-163.5337677001953,104.7460556030273
-72.27144622802734,-163.5337677001953,104.7460556030273
110.1495895385742,-168.9535980224609,102.7461242675781
-71.59060668945313,-168.9535980224609,102.7461242675781
113.5536651611328,-141.7312164306641,105.7667617797852
-74.99468231201172,-141.7312164306641,105.7667617797852
112.7389984130859,-141.1706390380859,109.5872039794922
-74.18001556396484,-141.1706390380859,109.5872039794922
112.6081161499023,-155.0015563964844,104.1320953369141
-74.04913330078125,-155.0015563964844,104.1320953369141
111.8549652099609,-154.0052032470703,107.3618087768555
-73.29598236083984,-154.0052032470703,107.3618087768555
113.0978927612305,-148.2472381591797,105.1386337280273
-74.53890991210938,-148.2472381591797,105.1386337280273
112.0556564331055,-161.2472686767578,103.0707473754883
-73.49667358398438,-161.2472686767578,103.0707473754883
107.9022216796875,230.9651031494141,112.3459777832031
-69.34323883056641,230.9651031494141,112.3459777832031
107.6119613647461,231.0244293212891,119.9924163818359
-69.052978515625,231.0244293212891,119.9924163818359
102.6249237060547,238.6313781738281,112.3160171508789
-64.06594085693359,238.6313781738281,112.3160171508789
111.8697204589844,206.9981842041016,112.3861923217773
-73.31073760986328,206.9981842041016,112.3861923217773
110.9580688476563,206.9482879638672,121.8707885742188
-72.39908599853516,206.9482879638672,121.8707885742188
109.7772674560547,220.5169982910156,112.3761367797852
-71.21828460693359,220.5169982910156,112.3761367797852
114.5903396606445,185.5640411376953,112.3861923217773
-76.03136444091797,185.5640411376953,112.3861923217773
113.5139694213867,185.5087280273438,122.9037399291992
-74.95499420166016,185.5087280273438,122.9037399291992
113.6504516601563,194.1125640869141,112.3861923217773
-75.09147644042969,194.1125640869141,112.3861923217773
115.5560684204102,173.2408447265625,112.3861923217773
-76.99708557128906,173.2408447265625,112.3861923217773
114.4638519287109,173.190673828125,123.0067749023438
-75.90486907958984,173.190673828125,123.0067749023438
115.0915069580078,179.2932434082031,112.3861923217773
-76.53252410888672,179.2932434082031,112.3861923217773
115.525993347168,161.7921142578125,112.3861923217773
-76.96701049804688,161.7921142578125,112.3861923217773
114.4376068115234,161.7474975585938,123.0535888671875
-75.87862396240234,161.7474975585938,123.0535888671875
115.7716751098633,167.4070587158203,112.3861923217773
-77.21269226074219,167.4070587158203,112.3861923217773
115.3272399902344,151.8805389404297,112.3861923217773
-76.76826477050781,151.8805389404297,112.3861923217773
114.2438812255859,151.8407897949219,123.0910263061523
-75.68489837646484,151.8407897949219,123.0910263061523
115.2381362915039,156.5614624023438,112.3861923217773
-76.67915344238281,156.5614624023438,112.3861923217773
115.924446105957,141.9650726318359,112.3861923217773
-77.36546325683594,141.9650726318359,112.3861923217773
114.8389205932617,141.9301910400391,123.1144256591797
-76.27993774414063,141.9301910400391,123.1144256591797
115.6153335571289,147.1986541748047,112.3861923217773
-77.05635833740234,147.1986541748047,112.3861923217773
114.9938735961914,125.9714279174805,112.3861923217773
-76.43489074707031,125.9714279174805,112.3861923217773
113.9283905029297,125.9442596435547,123.1305313110352
-75.36940765380859,125.9442596435547,123.1305313110352
115.8516082763672,135.2119445800781,112.3861923217773
-77.29262542724609,135.2119445800781,112.3861923217773
114.5081253051758,111.0668029785156,112.3861923217773
-75.94914245605469,111.0668029785156,112.3861923217773
115.7058792114258,50.82574081420898,112.3861923217773
-77.14689636230469,50.82574081420898,112.3861923217773
114.6740341186523,50.81952285766602,123.0618133544922
-76.11505889892578,50.81952285766602,123.0618133544922
-76.64552307128906,73.34072113037109,112.3861923217773
115.2045059204102,73.34072113037109,112.3861923217773
115.9921951293945,25.6928768157959,112.2052841186523
-77.43321228027344,25.6928768157959,112.2052841186523
116.1282348632813,-43.66658401489258,110.9936676025391
-77.56925201416016,-43.66658401489258,110.9936676025391
115.2096328735352,-40.75803756713867,120.4961471557617
-76.65065002441406,-40.75803756713867,120.4961471557617
115.6133880615234,-24.74582290649414,111.1335220336914
-77.05440521240234,-24.74582290649414,111.1335220336914
117.055778503418,-77.14995574951172,110.2585067749023
-78.49680328369141,-77.14995574951172,110.2585067749023
116.1569442749023,-76.396728515625,116.7599411010742
-77.59796142578125,-76.396728515625,116.7599411010742
116.9251861572266,-61.58740615844727,110.9126052856445
-78.3662109375,-61.58740615844727,110.9126052856445
116.2845840454102,-95.06169891357422,108.754997253418
-77.72560119628906,-95.06169891357422,108.754997253418
115.3706893920898,-94.49838256835938,114.8150329589844
-76.81170654296875,-94.49838256835938,114.8150329589844
116.6174240112305,-87.67985534667969,109.3201904296875
-78.05844116210938,-87.67985534667969,109.3201904296875
115.6702651977539,-107.1219482421875,107.9599761962891
-77.11128997802734,-107.1219482421875,107.9599761962891
114.7862396240234,-106.5590667724609,113.424186706543
-76.22725677490234,-106.5590667724609,113.424186706543
115.9909744262695,-100.9806671142578,108.3669204711914
-77.43199157714844,-100.9806671142578,108.3669204711914
114.9998779296875,-119.0886459350586,107.1837463378906
-76.44089508056641,-119.0886459350586,107.1837463378906
114.1427001953125,-118.5263977050781,112.0662078857422
-75.58371734619141,-118.5263977050781,112.0662078857422
115.3355484008789,-113.2398452758789,107.557731628418
-76.77656555175781,-113.2398452758789,107.557731628418
114.3280792236328,-130.0686340332031,106.5147857666016
-75.76909637451172,-130.0686340332031,106.5147857666016
113.4922027587891,-129.507080078125,110.8958740234375
-74.93321990966797,-129.507080078125,110.8958740234375
114.6638488769531,-124.6907730102539,106.8365859985352
-76.10486602783203,-124.6907730102539,106.8365859985352
113.9666519165039,-135.6171417236328,106.173225402832
-75.40766906738281,-135.6171417236328,106.173225402832
109.6801071166992,-182.3782043457031,91.90003204345703
-71.12113189697266,-182.3782043457031,91.90003204345703
109.0457305908203,-180.7481384277344,97.18828582763672
-70.48674774169922,-180.7481384277344,97.18828582763672
104.9534683227539,-188.9947052001953,90.92793273925781
-66.39449310302734,-188.9947052001953,90.92793273925781
111.1808013916016,-169.1004180908203,93.20044708251953
-72.621826171875,-169.1004180908203,93.20044708251953
111.2385635375977,-168.3846588134766,99.00417327880859
-72.67958068847656,-168.3846588134766,99.00417327880859
110.3828811645508,-175.4485473632813,92.87759399414063
-71.82389831542969,-175.4485473632813,92.87759399414063
113.6084671020508,-141.7352752685547,94.04217529296875
-75.04948425292969,-141.7352752685547,94.04217529296875
113.5941925048828,-141.7342224121094,100.9284744262695
-75.03520965576172,-141.7342224121094,100.9284744262695
112.5926513671875,-155.5873107910156,93.61905670166016
-74.03367614746094,-155.5873107910156,93.61905670166016
112.5962295532227,-155.4408569335938,99.99091339111328
-74.03724670410156,-155.4408569335938,99.99091339111328
113.1297836303711,-148.3964233398438,93.93639373779297
-74.57080078125,-148.3964233398438,93.93639373779297
111.9565124511719,-162.6934814453125,93.30284881591797
-73.39753723144531,-162.6934814453125,93.30284881591797
108.1853256225586,230.9425354003906,94.00185394287109
-69.6263427734375,230.9425354003906,94.00185394287109
108.114013671875,230.8112945556641,102.5430374145508
-69.55503082275391,230.8112945556641,102.5430374145508
102.8936462402344,238.5695037841797,93.97181701660156
-64.33466339111328,238.5695037841797,93.97181701660156
112.1571044921875,207.0252075195313,94.04217529296875
-73.59812927246094,207.0252075195313,94.04217529296875
112.0846786499023,207.0184020996094,102.5833282470703
-73.52570343017578,207.0184020996094,102.5833282470703
110.0621566772461,220.5332183837891,94.03209686279297
-71.50318145751953,220.5332183837891,94.03209686279297
114.8806838989258,185.5864868164063,94.04217529296875
-76.32170104980469,185.5864868164063,94.04217529296875
114.8075103759766,185.5808258056641,102.5833282470703
-76.24853515625,185.5808258056641,102.5833282470703
113.9400024414063,194.1368408203125,94.04217529296875
-75.38101959228516,194.1368408203125,94.04217529296875
115.8466033935547,173.2606658935547,94.04217529296875
-77.28762054443359,173.2606658935547,94.04217529296875
115.7733840942383,173.2556762695313,102.5833282470703
-77.21440124511719,173.2556762695313,102.5833282470703
115.381950378418,179.3143615722656,94.04217529296875
-76.82296752929688,179.3143615722656,94.04217529296875
115.8141326904297,161.8095245361328,94.04217529296875
-77.25514984130859,161.8095245361328,94.04217529296875
115.7415161132813,161.8051452636719,102.5833282470703
-77.18253326416016,161.8051452636719,102.5833282470703
116.0616607666016,167.4256439208984,94.04217529296875
-77.50267791748047,167.4256439208984,94.04217529296875
115.6129455566406,151.8959197998047,94.04217529296875
-77.05396270751953,151.8959197998047,94.04217529296875
115.5409469604492,151.8920440673828,102.5833282470703
-76.98196411132813,151.8920440673828,102.5833282470703
115.5244216918945,156.5777893066406,94.04217529296875
-76.96544647216797,156.5777893066406,94.04217529296875
116.2102508544922,141.9784698486328,94.04217529296875
-77.65126800537109,141.9784698486328,94.04217529296875
116.1382217407227,141.97509765625,102.5833282470703
-77.57923889160156,141.97509765625,102.5833282470703
115.9010925292969,147.2130889892578,94.04217529296875
-77.34210968017578,147.2130889892578,94.04217529296875
115.2745895385742,125.9818267822266,94.04217529296875
-76.71561431884766,125.9818267822266,94.04217529296875
115.2038497924805,125.9792098999023,102.5833282470703
-76.64486694335938,125.9792098999023,102.5833282470703
116.1361694335938,135.2240600585938,94.04217529296875
-77.57718658447266,135.2240600585938,94.04217529296875
114.786003112793,111.0752258300781,94.04217529296875
-76.22702789306641,111.0752258300781,94.04217529296875
115.9832763671875,50.82810974121094,94.04217529296875
-77.42429351806641,50.82810974121094,94.04217529296875
115.9133682250977,50.8275146484375,102.5833282470703
-77.35438537597656,50.8275146484375,102.5833282470703
-76.92288208007813,73.34528350830078,94.04217529296875
115.4818649291992,73.34528350830078,94.04217529296875
116.2683334350586,25.69293785095215,93.82280731201172
-77.7093505859375,25.69293785095215,93.82280731201172
116.337776184082,-42.74649810791016,92.94535827636719
-77.77879333496094,-42.74649810791016,92.94535827636719
116.2848281860352,-42.97650527954102,101.483024597168
-77.72584533691406,-42.97650527954102,101.483024597168
115.8674392700195,-24.51846885681152,92.67115783691406
-77.30845642089844,-24.51846885681152,92.67115783691406
117.285774230957,-76.71707916259766,94.04217529296875
-78.72679138183594,-76.71707916259766,94.04217529296875
117.2276992797852,-76.82527923583984,102.0514068603516
-78.66871643066406,-76.82527923583984,102.0514068603516
117.1543502807617,-61.21224975585938,93.67656707763672
-78.59536743164063,-61.21224975585938,93.67656707763672
116.4365386962891,-95.06861877441406,94.04217529296875
-77.87755584716797,-95.06861877441406,94.04217529296875
116.3979797363281,-95.06686401367188,101.6755294799805
-77.83899688720703,-95.06686401367188,101.6755294799805
116.7966003417969,-87.57691955566406,94.04217529296875
-78.23761749267578,-87.57691955566406,94.04217529296875
115.7916412353516,-107.1283569335938,94.04217529296875
-77.23265838623047,-107.1283569335938,94.04217529296875
115.7607192993164,-107.1267242431641,101.4767761230469
-77.20174407958984,-107.1267242431641,101.4767761230469
116.1275634765625,-100.9873733520508,94.04217529296875
-77.56858062744141,-100.9873733520508,94.04217529296875
115.0945281982422,-119.094352722168,94.04217529296875
-76.53555297851563,-119.094352722168,94.04217529296875
115.0702896118164,-119.092887878418,101.2827224731445
-76.51130676269531,-119.092887878418,101.2827224731445
115.4426651000977,-113.2459030151367,94.04217529296875
-76.88368225097656,-113.2459030151367,94.04217529296875
114.4023742675781,-130.0736236572266,94.04217529296875
-75.84339141845703,-130.0736236572266,94.04217529296875
114.3832244873047,-130.0723419189453,101.115478515625
-75.82424163818359,-130.0723419189453,101.115478515625
114.7476348876953,-124.6961135864258,94.04217529296875
-76.18865203857422,-124.6961135864258,94.04217529296875
114.0316772460938,-135.6217193603516,94.04217529296875
-75.47269439697266,-135.6217193603516,94.04217529296875
109.5458450317383,-183.8121948242188,86.13186645507813
-70.98686218261719,-183.8121948242188,86.13186645507813
109.5794143676758,-183.4536895751953,87.57391357421875
-71.02043151855469,-183.4536895751953,87.57391357421875
104.731819152832,-191.4969329833984,86.13186645507813
-66.17283630371094,-191.4969329833984,86.13186645507813
111.1808013916016,-169.1004180908203,86.13186645507813
-72.621826171875,-169.1004180908203,86.13186645507813
111.1808013916016,-169.1004180908203,87.89901733398438
-72.621826171875,-169.1004180908203,87.89901733398438
110.3493194580078,-175.8070373535156,86.13186645507813
-71.79033660888672,-175.8070373535156,86.13186645507813
113.609619140625,-141.7353515625,86.13186645507813
-75.05063629150391,-141.7353515625,86.13186645507813
113.6093292236328,-141.7353363037109,88.10944366455078
-75.05034637451172,-141.7353363037109,88.10944366455078
112.5932312011719,-155.5873565673828,86.13186645507813
-74.03424835205078,-155.5873565673828,86.13186645507813
112.5930862426758,-155.5873565673828,88.00366973876953
-74.03410339355469,-155.5873565673828,88.00366973876953
113.1307907104492,-148.3964996337891,86.13186645507813
-74.57180786132813,-148.3964996337891,86.13186645507813
111.956657409668,-162.6934967041016,86.13186645507813
-73.39767456054688,-162.6934967041016,86.13186645507813
108.1864013671875,231.2162933349609,86.09154510498047
-69.62741851806641,231.2162933349609,86.09154510498047
108.1861343383789,231.1478576660156,88.06912231445313
-69.62715148925781,231.1478576660156,88.06912231445313
102.8946228027344,239.0471038818359,86.06150817871094
-64.33563995361328,239.0471038818359,86.06150817871094
112.1582641601563,207.0253143310547,86.13186645507813
-73.59928131103516,207.0253143310547,86.13186645507813
112.1579742431641,207.0252838134766,88.10944366455078
-73.59899139404297,207.0252838134766,88.10944366455078
110.0632934570313,220.6017456054688,86.12178802490234
-71.50431060791016,220.6017456054688,86.12178802490234
114.8818511962891,185.5865783691406,86.13186645507813
-76.32286834716797,185.5865783691406,86.13186645507813
114.8815612792969,185.5865631103516,88.10944366455078
-76.32257843017578,185.5865631103516,88.10944366455078
113.9411697387695,194.1369476318359,86.13186645507813
-75.38218688964844,194.1369476318359,86.13186645507813
115.847770690918,173.2607421875,86.13186645507813
-77.28879547119141,173.2607421875,86.13186645507813
115.8474807739258,173.2607269287109,88.10944366455078
-77.28849792480469,173.2607269287109,88.10944366455078
115.3831176757813,179.3144378662109,86.13186645507813
-76.82413482666016,179.3144378662109,86.13186645507813
115.8152923583984,161.8096008300781,86.13186645507813
-77.25630950927734,161.8096008300781,86.13186645507813
115.8150024414063,161.8095855712891,88.10944366455078
-77.25601959228516,161.8095855712891,88.10944366455078
116.0628280639648,167.4257202148438,86.13186645507813
-77.50384521484375,167.4257202148438,86.13186645507813
115.6140975952148,151.8959808349609,86.13186645507813
-77.05511474609375,151.8959808349609,86.13186645507813
115.6138076782227,151.8959655761719,88.10944366455078
-77.05482482910156,151.8959655761719,88.10944366455078
115.5255813598633,156.5778503417969,86.13186645507813
-76.96659851074219,156.5778503417969,86.13186645507813
116.2113952636719,141.978515625,86.13186645507813
-77.65242004394531,141.978515625,86.13186645507813
116.2111129760742,141.978515625,88.10944366455078
-77.65213012695313,141.978515625,88.10944366455078
115.9022369384766,147.213134765625,86.13186645507813
-77.34326171875,147.213134765625,86.13186645507813
115.2757263183594,125.9818725585938,86.13186645507813
-76.71674346923828,125.9818725585938,86.13186645507813
115.2754440307617,125.9818572998047,88.10944366455078
-76.71646118164063,125.9818572998047,88.10944366455078
116.1373138427734,135.2241058349609,86.13186645507813
-77.57833099365234,135.2241058349609,86.13186645507813
114.7871246337891,111.0752639770508,86.13186645507813
-76.22814178466797,111.0752639770508,86.13186645507813
115.9843902587891,50.82812118530273,86.13186645507813
-77.42540740966797,50.82812118530273,86.13186645507813
115.9841079711914,50.82811737060547,88.10944366455078
-77.42513275146484,50.82811737060547,88.10944366455078
-76.92400360107422,73.34529876708984,86.13186645507813
