3.090199825490011,-1.015029951222469,1.041965755793793
3.14244368590582,-0.9444221095854655,1.078764382543597
3.250469606980094,-0.9344544301984119,1.07874000549652
2.551864249606685,-1.0838069207726,1.001103996265744
2.571621541327131,-1.127053748204163,0.9632554389724382
2.511927507163419,-1.124583714121268,0.964392629775829
2.874554153244542,-1.127053748204163,0.963255438972438
2.894311444964988,-1.0838069207726,1.001103996265744
2.962091399708949,-1.081404228518438,1.001893847731798
2.584882790703714,-1.146356661784042,0.9040910139987735
2.583039117017086,-1.143731818311013,0.8774561709796196
2.531135828540863,-1.141233691445103,0.8793807487541493
2.863136577554588,-1.143731818311014,0.8774561709796196
2.86129290386796,-1.146356661784041,0.9040910139987735
2.912725327029494,-1.143854129701984,0.905771161618333
2.539292385463408,-1.076759097109553,0.7013681894690383
2.539860195446522,-1.070483366222546,0.6769032749305128
2.471954419706995,-1.068104733112213,0.6806683432018633
2.909336723919971,-1.069283458285328,0.6339130129848491
2.905657522572315,-1.071030161000051,0.6540054388715275
2.973319446427003,-1.068650756181212,0.6579806424762006
2.58202257913706,-1.147482995133521,0.9373741737868891
2.584741199546458,-1.149271093250866,0.9218980848598308
2.532406636126372,-1.146764447941053,0.9234148155188702
2.861434495025216,-1.149271093250866,0.9218980848598306
2.864153115434613,-1.147482995133521,0.9373741737868891
2.918844330823998,-1.144979924461581,0.9387488790992048
2.571295664244195,-1.134945010421373,0.8503822467214848
2.551651365852974,-1.11953574759931,0.8289902509917289
2.488115501342934,-1.117082980487302,0.8313596045182725
2.8945243287187,-1.11953574759931,0.8289902509917289
2.874880030327478,-1.134945010421373,0.8503822467214848
2.931135545459441,-1.132463488808261,0.8525552841357944
2.539985421719146,-1.106836062099006,0.8068446311067489
2.538246851025518,-1.099491024134663,0.7830035044339848
2.46974315568518,-1.097071451614717,0.785794882133141
2.907331697692275,-1.085084131750058,0.7286743398053469
2.907666540487947,-1.09282560813048,0.7573151887156211
2.976073024012995,-1.090415442719397,0.7603423102105031
2.259594477734253,-1.049416620308132,1.002614211936837
2.315652033276802,-1.091613087107066,0.9653928078519352
2.258804450339482,-1.06563839463697,0.9706072329000416
3.130523661294871,-1.091613087107066,0.9653928078519349
3.18658121683742,-1.049416620308132,1.002614211936837
3.237189193949817,-1.028673242390084,1.005173180434024
2.382643913875204,-1.110561756814804,0.9069534645499575
2.380316436671454,-1.107999923240603,0.8807350547201707
2.308157832666842,-1.081932555390263,0.8841566529869797
3.065859257900219,-1.107999923240603,0.8807350547201707
3.06353178069647,-1.110561756814804,0.9069534645499575
3.134311658062736,-1.084350926388439,0.9105851508855307
2.273245641701393,-1.042609690182881,0.7074001917354674
2.27471978004016,-1.036488994841466,0.6832971883709684
2.194563432921737,-1.014801624658547,0.6840463477409884
3.178312996537783,-1.035504031396348,0.6409014790754916
3.169507847987075,-1.037138142502394,0.6606749761843211
3.249331097447788,-1.015460770357556,0.6608536990522265
2.353004963344699,-1.111658268368372,0.9397562350361328
2.373557597912784,-1.11341735483143,0.924482123583823
2.30689434142587,-1.087048029128101,0.9286043941338378
3.072618096658889,-1.11341735483143,0.924482123583823
3.093170731226975,-1.111658268368372,0.9397562350361328
3.153732982144539,-1.085218860641502,0.9445961889339611
2.351574156290029,-1.099450628168445,0.8540844286440263
2.30349443534456,-1.084452654632682,0.8330268946943715
2.225143091784648,-1.059855624713697,0.834796542614224
3.142681259227113,-1.084452654632683,0.8330268946943715
3.094601538281645,-1.099450628168445,0.8540844286440262
3.169070070598097,-1.073911426791054,0.8568946924823766
2.27494185854342,-1.072069470971454,0.8112275194301226
2.270686680163977,-1.064882729184139,0.7877591464623963
2.189772043210718,-1.041498561581395,0.7888110283109522
3.174027490791706,-1.050766667857039,0.7342794130575644
3.174847023658488,-1.058351867526132,0.7624724650707774
3.255644460870993,-1.035364004953877,0.7635349150728827
2.429622822256084,1.25035848727296,0.5937058398876023
2.427245050128261,1.284070475425162,0.5938849932226267
2.317933036589513,1.283126053482353,0.598411927124205
3.018930644443412,1.284070475425162,0.5938849932226268
3.016552872315589,1.250358487272961,0.5937058398876024
3.125313585979837,1.24946164410734,0.5982344178941391
2.41483386326904,1.331117748347676,0.5941530932313187
2.384514688490579,1.39680915912155,0.594523555631146
2.266272531563542,1.395660791688259,0.5989647605380946
3.061661006081094,1.39680915912155,0.5945235556311461
3.031341831302633,1.331117748347676,0.5941530932313187
3.143273999551976,1.330106927125613,0.598677566756965
2.437112325461812,-0.6637112481672042,0.6018636389629197
2.395113508095454,-0.6132240126186641,0.6006202954104014
2.282638246404333,-0.6105169791177942,0.6045741405553193
3.051062186476219,-0.6132240126186641,0.6006202954104014
3.009063369109861,-0.6637112481672043,0.6018636389629197
3.111401763005709,-0.6614917571553683,0.6061464381338837
2.333505021217809,1.99908482550649,0.5996039671840554
2.350591365002134,2.019355448156072,0.6007981034650919
2.224889825493316,2.017373295667023,0.604469212978945
3.09558432956954,2.019355448156072,0.6007981034650919
3.112670673353865,1.99908482550649,0.5996039671840554
3.242309036248315,1.997448614302362,0.602063358547601
2.327152685072803,1.957443177915278,0.5947722175933848
2.327078757643811,1.98240195147444,0.5973642652813325
2.196153084763893,1.982058616228597,0.5981230320392741
3.119096936927862,1.98240195147444,0.5973642652813326
3.119023009498871,1.957443177915278,0.5947722175933848
3.249681594682612,1.958721731386918,0.5935919310685569
2.330764757016423,1.868163656812768,0.5945494350897216
2.329034875100253,1.918461487470183,0.5940346275139838
2.199013636377316,1.919795057013713,0.5910800166627035
3.117140819471421,1.918461487470184,0.5940346275139838
3.11541093755525,1.868163656812768,0.5945494350897216
3.244886771564728,1.867981549624505,0.5902277899891613
2.335929548619113,1.770835835728313,0.5891167295290729
2.333113117806359,1.817710256649078,0.5929057170200112
2.204350484656072,1.816330025013953,0.5877062923555707
3.113062576765314,1.817710256649078,0.5929057170200111
3.110246145952561,1.770835835728313,0.5891167295290729
3.238183225070263,1.769204426696179,0.5835298170700052
2.339804221946837,1.675064500011651,0.5865996683741297
2.338142444767743,1.723848920842833,0.5866199083659359
2.210772649018261,1.722283825904769,0.5810559094409715
3.108033249803932,1.723848920842832,0.5866199083659358
3.106371472624837,1.675064500011651,0.5865996683741297
3.233466790505819,1.673568256043694,0.5814703912628013
2.34482505700058,1.576271045834731,0.5899863543392854
2.342091316232513,1.624804022480446,0.5879874034916848
2.215279224887346,1.623378712687314,0.5837873608156521
3.10408437833916,1.624804022480446,0.5879874034916849
3.101350637571093,1.576271045834731,0.5899863543392854
3.227824249399385,1.574830168614811,0.5872003814004997
2.346557906618253,1.505535135605966,0.5937842015924095
2.346471666926536,1.535551235999859,0.5920716082202691
2.22018324205663,1.533831573810191,0.5910824813391394
3.099704027645137,1.535551235999859,0.5920716082202691
3.099617787953421,1.505535135605966,0.5937842015924095
3.225927566228751,1.503454331147859,0.5947543792126351
2.321158708566784,-0.1195380053661211,0.5932589187899141
2.326773457996699,-0.0941791176080789,0.5947935245290621
2.194817010147925,-0.09317837304258274,0.5982789952692378
3.119402236574974,-0.09417911760807893,0.5947935245290621
3.125016986004889,-0.1195380053661212,0.5932589187899141
3.258059566413287,-0.1185014710137791,0.5952903642772482
2.32558392368486,-0.1575921456407004,0.5918824045163793
2.322968174123846,-0.1353879790613483,0.5923000091693811
2.19059619753039,-0.1343290751482639,0.5926003228016851
3.123207520447827,-0.1353879790613483,0.592300009169381
3.120591770886813,-0.1575921456407004,0.5918824045163793
3.252022797809115,-0.1565019042968679,0.5904585071659259
2.354726242576021,1.457034563975918,0.5948520062931866
2.345671074615971,1.485918163987971,0.5947311200679162
2.219235452500318,1.483932296392627,0.597484483861319
3.100504619955703,1.485918163987971,0.5947311200679162
3.091449451995652,1.457034563975918,0.5948520062931867
3.215916337693826,1.455532195273139,0.598810983853403
2.337111030557948,-0.2267308064285544,0.5884753846027393
2.330572375386943,-0.1884723790733962,0.5905528676299277
2.200876232157315,-0.187338555495877,0.5876226557053782
3.11560331918473,-0.1884723790733962,0.5905528676299277
3.109064664013725,-0.2267308064285544,0.5884753846027393
3.236508344683699,-0.2255429875428357,0.5843458646380815
2.344247549842474,-0.3080055450991699,0.5877082165923884
2.341988473716466,-0.2674498078751939,0.5874311648212218
2.216238535998731,-0.266204520996547,0.5823765880647063
3.104187220855208,-0.2674498078751939,0.5874311648212217
3.1019281447292,-0.3080055450991699,0.5877082165923884
3.226869319080885,-0.306703020647469,0.582087882096783
2.345454578273497,-0.3877995777263082,0.5885008425122471
2.345185364377338,-0.3480679613031744,0.5881013471438576
2.22059175232234,-0.3467088955177149,0.5824774048567009
3.100990330194335,-0.3480679613031743,0.5881013471438576
3.100721116298176,-0.3877995777263082,0.5885008425122472
3.225211012415639,-0.3863844374751075,0.5834364492351841
2.344240114416284,-0.4671126206638911,0.5922648455342198
2.345063407994456,-0.4278554936440822,0.5898924675431734
2.220444312358968,-0.4263838212331789,0.5857499428912917
3.101112286577217,-0.4278554936440822,0.5898924675431733
3.10193558015539,-0.467112620663891,0.5922648455342197
3.226836138185679,-0.4655855434488959,0.5893189226469995
2.343105016011007,-0.5317269937950107,0.5964550024867179
2.343433002827609,-0.5026696827250151,0.5946094582349376
2.218249093779729,-0.5010924227226605,0.5931605344872003
3.102742691744064,-0.502669682725015,0.5946094582349375
3.103070678560666,-0.5317269937950107,0.5964550024867179
3.228369532190699,-0.5299759409330345,0.5967038179292186
2.487526580871164,2.226254653523669,0.6539511576979027
2.506800998568085,2.251804972693831,0.6736776987191697
2.422230019474651,2.249494756962676,0.6774723683698959
2.939374696003588,2.251804972693831,0.6736776987191697
2.95864911370051,2.226254653523669,0.6539511576979028
3.048448209781999,2.223980497752457,0.6579268594453966
2.450262563016118,2.168027638374852,0.6167671813607187
2.46809714760921,2.198854689613405,0.6350871730926305
2.373095751861259,2.19661920426328,0.6392359911853986
2.978078546962464,2.198854689613405,0.6350871730926305
2.995913131555555,2.168027638374852,0.6167671813607188
3.096294077583117,2.165835660200725,0.6210841235312178
2.381965639006943,2.061194098353653,0.6017670378452905
2.420890330301887,2.119887263281735,0.6054224191603299
2.31254577138953,2.117763227115924,0.6098434731508515
3.025285364269786,2.119887263281736,0.6054224191603299
3.064210055564731,2.061194098353654,0.6017670378452905
3.182319165767737,2.059152897676592,0.6060631611313759
2.430472117718667,1.188541107472364,0.593564350465113
2.429941467570848,1.224336061905463,0.5936119755427776
2.321298846656617,1.223475944997951,0.5981414149501618
3.016234227000825,1.224336061905463,0.5936119755427776
3.015703576853006,1.188541107472364,0.593564350465113
3.124149534165579,1.187731509097104,0.5980942269317682
2.434795500800976,1.032536633540076,0.5935281890435532
2.432052794453587,1.125618589061458,0.593534988736482
2.324192649810666,1.124897795193042,0.5980651346581449
3.014122900118087,1.125618589061458,0.593534988736482
3.011380193770698,1.032536633540077,0.5935281890435531
3.118223867371854,1.031947209129935,0.5980583973665599
2.435972609752543,0.8391970862778018,0.5935343702917075
2.436389473315868,0.9314460851262333,0.5935331340420766
2.330136539917102,0.930999332950552,0.5980632969844242
3.009786221255807,0.9314460851262333,0.5935331340420768
3.010203084819131,0.8391970862778019,0.5935343702917076
3.116610511512772,0.8388805279827449,0.5980645218888903
2.43542989700984,0.6568481926493938,0.5935421051123984
2.43546565305651,0.7482388406676497,0.5935343702917075
2.328870343762372,0.7480506545730351,0.5980645218888903
3.010710041515164,0.7482388406676497,0.5935343702917075
3.010745797561833,0.6568481926493939,0.5935421051123984
3.117354358360655,0.6567889890181857,0.5980721857264923
2.434356704245522,0.4866498344629008,0.5936429479636465
2.435067186231172,0.5691296272573996,0.5935730443951613
2.328324201634701,0.5691942235652014,0.5981028410769013
3.011108508340502,0.5691296272573997,0.5935730443951613
3.011818990326151,0.4866498344629008,0.5936429479636466
3.118825285781546,0.4868308370670424,0.598172103134563
2.434209402489002,0.3322205058805365,0.5939601852234586
2.434054973484292,0.4084377091739984,0.5937678658237725
2.326936853960858,0.408729094982623,0.5982958746131659
3.012120721087381,0.4084377091739985,0.5937678658237725
3.01196629208267,0.3322205058805365,0.5939601852234586
3.119027178861721,0.3326194593981983,0.5984864290818316
2.426594700037714,0.1695116485583181,0.5946107179835019
2.434158285911299,0.2544238386541016,0.5942286306526246
2.327078454879962,0.2549325890273637,0.5987524109651148
3.012017408660374,0.2544238386541016,0.5942286306526243
3.019580994533959,0.1695116485583181,0.5946107179835017
3.128469214013528,0.1701402381458683,0.5991309918489884
2.354614702516757,-0.02990697586256078,0.5955193714880102
2.397566502789673,0.06998620364884843,0.5951727544706343
2.28189915007646,0.0707552565916152,0.5996878704808428
3.048609191782,0.06998620364884843,0.5951727544706342
3.091560992054916,-0.02990697586256078,0.59551937148801
3.217178201767487,-0.02899694056929882,0.5998246814663046
2.468371035520428,-0.7911949298809942,0.6023756781459235
2.460712157001189,-0.7224954876944512,0.6021802950879669
2.36420275245784,-0.7205249910898138,0.6065969195110754
2.985463537570484,-0.7224954876944513,0.6021802950879669
2.977804659051246,-0.7911949298809943,0.6023756781459235
3.072204944833441,-0.7892104652254491,0.6068246923304602
2.519997157292505,-1.04223798985389,0.6203768179742529
2.494087752810069,-0.9876816354236522,0.6132224102631265
2.409218308140046,-0.9854198629707213,0.6175718830908479
2.975795163740363,-0.8596478586355923,0.6043246944691543
2.970049461479074,-0.9241954226549369,0.6083500819944698
3.061575602982996,-0.9220232502682524,0.6127442685812848
2.357266629068,-0.573629673907616,0.5991367477161405
2.343733734242998,-0.5515864578697095,0.597867390222792
2.21867855832872,-0.5492762432367389,0.5997897060228112
3.102441960328675,-0.5515864578697095,0.597867390222792
3.088909065503673,-0.5736296739076161,0.5991367477161405
3.210555633307678,-0.570779346068758,0.6023609684453761
2.004827707387386,1.237530513511264,0.6014211325559273
2.004761272699364,1.270878255427251,0.60159915484231
1.894582314640242,1.264685711041685,0.6082243518576174
3.44141442187231,1.270878255427251,0.60159915484231
3.441347987184287,1.237530513511264,0.6014211325559273
3.551317709419252,1.231606456119179,0.6080168910887493
2.008903896825788,1.318873561592127,0.6018730831116924
2.020297017016827,1.384139937538079,0.6008364694111732
1.909588558941508,1.382536165365698,0.6073299470207572
3.425878677554846,1.384139937538079,0.6008364694111732
3.437271797745885,1.318873561592126,0.6018730831116924
3.546968087862594,1.31266171491614,0.6086938060192506
2.069374759317475,-0.6403145014756831,0.6093160810501735
2.063207535564117,-0.5960920225283892,0.6061655635246869
1.942154300327688,-0.579268945103308,0.6117421525240294
3.382968159007556,-0.5960920225283893,0.606165563524687
3.376800935254199,-0.640314501475683,0.6093160810501737
3.495222854460264,-0.6276403940605377,0.6145844616001716
2.050857939799036,1.972484569428249,0.5766419084971124
2.043050204242278,1.992474999741115,0.5958262205483711
1.95245128244824,1.97498160262227,0.5979806652717238
3.403125490329395,1.992474999741115,0.5958262205483711
3.395317754772638,1.972484569428249,0.5766419084971124
3.46025469064826,1.960468693483355,0.5738713532974001
2.052888915336179,1.921439354223148,0.5197514984768961
2.05389400354623,1.95193745099335,0.5504672344416113
1.990229463894433,1.941661294926885,0.5487841288934494
3.392281691025443,1.95193745099335,0.5504672344416112
3.393286779235494,1.921439354223148,0.5197514984768961
3.472506023163332,1.909859125233226,0.5184434456710049
2.051889461987188,1.839126618383825,0.4707396896198236
2.050753066367761,1.882618911209303,0.4919152432530218
1.965748464267962,1.870397518248152,0.4891573841630322
3.395422628203912,1.882618911209303,0.4919152432530217
3.394286232584485,1.839126618383825,0.4707396896198235
3.480674957432888,1.82770056772869,0.4671437137299245
2.058009169739604,1.749606720560302,0.4445148797743184
2.054894073669035,1.794416185052433,0.454808948111352
1.968691438746903,1.783910150069919,0.4508340278682471
3.391281620902638,1.794416185052433,0.4548089481113519
3.388166524832069,1.749606720560302,0.4445148797743184
3.474164771014483,1.739626495719362,0.4404645490071993
2.057476709223773,1.655594253807535,0.4485562752857377
2.059123315376918,1.703482734292062,0.442057096168096
1.973074951773295,1.693908189176987,0.4380761285086143
3.387052379194754,1.703482734292062,0.442057096168096
3.3886989853479,1.655594253807535,0.4485562752857377
3.475199373352099,1.646440907882012,0.4447443301797904
2.049314710995788,1.558901014556071,0.4874415655822927
2.053661183387733,1.606256824841734,0.4640541615539766
1.966284867341086,1.597537422212901,0.4605794302734911
3.39251451118394,1.606256824841735,0.4640541615539766
3.396860983575886,1.558901014556072,0.4874415655822927
3.485615237028723,1.550425218970108,0.4846415978841231
2.044855632337765,1.492225184323267,0.5468152981406641
2.047121406194343,1.520072411538358,0.5164583641629134
1.956352991190353,1.511246501376073,0.5149408949477368
3.399054288377331,1.520072411538358,0.5164583641629135
3.401320062233909,1.492225184323267,0.5468152981406642
3.481263829461051,1.485286063405333,0.5449969332405751
2.031516728321111,-0.1064936517574875,0.5626074661384208
2.024151457928552,-0.08216388136437983,0.5860711061532185
1.927867921631887,-0.08087782211758986,0.5882364389964602
3.422024236643122,-0.08216388136437984,0.5860711061532185
3.414658966250562,-0.1064936517574876,0.5626074661384208
3.490646984930197,-0.1019463214325259,0.5597203311254352
2.040792487698124,-0.1432864795013857,0.5104597295361602
2.035841467910681,-0.1215836056300064,0.5366104050586041
1.959978267115507,-0.1154373102938767,0.5346489022680637
3.410334226660992,-0.1215836056300064,0.5366104050586043
3.405383206873549,-0.1432864795013857,0.5104597295361602
3.493943438336484,-0.1357698879100014,0.5087566912723207
2.034849801203943,1.443405460621368,0.5927320410825017
2.042312772006928,1.473192025303548,0.5736816034332726
1.96031401010171,1.468340127409142,0.5706350993353506
3.403862922564746,1.473192025303548,0.5736816034332726
3.41132589336773,1.443405460621369,0.5927320410825017
3.515445027911002,1.442356987902231,0.594159479988136
2.057487261150831,-0.2112740182006321,0.4656597106778315
2.047563712588578,-0.1736944922209494,0.4860605369934895
1.957845138345924,-0.1665888734956337,0.4832132020086
3.398611981983095,-0.1736944922209494,0.4860605369934895
3.388688433420843,-0.2112740182006321,0.4656597106778315
3.480602223683537,-0.2040074778567776,0.4622378080711317
2.068658755739416,-0.2910561222084163,0.4424330544258805
2.065121524463017,-0.2512452031179382,0.4506099385057153
1.971111279590674,-0.2436270995062114,0.4468375465960871
3.381054170108656,-0.2512452031179382,0.4506099385057154
3.377516938832257,-0.2910561222084163,0.4424330544258806
3.473067168645863,-0.2830878649337093,0.4384236702625292
2.069862445304895,-0.3693847137780434,0.4516628918897065
2.06992507033045,-0.3303827802656583,0.4428200384192766
1.973171107109228,-0.3220686286060411,0.438811647292412
3.376250624241223,-0.3303827802656583,0.4428200384192767
3.376313249266778,-0.3693847137780434,0.4516628918897064
3.4741131858024,-0.36072752382153,0.4478973953661281
2.066892421839624,-0.4473646821765331,0.487751324714222
2.068528719449885,-0.4087049909287377,0.4670546376638256
1.969703804946948,-0.3997019627100525,0.4636572816225077
3.377646975121788,-0.4087049909287377,0.4670546376638255
3.379283272732049,-0.4473646821765331,0.487751324714222
3.479049958927944,-0.4382683149757147,0.4849520299991184
2.065567859715948,-0.5123384245372031,0.5412657132802128
2.066832771835388,-0.4827628602558476,0.5131720281594165
1.966468706821566,-0.4743419078968514,0.511526721232265
3.379342922736285,-0.4827628602558475,0.5131720281594165
3.380607834855725,-0.512338424537203,0.5412657132802129
3.467272792425732,-0.5043286594582452,0.5393739241568603
2.108759956195113,2.195342801140559,0.6611839767005319
2.126096393429644,2.221309032248862,0.6806643946219478
2.038209594829162,2.209459413297977,0.6844832299603979
3.320079301142029,2.221309032248862,0.6806643946219478
3.33741573837656,2.195342801140559,0.6611839767005319
3.434184323621388,2.181868154508191,0.6654976941218045
2.068395086933516,2.136306568456128,0.6241143752464398
2.091436590183238,2.167202776435516,0.6422473638345986
1.994033250090642,2.153304905947759,0.647075006630805
3.354739104388435,2.167202776435516,0.6422473638345987
3.377780607638157,2.136306568456128,0.6241143752464398
3.47774766888999,2.122010868423016,0.6298605851302145
2.039032715501394,2.030820364687052,0.6068048593892548
2.048711290533504,2.087665340199022,0.6129168395292333
1.947580545640634,2.073146732225718,0.6195648173191116
3.397464404038169,2.087665340199023,0.6129168395292333
3.407142979070279,2.030820364687052,0.6068048593892547
3.509506541496827,2.01315113779211,0.6137733260136131
2.006906371029531,1.176961037384949,0.6012818553068438
2.005607596671765,1.212033401256924,0.6013287357710371
1.896450345176677,1.206581892236134,0.6079266925329137
3.440568097899908,1.212033401256924,0.6013287357710372
3.439269323542142,1.176961037384949,0.6012818553068438
3.546465686983218,1.172454126182869,0.6078809274366475
2.017487917287789,1.024105816249411,0.6012462592656025
2.010775101528651,1.115308732014015,0.6012529526459914
1.906205468924308,1.111822453428716,0.6078527124357377
3.435400593043022,1.115308732014015,0.6012529526459913
3.428687777283884,1.024105816249411,0.6012462592656025
3.531549981108182,1.02100107406136,0.6078461783052032
2.020368909461022,0.8346692026312532,0.6012523438705426
2.021389189411867,0.9250559765684348,0.6012511269495546
1.918849421916903,0.9222401492597109,0.6078509301750326
3.424786505159806,0.9250559765684346,0.6012511269495546
3.42580678511065,0.8346692026312532,0.6012523438705426
3.528879400643919,0.832562069082572,0.6078521181424899
2.019040611717676,0.6560013749926408,0.6012599577580615
2.019128125189104,0.7455471255754841,0.6012523438705426
1.915384615125368,0.7443024840340863,0.6078521181424899
3.427047569382569,0.7455471255754841,0.6012523438705426
3.427135082853997,0.6560013749926407,0.6012599577580615
3.531412545686475,0.655621283459051,0.6078621323820468
2.016413956003049,0.4892388006783334,0.6013592239411033
2.01815287153602,0.5700535789281324,0.6012904133081369
1.913311136328821,0.5705025955429189,0.6079021893402745
3.428022823035652,0.5700535789281322,0.6012904133081368
3.429761738568624,0.4892388006783333,0.6013592239411032
3.535176212963316,0.4904658658379045,0.6079848493717815
2.016053432699687,0.3379269275296715,0.6016715012271023
2.015675465347303,0.4126055387905839,0.6014821887225923
1.909890751906465,0.4145658572629856,0.6081152047066707
3.430500229224371,0.4126055387905838,0.6014821887225923
3.430122261871986,0.3379269275296715,0.6016715012271023
3.536125446038703,0.340598193953,0.6083025753016833
2.015040718413554,0.1776888076329576,0.6023169258947949
2.015928324093477,0.2617007368778312,0.6019357495379987
1.90954600692486,0.2650993612586463,0.6085605088402001
3.430247370478196,0.2617007368778312,0.6019357495379987
3.431134976158119,0.1776888076329576,0.6023169258947949
3.537398359795025,0.1817223139803416,0.6089834107950802
2.016257987385374,-0.0214076908617995,0.59994647076215
2.014491307396405,0.07691705140860475,0.6028904266931523
1.910474812040368,0.08123647636822175,0.6097465444286623
3.431684387175268,0.07691705140860475,0.6028904266931522
3.429917707186299,-0.0214076908617995,0.59994647076215
3.532963972491941,-0.02030747947547019,0.6070102586286879
2.084825553543748,-0.7628101893745308,0.6099554187332962
2.076576677811079,-0.6959804763378461,0.6097360296338885
1.958946885153287,-0.6834071434414504,0.6145297752412791
3.369599016760594,-0.6959804763378461,0.6097360296338885
3.361350141027925,-0.7628101893745308,0.6099554187332962
3.475416561837975,-0.7497420702892736,0.6146534788073944
2.227103455444409,-1.00920046130025,0.6276784453228278
2.162698549040328,-0.95571708491918,0.6206564914767937
2.076680180163971,-0.9409341440810553,0.6239957693312188
3.351815293095851,-0.829881263033015,0.6118739623752041
3.331864562951874,-0.8932031403435139,0.6158411990030283
3.429876172377805,-0.8788790149240794,0.6198047438397687
2.062094950390973,-0.5606420816783676,0.5938224225889993
2.063742100220534,-0.535546629030749,0.5698364394762052
1.97554638783117,-0.5245578616043005,0.5668872901202147
3.38243359435114,-0.535546629030749,0.5698364394762051
3.3840807441807,-0.5606420816783675,0.5938224225889992
3.497859520133557,-0.5433900466230318,0.5950655524366425
2.541821135922119,2.337983182428525,1.19444851354752
2.542291142607896,2.335571275662393,1.217169605371766
2.475286297219852,2.333142837943141,1.215976604891587
2.903884551963778,2.335571275662393,1.217169605371766
2.904354558649553,2.337983182428525,1.19444851354752
2.971686056561776,2.33557501750818,1.193464026404238
2.573000662951052,2.375541369246717,1.146297939169956
2.554272694621948,2.353377892208712,1.172402231589856
2.490945997949184,2.351042707447469,1.171620064997572
2.891902999949726,2.353377892208712,1.172402231589856
2.873175031620622,2.375541369246718,1.146297939169956
2.930361414467034,2.37329920767028,1.145755333825958
2.515564013805112,2.26926096371523,0.698468884392077
2.51788342238935,2.281868271762245,0.7252338600638306
2.440271596996612,2.279515626762307,0.7285553945623057
2.915958482484624,2.318908756195095,0.7894508253069771
2.923468397747673,2.297778066502351,0.7537063612417922
2.99804344118592,2.295402967514351,0.7567666012445415
2.558923075670966,2.377024422637754,1.079908033052737
2.576674799104969,2.386188838765921,1.117259070195225
2.520697619438906,2.383955326882591,1.116982956951014
2.869500895466704,2.386188838765921,1.117259070195225
2.887252618900708,2.377024422637754,1.079908033052737
2.949109950082175,2.374695326122693,1.079974693362343
2.535096313274201,2.341044123840803,0.8366111339732448
2.535012140017773,2.355340534189072,0.8868070802462957
2.465309632390811,2.352884195500495,0.8886458439538975
2.922497283597985,2.322093377183232,0.9352310619219246
2.915559068084976,2.348326933738766,0.9191343684236715
2.98689059160067,2.34588049356262,0.9206764619367763
2.522165935077279,2.315448990523271,0.9672943617234988
2.535080798530077,2.346110423141585,1.025007027963338
2.465149629814059,2.343706572525636,1.025577519332596
2.911094896041597,2.346110423141585,1.025007027963338
2.924009759494395,2.315448990523271,0.9672943617234988
2.998473183407934,2.313048952010716,0.9683944869990849
2.276352138109142,2.306607438361898,1.192510303856525
2.276129082144051,2.303678297726344,1.214642781366488
2.196284864514807,2.289997148068002,1.215362507487066
3.170046612427623,2.303678297726345,1.214642781366488
3.169823556462531,2.306607438361898,1.192510303856525
3.258880547428103,2.290525422196164,1.195407012156572
2.331257253385953,2.34341565914807,1.145373507918844
2.297159355602447,2.321601933398437,1.171017472481407
2.210850592287296,2.303899911210701,1.172538438372691
3.149016338969226,2.321601933398438,1.171017472481408
3.11491844118572,2.34341565914807,1.145373507918844
3.194759483184486,2.324391561440173,1.145349535200138
2.157291359632533,2.238936951902023,0.7049791972573916
2.18968841737223,2.251634844104765,0.7312412118580833
2.075780075156893,2.235537268485595,0.7299959577832127
3.200444771559769,2.287614119412081,0.7941056640983093
3.228849664325296,2.266947691028291,0.758989758659669
3.341019312175388,2.250545709786855,0.7586965510452287
2.311701484256961,2.344798410291529,1.080021601549787
2.34061194391904,2.353887975115163,1.116788658846317
2.265785367901243,2.334299728680296,1.115989165975319
3.105563750652633,2.353887975115163,1.116788658846317
3.134474210314713,2.344798410291529,1.080021601549787
3.209491709839119,2.325545615017131,1.079403857927387
2.265414088641434,2.309342964470796,0.8405286259089837
2.270193612669814,2.323376817006109,0.8899397634266593
2.189687048123068,2.304974179200444,0.8892556038648188
3.21464795612189,2.290740253892044,0.9376066408416574
3.188981021377555,2.316492023406708,0.9217616175862906
3.274381469237428,2.298341285501031,0.9208862710183013
2.225883794922255,2.284217893362248,0.9691686340581518
2.261828532435424,2.31435020365213,1.02597896835439
2.174244448320436,2.296261233583435,1.025762177912537
3.184347162136249,2.31435020365213,1.02597896835439
3.220291899649419,2.284217893362248,0.9691686340581518
3.324309761952868,2.267247996975347,0.9689782701707513
2.035539001026447,-0.7768173440088085,1.140539959128254
2.056654857370858,-0.8487215588589431,1.111840169523623
1.988909063391946,-0.8377324739839412,1.108609128249928
2.552831101922666,1.252738892645782,1.542865848761436
2.551682752715053,1.289377301034574,1.539437537968919
2.665492047874838,1.289736637125283,1.543210838997379
2.55109661237492,1.315669306161654,1.536054077154779
2.550727213182831,1.349341788621698,1.530755959618845
2.665170966034388,1.349733071503599,1.534456829316107
2.569262555261155,-0.7312434452233276,1.166092851087917
2.567980974292344,-0.6585743989881098,1.184530448486922
2.67096860096722,-0.6592528572431635,1.185342721933363
2.612210268410198,2.346575685425802,1.296935324314262
2.614988779945806,2.34331397019099,1.252499838222484
2.686764234999847,2.344234803528282,1.253879187514129
2.579443208178101,2.260482937536156,1.353683354852222
2.598842333500476,2.320233313929907,1.333277013681612
2.681338681617117,2.321141850774113,1.335330295536507
2.566211850239787,2.123075210405802,1.38370141730624
2.567939384582126,2.189965404341422,1.369015097225195
2.670954625929819,2.19080453941357,1.37136654571087
2.558827732771187,2.018393347537195,1.405137948997945
2.564096088066512,2.065960499752616,1.395739918707676
2.669663195615308,2.066733569742735,1.398314335220416
2.554030073184802,1.928875270722248,1.423138677550163
2.555042570856157,1.973769760046882,1.413912599701624
2.666621019053886,1.974493714328256,1.41663863282407
2.553333071271683,1.838395329397129,1.44264971100725
2.553733394981531,1.883884940157097,1.432948704481889
2.666181107794204,1.884561007235802,1.435833557850481
2.553494485164958,1.742644399532057,1.457751128893631
2.553247016881521,1.791424499939948,1.45072323620881
2.666017674288588,1.792051307623725,1.45375638438542
2.553722958207144,1.641925303339308,1.477321670691466
2.553696068003546,1.692380862168857,1.466415547593269
2.666168565126542,1.692954903181215,1.469579618392193
2.553270282109381,1.538238857113837,1.50086878273387
2.553696949513912,1.593534720025925,1.488997696424151
2.66616886133299,1.594056099585037,1.492350172491769
2.550904491544505,1.396586513653057,1.523397509527726
2.552032299816945,1.46514059249506,1.513087488007093
2.665609503221283,1.465593568561631,1.516640947767168
2.557480479692544,1.098049200822318,1.5606135125218
2.55491259385585,1.189544519021467,1.549408748126647
2.666577343985438,1.189850668014871,1.553265240021653
2.559280211318506,0.9067549518125178,1.583182439580944
2.55907566871048,0.9986314398691962,1.573059935798959
2.667976226701618,0.9988358776579276,1.577113752067378
2.559262181202561,0.7242925157584031,1.594106946603768
2.559250392975263,0.8157344522919825,1.590645665415234
2.668034937813629,0.8158414495437703,1.594846201295589
2.557564383055184,0.5541043929559555,1.580914606569971
2.558711225585387,0.6365595754737032,1.591216308202941
2.667853765970901,0.6365711151871618,1.595421605016752
2.555248045048193,0.3997606179697181,1.538193666123132
2.556359717889861,0.4759340579793812,1.563433529362904
2.667063608794512,0.4758600225454353,1.567407031498912
2.552578631712316,0.2371135145685477,1.459759748408884
2.553992930169821,0.3220010780042207,1.503804508275394
2.666268317201148,0.3218450329515287,1.507280519148579
2.550144681257839,0.03506924359905503,1.351777215795073
2.55121010095119,0.1375970755567618,1.406437280277254
2.665333226713478,0.1373427870871083,1.409100946014953
2.549832093738949,-0.08355915552083761,1.286615568407762
2.549692108099547,-0.03973416393825124,1.311281885037825
2.664823148456998,-0.04008292772661123,1.31315165919591
2.551289313279464,-0.1613064377799172,1.245457206811359
2.550214327234031,-0.1206335654463865,1.265604496633904
2.664998625321286,-0.1210254293493253,1.267093179484014
2.558619249352225,-0.2415660991980264,1.228218335463601
2.554308372206602,-0.2020480263537864,1.232764542401324
2.666374312511975,-0.2024832647753009,1.233979238021653
2.562810946367829,-0.3203553609467855,1.22536774014911
2.561666115058537,-0.2808059385403455,1.226611406656595
2.66884667240582,-0.281283136172635,1.227774766011196
2.563895808173247,-0.4024266373613277,1.223387279027042
2.563333527022477,-0.3604447173217222,1.224542483620352
2.669406958698659,-0.3609643434569011,1.225688581730096
2.565284143632404,-0.4989013213478576,1.214581806819299
2.564541908379296,-0.4487760295535697,1.220350262603423
2.66981300083185,-0.4493427152418019,1.221461384567479
2.566925148696744,-0.5994746168343808,1.197342680329877
2.566086301061056,-0.5495722543504613,1.206672651955655
2.67033194999922,-0.5501926404215964,1.20766966015984
2.601986943618835,-1.02445542425726,1.040808944367931
2.584717036177874,-0.9534351571018838,1.078549238549374
2.676592277822934,-0.9542707059189934,1.07847729949311
3.00227228038687,1.252300538560863,1.537961496447586
3.004155326029765,1.28891376726694,1.534570082438131
3.10832140024219,1.28796250983582,1.530464271556157
3.00511647008446,1.31518770325901,1.531223035714526
3.005722205286384,1.348837044363754,1.52598193853206
3.110468978701919,1.347801215348288,1.521954941756247
2.975328231999554,-0.730318310881322,1.165243472897757
2.97742974906713,-0.6576992063223084,1.183482637869753
3.077941457012792,-0.6559031483325716,1.182598785473567
2.904903222271305,2.345385593898823,1.294677769724839
2.900347061126097,2.342126120272119,1.250720515213834
2.545828633445576,2.342126120272119,1.250720515213834
2.96604088136541,2.339688431496865,1.249219615262051
2.400246015628645,2.257031145997133,1.348395580575427
2.95863415149688,2.259352013101045,1.350815056401555
2.443845618026098,2.316656189438052,1.328394115400903
2.926823759525447,2.319061326152124,1.330628336026292
2.519351935046226,2.319061326152124,1.330628336026292
3.002330076545576,2.316656189438052,1.328394115400903
2.370508492121669,2.119911646610863,1.377818063800715
2.980330731901291,2.122038719193252,1.380510053064639
2.374391131632588,2.186661531044919,1.363423130520524
2.977497947244215,2.188882942958883,1.365981792739113
2.468677747327458,2.188882942958883,1.365981792739113
3.071784562939086,2.186661531044919,1.363423130520524
2.35391266213774,2.015449365404884,1.398829279800194
2.992439095919558,2.017428798753655,1.401715876659289
2.36575330919515,2.062916740313314,1.389617712964748
2.983800126677177,2.064963260526085,1.392418991540992
2.462375567894496,2.064963260526085,1.392418991540992
3.080422385376524,2.062916740313314,1.389617712964749
2.343129905341823,1.926119062551946,1.41647286138316
3.000306225465465,1.927972243082001,1.419522874532975
2.345405497419601,1.970919380772443,1.407429835333444
2.998645947114727,1.972835878746574,1.410396091238907
2.447529747456946,1.972835878746574,1.410396091238907
3.100770197152072,1.970919380772443,1.407429835333444
2.341563391090419,1.835828912804946,1.435596782371688
3.001449158648931,1.83755448393992,1.438823922836445
2.342463120036421,1.881223104128428,1.426088250560276
3.00079271389103,1.883012832043642,1.429227322228378
2.445382980680644,1.883012832043642,1.429227322228378
3.103712574535252,1.881223104128428,1.426088250560276
2.341926169383318,1.740278830993308,1.450398577628187
3.001184474590791,1.74186935873566,1.453762813527056
2.34136998354584,1.788956609802576,1.443510123220259
3.001590269334923,1.790615935103979,1.446810557692948
2.44458542523675,1.790615935103979,1.446810557692948
3.104805711025834,1.788956609802576,1.443510123220258
2.342439663349276,1.639771004126446,1.46958082627059
3.000809827955641,1.641219481567386,1.473122729719895
2.342379227522104,1.690120726900047,1.458891088237008
3.000853922104343,1.691640364901496,1.462333982461342
2.445321772467331,1.691640364901496,1.462333982461342
3.10379646704957,1.690120726900048,1.458891088237008
2.341422272227288,1.536302051568272,1.492660747239256
3.00155211936655,1.537604293672564,1.496416418797774
2.34238120871975,1.591481925356902,1.481025191535131
3.000852476616993,1.592862154598598,1.484673093628328
2.445323217954681,1.592862154598598,1.484673093628327
3.103794485851922,1.591481925356902,1.481025191535131
2.336105149611184,1.394946839398878,1.514742488430755
3.005431506913174,1.396049300539603,1.518702682876015
2.3386399026705,1.463357118558648,1.504637024904975
3.003582143984756,1.464556265709596,1.508503621723392
2.442593550586917,1.464556265709596,1.508503621723392
3.107535791901174,1.463357118558648,1.504637024904975
2.350884706104599,1.097035741250582,1.551220100051483
2.994648301118459,1.097717156960248,1.5555181531088
2.345113373654223,1.188339138007549,1.540237645971921
2.998859081431782,1.189149595160385,1.544433978644382
2.447316613139891,1.189149595160385,1.544433978644382
3.101062320917451,1.188339138007549,1.540237645971922
2.35492960926441,0.9061427528613482,1.573341243907057
2.991697128448875,0.9065543745919129,1.577844184801803
2.354469899033404,0.9978265199303039,1.563419577637621
2.99203253432043,0.9983677206912252,1.567830623250694
2.454143160251243,0.9983677206912253,1.567830623250694
3.091705795538268,0.9978265199303039,1.563419577637621
2.354889086515406,0.7240630517336504,1.584049001115422
2.991726693959998,0.7242173355310922,1.588651118130205
2.354862592433086,0.8153131787989015,1.580656394152092
2.991746024116631,0.8155964287520994,1.585227088564649
2.454429670455043,0.8155964287520995,1.585227088564649
3.091313102138587,0.8153131787989016,1.580656394152092
2.351073279207257,0.5542319171424142,1.571118406279703
2.994510717654827,0.5541461742214131,1.575600759071165
2.353650811827847,0.6365141408917803,1.581215714990142
2.992630142638737,0.6365446895577178,1.585791589877898
2.453545551932937,0.6365446895577177,1.585791589877898
3.092524882743827,0.6365141408917803,1.581215714990142
2.345867301388948,0.4002118951140029,1.529245078992481
2.998309013645816,0.3999084717273378,1.5333395976136
2.348365790010848,0.4762255529976125,1.553984165797913
2.996486109352464,0.4760295616722261,1.558307819857452
2.449689585219209,0.4760295616722262,1.558307819857453
3.097809904560825,0.4762255529976125,1.553984165797913
2.339600100541678,0.2379059618106278,1.452302125420937
3.00268627721502,0.2373731472664017,1.455749815516065
2.343046426285003,0.3226154642927804,1.495538225945019
3.000367132019029,0.3222023718710628,1.499320548945844
2.445808562552644,0.3222023718710627,1.499320548945844
3.10312926828667,0.3226154642927803,1.495538225945019
2.331362626623599,0.03628550080912206,1.345791315759303
3.006677432316568,0.03546773087234932,1.348929431936989
2.33545358290086,0.1385982694197155,1.399776734869441
3.004930373235482,0.1379251007550416,1.403001224041788
2.441245321336191,0.1379251007550416,1.403001224041788
3.110722111670813,0.1385982694197155,1.399776734869441
2.328307067281228,-0.08209406226215557,1.281494851719722
3.007190008596994,-0.08307914108562026,1.284469078951468
2.328913479490101,-0.03836099839516598,1.305764433578857
3.007419554928891,-0.03928426815262821,1.308869927312096
2.438756139642783,-0.03928426815262822,1.308869927312096
3.117262215081572,-0.03836099839516598,1.305764433578857
2.330094694238157,-0.1596782610888413,1.241897955880324
3.004800482058973,-0.1607729916595653,1.243753679277175
2.328358993778497,-0.119090704555847,1.261161531476804
3.006563227899354,-0.1201280716871319,1.263684136313405
2.43961246667232,-0.1201280716871319,1.263684136313405
3.117816700793177,-0.119090704555847,1.261161531476804
2.346799611832286,-0.2397695690843405,1.225419874399228
2.992780963873216,-0.2409774947643117,1.226700339211299
2.336749435391189,-0.2003343897223403,1.229792129695815
2.999849874943386,-0.20148658064722,1.231197618143017
2.446325819628288,-0.2014865806472199,1.231197618143017
3.109426259180484,-0.2003343897223403,1.229792129695815
2.356614581613229,-0.31839356173469,1.222625836877588
2.985907482575682,-0.3197126087293289,1.22388042308641
2.353962746019851,-0.2789270985696328,1.223844828176937
2.987784759622175,-0.2801903665949727,1.225110704782524
2.458390934949498,-0.2801903665949727,1.225110704782524
3.092212948551822,-0.2789270985696328,1.223844828176936
2.35905281233685,-0.4002926846659334,1.220684669481086
2.984128542613612,-0.401727481801244,1.221921276439254
2.3577890834727,-0.3583988262976672,1.221816954012108
2.985050562730855,-0.3597744137635006,1.2230640482819
2.461125131840819,-0.3597744137635006,1.223064048281899
3.088386611098973,-0.3583988262976673,1.221816954012108
2.362173101164705,-0.4965650024456394,1.212053903963862
2.981851971149192,-0.4981358637282374,1.213210572068318
2.360504924822571,-0.446544853936071,1.217707909574777
2.98306907727867,-0.4480450204539514,1.218916945540053
2.463106617293004,-0.4480450204539513,1.218916945540052
3.085670769749103,-0.4465448539360711,1.217707909574777
2.365861265818958,-0.5969273344391712,1.195156813729232
2.979161075891994,-0.5986400403915466,1.1961569796067
2.363975952807147,-0.5471296476213655,1.204301672231436
2.980536605543569,-0.5487719732198558,1.205386538533722
2.465639089028104,-0.5487719732198559,1.205386538533722
3.082199741764527,-0.5471296476213655,1.204301672231436
2.445877227066513,-1.021015135992041,1.041728815916732
2.92166727546753,-1.023328268686292,1.041307919172853
2.406366706625854,-0.9501454037398943,1.078720316423223
2.949986208196611,-0.9523573218906434,1.078642037972122
2.496189486375061,-0.9523573218906434,1.078642037972122
3.039808987945819,-0.9501454037398942,1.078720316423223
2.089087832282081,1.23943336072838,1.518892767176237
3.357087862289592,1.23943336072838,1.518892767176237
3.361588451855304,1.275307480420528,1.515554377596178
2.084587242716369,1.275307480420528,1.515554377596178
2.03930998888246,1.23001615433146,1.493278169384779
3.41121874247109,1.265551919905873,1.49073035978103
2.082325694285319,1.301051026069805,1.512259661623722
3.363850000286353,1.301051026069805,1.512259661623722
3.36522603720846,1.334021089978726,1.507100508487747
2.080949657363213,1.334021089978726,1.507100508487747
2.032985688548976,1.291053329379018,1.488100574338462
3.413983104851118,1.323656501478078,1.483859194748299
2.024739673283106,-0.7031624829682943,1.164022830062872
3.421436021288568,-0.7031624829682942,1.164022830062872
3.431165179297592,-0.6320093358421888,1.181976827458111
2.015010515274082,-0.6320093358421888,1.181976827458111
1.93895282042318,-0.6938579974187162,1.161065565246807
3.523160570733278,-0.6236091107007835,1.179142157737982
2.27287369128791,2.310719716508402,1.289813616799054
3.173302003283763,2.310719716508403,1.289813616799054
3.165294226392433,2.308549612071371,1.24658203116234
2.28088146817924,2.308549612071372,1.24658203116234
2.185445730008242,2.291296881514704,1.286596038997578
3.245836987188349,2.29335681577403,1.243781831978477
2.147199409059689,2.226155548596599,1.346693019842713
3.298976285511984,2.226155548596599,1.346693019842713
3.222778259081518,2.284712981740367,1.326497953403454
2.223397435490156,2.284712981740366,1.326497953403454
2.054199066012858,2.206750659320395,1.34367875540684
3.309978702944561,2.264354430725446,1.323670162729015
2.101779953155135,2.091614189774811,1.375923738110765
3.344395741416538,2.091614189774811,1.375923738110765
3.342686729930268,2.157109033273727,1.361622625727458
2.103488964641405,2.157109033273727,1.361622625727458
2.01128672532758,2.074174970855232,1.372425038359546
3.437889189206251,2.138912709900864,1.35831250984178
2.091271360984805,1.989116023416401,1.396798010708601
3.354904333586868,1.989116023416401,1.396798010708601
3.344284970776031,2.035690909909341,1.387646481488161
2.101890723795642,2.03569090990934,1.387646481488161
2.01922604632892,1.972643239679178,1.393022290496822
3.42615568958674,2.018779076358939,1.384032872800829
2.0871281757917,1.901465321775931,1.414326597896226
3.359047518779974,1.901465321775931,1.414326597896226
3.361172010200054,1.945423297964674,1.405342510974471
2.085003684371619,1.945423297964674,1.405342510974471
2.030263372726656,1.885818391431891,1.409500474069555
3.424611720314859,1.9293622531749,1.401149314269211
2.092390580989961,1.812872820420878,1.433325876179976
3.353785113581712,1.812872820420878,1.433325876179976
3.355531715304393,1.857413503625035,1.423879317492388
2.090643979267281,1.857413503625035,1.423879317492388
2.044845000636316,1.798060039004314,1.427597199957523
3.407051409814417,1.842181411262782,1.418492806979279
2.09370772621362,1.719119285000998,1.448031198762422
3.352467968358053,1.719119285000998,1.448031198762422
3.353127885250967,1.766881817206385,1.441187640774509
2.093047809320707,1.766881817206385,1.441187640774509
2.047764539581559,1.705189050172562,1.442191894077415
3.399153636651237,1.752501970517343,1.435338389841145
2.098455400349736,1.620501220762015,1.466186873822345
3.347720294221936,1.620501220762016,1.466186873822345
3.350301067355735,1.669904260800677,1.456468358301069
2.095874627215938,1.669904260800677,1.456468358301069
2.057256451070541,1.607318407257006,1.459235403856906
3.39448162056471,1.656437270850502,1.450584010724018
2.092947563675422,1.518977706343195,1.480802067249677
3.353228130896251,1.518977706343195,1.480802067249677
3.348416168459749,1.573120080202239,1.473950446032685
2.097759526111924,1.573120080202239,1.473950446032685
2.049131225344028,1.505369987597742,1.464650049225593
3.389454072438874,1.559660015923229,1.463161103570299
2.081667741933626,1.380280275219742,1.499935063288406
3.364507952638047,1.380280275219742,1.499935063288407
3.359869885826189,1.447404294463742,1.49029615267712
2.086305808745484,1.447404294463742,1.49029615267712
2.033785309383156,1.369136779057566,1.477921944078009
3.406293213817142,1.434848872132211,1.470288209730176
2.10700505563543,1.087970544420264,1.536174927211931
3.339170638936244,1.087970544420264,1.536174927211931
3.349011847689894,1.17755724156917,1.525264052741103
2.09716384688178,1.17755724156917,1.525264052741103
2.055927042635914,1.07998158741431,1.508075042879247
3.399202724517325,1.168723609720192,1.498501964731586
2.114032212021368,0.9006667534759443,1.558151893563085
3.332143482550306,0.9006667534759443,1.558151893563085
3.333035105897535,0.9906266691594652,1.548294893076381
2.113140588674138,0.9906266691594651,1.548294893076381
2.062095375683809,0.8944468307157449,1.527916872905589
3.384825713524777,0.983556408531426,1.518978364209987
2.114054285133303,0.7220105410974766,1.568789861536206
3.332121409438371,0.7220105410974766,1.568789861536206
3.332177749533102,0.8115449701390682,1.565419366341091
2.113997945038571,0.8115449701390682,1.565419366341091
2.062205901314935,0.7174797626080797,1.537514225299933
3.384036656341441,0.8061679619172909,1.534528859307648
2.107460321991598,0.5553725959443927,1.555943543576333
