-0.09196971815371063,-1.768108605470563,1.128319480668876
-0.1964129022451667,2.398414102783832,1.493076838197207
-0.1964836279733478,2.428595861166313,1.358476691956723
-0.08974725654608466,2.428446709190912,1.358476691956718
-0.1981260802493107,2.332985053031838,1.729252922707876
-0.1973910091225717,2.368847285996592,1.622422688144895
-0.09004546581603293,2.370513437600506,1.622422688144886
-0.2006735590253791,2.205473756626392,1.810330554671258
-0.1992102388112858,2.277947418030123,1.791192952027496
-0.09064335255613505,2.279744295057792,1.791192952027483
-0.2029774734843351,2.063979660674384,1.814146427246717
-0.201984066139452,2.13192280594998,1.813215877632823
-0.09155496618531664,2.133580312921821,1.813215877632804
-0.2047419761432159,1.933966370604054,1.81684117372994
-0.2038571824738282,1.998655773017271,1.81516706918833
-0.09217056267977788,2.00020600203251,1.815167069188312
-0.20661878652531,1.802545019623883,1.819326673978344
-0.2056660191492676,1.868930456467901,1.818250615740712
-0.09276503377376057,1.870376090815194,1.818250615740696
-0.2083913370581627,1.662376482369468,1.822849798218881
-0.2075450636812273,1.733785035068973,1.820850031089071
-0.09338257856026538,1.73512307762206,1.820850031089051
-0.2096743948916507,1.514935111232598,1.825953259258269
-0.2091057941285186,1.58879634566099,1.82460351501352
-0.09389550996474827,1.590019135867599,1.824603515013501
-0.2105432937152786,1.378556765733533,1.829096818754404
-0.2101208718738684,1.44409676752679,1.82730564687795
-0.09422911353766841,1.445204535203146,1.827305646877936
-0.2114888805136231,1.25086648482067,1.833893945886947
-0.2110554271722741,1.317769841585587,1.831508119972728
-0.09453625354548345,1.318821933334351,1.831508119972714
-0.2084720166836115,0.6350345509702327,1.841349004765825
-0.2094772262287604,0.8031195525477126,1.839135340887121
-0.09401758049215916,0.8038922455750867,1.839135340887105
-0.2073086426178767,0.290638804159457,1.83591614792541
-0.2077668042232937,0.4560482290763862,1.8407326201289
-0.09345545321191986,0.4565592360719831,1.840732620128885
-0.2069939295981094,-0.03684754316717574,1.822818884010488
-0.2070388209285244,0.126770454380374,1.830128641748821
-0.09321620274142756,0.1270197165713725,1.830128641748805
-0.2079744684222361,-0.3300258198479352,1.788124203068248
-0.2073058604512127,-0.1907608124567473,1.809655385939649
-0.09330396482596101,-0.1907571547268352,1.809655385939631
-0.2098371442503819,-0.5681570594402824,1.719565825773568
-0.2088675715554023,-0.454209874086374,1.757528935230925
-0.093817218521695,-0.4544020275837341,1.757528935230912
-0.2116813796652728,-0.8012841133415067,1.632249656304028
-0.2107193172622935,-0.6819882357004636,1.678323761553305
-0.09442579159581824,-0.6823600909375136,1.678323761553293
-0.2152186325007971,-1.04813227314315,1.509862535969662
-0.2132217788524722,-0.9270852535217863,1.574148450636398
-0.09524822133717328,-0.9276097963971339,1.574148450636386
-0.2183192101095638,-1.203404580489793,1.423102393625495
-0.2169297285709059,-1.140865844850916,1.458271754531654
-0.09646683269961628,-1.1414661052531,1.458271754531642
-0.2219497608649632,-1.306038765121264,1.362762154889745
-0.2200575752496441,-1.255545031103872,1.392927185629593
-0.0974947941856705,-1.256203329812894,1.392927185629578
-0.2220016247805906,-1.395221625667811,1.307409737193463
-0.2229351425702811,-1.352592368354093,1.334066617719137
-0.0984405017867685,-1.35331641574881,1.334066617719118
-0.2126719426241427,-1.477122353728969,1.259543966113595
-0.2181856407111169,-1.436251520981197,1.282470523150925
-0.09687958608640308,-1.43704157887803,1.282470523150911
-0.2073634361735128,-1.561605300785161,1.220973555168991
-0.2087936018290073,-1.518389738861784,1.239541037287411
-0.09379290849699644,-1.519245136285154,1.2395410372874
-0.2058820022825844,-1.656263794121367,1.178474665621979
-0.2066740100439241,-1.609316673359487,1.199954185545621
-0.09309630826526516,-1.610244349128161,1.199954185545607
-0.2041793015397851,-1.727124553749377,1.147267685578939
-0.2050260541089448,-1.694470376781927,1.161569288361925
-0.09255471035274801,-1.695465741721192,1.161569288361913
-0.1968447275615753,-2.023194818846407,0.965223941968877
-0.1999454618958997,-1.918507696687493,1.043007524387973
-0.09088498237123463,-1.919681150186107,1.043007524387966
0.259169744675435,0.9241217174169104,1.838089281160779
0.2605208936165971,1.001716013098508,1.837991469984284
0.3838946835335044,1.000589811362797,1.837991469984309
0.2609933315056238,1.06992459692231,1.837342655288236
0.2609926226078129,1.160515698095197,1.835872877731901
0.3845688621627414,1.159247301520045,1.835872877731923
0.2442318297460681,-1.827357928982145,1.096199770546949
0.2465185654183694,-1.765573613635254,1.128319480668898
0.3684078713412671,-1.764203887119301,1.128319480668911
0.2348098341389198,2.397365720432961,1.493076838197217
0.2349310238782072,2.428805756018931,1.35847669195673
-0.3099237486143646,2.428805756018931,1.35847669195673
0.3527533571292247,2.428999758995176,1.358476691956737
-0.4277514664109454,2.32795035437105,1.729252922707903
0.2377453938145123,2.33036865537415,1.72925292270789
-0.4277507273959734,2.364335411356208,1.622422688144917
0.2364858369248443,2.366502585938807,1.622422688144906
-0.3114785616610017,2.366502585938807,1.622422688144906
0.3527580026598159,2.364335411356208,1.622422688144917
-0.4325759756394679,2.200805315696162,1.810330554671302
0.2421105420661043,2.203047693273279,1.810330554671281
-0.4292752542249682,2.273081543956002,1.791192952027531
0.2396031179673934,2.275418753975353,1.791192952027514
-0.3145958427035507,2.275418753975353,1.791192952027514
0.3542825294888108,2.273081543956002,1.791192952027531
-0.4382180289837289,2.059641085433042,1.814146427246767
0.2460583387138352,2.061725019659311,1.814146427246743
-0.4357852749330637,2.127434340641691,1.813215877632873
0.2443561183164087,2.12959027109329,1.813215877632849
-0.3193488430525661,2.12959027109329,1.813215877632849
0.3607925501969064,2.127434340641691,1.813215877632873
-0.4425391174203227,1.929909878058453,1.816841173729983
0.2490818440590809,1.931858320388973,1.816841173729962
-0.4403723472687902,1.994457812300959,1.815167069188377
0.247565735043677,1.996474205593829,1.815167069188354
-0.3225584597798344,1.996474205593829,1.815167069188354
0.3653796225326329,1.994457812300959,1.815167069188377
-0.4471352361050575,1.798773640729854,1.819326673978393
0.2522977906000022,1.800585135315127,1.819326673978369
-0.4448020052251492,1.8650157341008,1.818250615740755
0.2506652074810472,1.866896080406519,1.818250615740734
-0.3256579322172046,1.866896080406519,1.818250615740734
0.3698092804889919,1.8650157341008,1.818250615740755
-0.4514760329705304,1.658906826673479,1.822849798218936
0.2553350861143073,1.66057339550219,1.822849798218909
-0.4494035951167997,1.730161667154041,1.820850031089125
0.2538849822757978,1.731902068090352,1.820850031089099
-0.3288777070119552,1.731902068090352,1.820850031089099
0.3744108703806423,1.730161667154041,1.820850031089125
-0.4546181117539552,1.511782834050289,1.825953259258312
0.2575336275550275,1.51329695745382,1.825953259258291
-0.4532256660298059,1.585485076679972,1.82460351501357
0.2565593204674251,1.587075568115079,1.824603515013545
-0.3315520452035825,1.587075568115079,1.824603515013546
0.3782329412936486,1.585485076679972,1.82460351501357
-0.4567459570368464,1.375667763123689,1.829096818754442
0.2590225004816248,1.377055428678285,1.829096818754424
-0.4557114886980793,1.441096975146161,1.827305646877988
0.2582986734649727,1.442537856003573,1.82730564687797
-0.33329139820113,1.442537856003573,1.827305646877969
0.380718763961922,1.441096975146161,1.827305646877988
-0.4590616034086763,1.248070605298319,1.833893945886986
0.2606427795584505,1.249413541332626,1.833893945886967
-0.4580001200429931,1.314920817481505,1.831508119972765
0.259900049878851,1.316289280285926,1.831508119972747
-0.3348927746150084,1.316289280285926,1.831508119972747
0.3830073953068357,1.314920817481505,1.831508119972765
-0.4518878495228147,0.633265482259557,1.84111301824252
0.2554733320260201,0.6341152134799971,1.841349004765845
-0.4542106782435902,0.8010271294651886,1.839052273630944
0.2571957756945252,0.8020321764760033,1.839135340887141
-0.3321885004306826,0.8020321764760032,1.839135340887141
0.379217953507433,0.8010271294651886,1.839052273630944
-0.448953168048253,0.2896110728997656,1.835774556011443
0.2534798707588661,0.2901047198295384,1.83591614792543
-0.4501951340282775,0.4546644417312979,1.84045887576186
0.2542649384695849,0.4553291119628586,1.840732620128919
-0.3292576632057422,0.4553291119628586,1.84073262012892
0.3752024092921202,0.4546644417312979,1.84045887576186
-0.448053923524304,-0.03717402015542268,1.822818884010537
0.2529406046417539,-0.03701720448851577,1.822818884010513
-0.4481895666870625,0.1260954619272672,1.830100323366063
0.2530175267006615,0.1264196789333706,1.830128641748844
-0.3280102514368189,0.1264196789333706,1.830128641748844
0.3731968419509051,0.1260954619272672,1.830100323366064
-0.4504551638699775,-0.3297580531970267,1.78812420306829
0.2546207746097657,-0.3298866687119,1.788124203068269
-0.4488178106148518,-0.1907707174490618,1.809655385939698
0.2534751034689119,-0.1907659598151965,1.809655385939675
-0.3284678282050733,-0.1907659598151966,1.809655385939675
0.3738250858786944,-0.1907707174490618,1.809655385939698
-0.4550166684625651,-0.5673951197906577,1.719565825773603
0.257812501351856,-0.5677610998707249,1.719565825773586
-0.4526422830573486,-0.4536895297853127,1.757528935230962
0.2561511220328072,-0.4539394651300067,1.757528935230944
-0.3311438467689762,-0.4539394651300066,1.757528935230944
0.3776495583211912,-0.4536895297853129,1.757528935230962
-0.459510592546303,-0.8000431738323717,1.632249656304059
0.2609726301319139,-0.8006392304113086,1.632249656304044
-0.4571770208891601,-0.6809812659805414,1.678323761553337
0.25932411982606,-0.6814649405850903,1.678323761553322
-0.3343168445622298,-0.6814649405850903,1.678323761553322
0.3821842961530028,-0.6809812659805414,1.678323761553337
-0.4680497770143322,-1.046593589965432,1.509862535969694
0.2670337730845214,-1.047332660826039,1.509862535969679
-0.4631931870487991,-0.925664811533484,1.574148450636429
0.2636121303632591,-0.9263470879747555,1.574148450636414
-0.338604855099425,-0.9263470879747555,1.574148450636414
0.3882004623126417,-0.925664811533484,1.574148450636429
-0.4766066521546157,-1.201702198933719,1.423102393625529
0.2723466656020202,-1.20251989852253,1.423102393625513
-0.4725545040634642,-1.139240362703986,1.458271754531687
0.2699657653307102,-1.140021125441001,1.458271754531671
-0.3449584900668684,-1.140021125441001,1.458271754531671
0.3975617793273068,-1.139240362703986,1.458271754531687
-0.4867351442912197,-1.304168348895286,1.362762154889792
0.278567676128634,-1.305066760049607,1.362762154889769
-0.4815306475840662,-1.253762383448006,1.392927185629632
0.2753253838638307,-1.254618637000563,1.392927185629614
-0.3503181085999881,-1.254618637000563,1.392927185629613
0.4065379228479087,-1.253762383448006,1.392927185629632
-0.4880086003776917,-1.393171012328459,1.307409737193509
0.2786565458310033,-1.394155976996583,1.307409737193487
-0.4897130238586054,-1.350631675779066,1.334066617719187
0.2802561444560355,-1.351573449088735,1.334066617719163
-0.3552488691921928,-1.351573449088735,1.334066617719163
0.414720299122448,-1.350631675779066,1.334066617719187
-0.4661686282385819,-1.474894801428847,1.259543966113626
0.2626699766255167,-1.475964754632561,1.259543966113611
-0.4792176204488867,-1.434112074498187,1.282470523150963
0.2721177921638686,-1.435139708111344,1.282470523150945
-0.347110516900026,-1.435139708111344,1.282470523150945
0.4042248957127292,-1.434112074498186,1.282470523150964
-0.453483634863467,-1.559195892660171,1.220973555169026
0.2535737604492653,-1.560353196101372,1.220973555169009
-0.4569229654791517,-1.516073355446918,1.239541037287443
0.2560243736473871,-1.517185976621123,1.239541037287427
-0.3310170983835444,-1.517185976621123,1.239541037287428
0.3819302407429943,-1.516073355446918,1.239541037287443
-0.4498557531918522,-1.653650626551583,1.178474665622015
0.2510352982569264,-1.654905801127272,1.178474665621998
-0.4517953000448949,-1.60680456295768,1.199954185545659
0.2523924170392839,-1.608011197061108,1.199954185545641
-0.3273851417754413,-1.608011197061108,1.199954185545641
0.3768025753087375,-1.606804562957679,1.199954185545659
-0.4456860113931311,-1.724358853125956,1.147267685578967
0.2481176915470149,-1.725687293424475,1.147267685578953
-0.4477596227401227,-1.691774966702286,1.161569288361957
0.2495686164895586,-1.693069644564564,1.161569288361941
-0.3245613412257161,-1.693069644564564,1.161569288361941
0.3727668980039653,-1.691774966702286,1.161569288361957
-0.4277243820098768,-2.019791804964418,0.9652239419688907
0.2355497741700682,-2.021426363939808,0.9652239419688843
-0.4353177665874308,-1.91533002961948,1.043007524387993
0.2408629352394673,-1.91685634846711,1.043007524387983
-0.3158556599756246,-1.916856348467109,1.043007524387983
0.3603250418512735,-1.91533002961948,1.043007524387992
-0.7032095914097201,0.9154848362422474,1.819149364237396
0.6282168666735628,0.9154848362422473,1.819149364237396
0.6308829834467945,0.99275268448446,1.819122337853504
-0.7058757081829519,0.9927526844844601,1.819122337853504
-0.7713938447880016,0.9005684070769595,1.791436267403918
0.6987468273379807,0.9774991730550171,1.791330328473777
-0.7067817457530605,1.060522013678478,1.818516312474412
0.6317890210169033,1.060522013678478,1.818516312474412
0.6317051604247075,1.150420654769067,1.81714346672017
-0.7066978851608646,1.150420654769067,1.81714346672017
-0.7744672625982353,1.044844160078075,1.790776979708064
0.6993026291561817,1.134117496996208,1.789558274534574
-0.7727511015455294,-1.816448350242253,1.095905650459638
0.697758376809372,-1.816448350242253,1.095905650459637
0.7040468111945005,-1.754672095297545,1.12831948066892
-0.7790395359306577,-1.754672095297545,1.12831948066892
-0.886764991356542,-1.80948907351586,1.091108433018916
0.8189471192603119,-1.747718829522428,1.123903432502476
-0.737303029996556,2.382052048552085,1.481816120546275
0.6623103052603986,2.382052048552085,1.481816120546275
0.6752027847526276,2.416678604941849,1.351970923369322
-0.750195509488785,2.416678604941849,1.351970923369322
-0.835931029082893,2.363014511049222,1.463480764313254
0.7708325553798087,2.401941162928198,1.335264539204286
-0.6797738207568904,2.311121636042777,1.712880945666878
0.6047810960207329,2.311121636042777,1.712880945666878
0.636175328795267,2.347733966739301,1.60884901058399
-0.7111680535314243,2.347733966739301,1.60884901058399
-0.7539661439408423,2.289793209421289,1.689814387789751
0.721139141639732,2.326833281641818,1.589629382636482
-0.6597841302603451,2.185200831149882,1.792578035565088
0.5847914055241876,2.185200831149882,1.792578035565088
0.5864471565253739,2.25681712979113,1.773343153153421
-0.6614398812615314,2.25681712979113,1.773343153153421
-0.7229121175355751,2.163381170068994,1.766553742462222
0.6534097646036073,2.235307786480402,1.747611257805075
-0.6676874740486639,2.045139192548808,1.796893555717003
0.5926947493125067,2.045139192548808,1.796893555717003
0.5887300838585923,2.112431433121467,1.795839170586343
-0.6637228085947498,2.112431433121467,1.795839170586343
-0.7295348792627983,2.023706962897866,1.771329642999443
0.650476106155941,2.090608182593972,1.770133863288716
-0.6755852873857686,1.916350859922457,1.79980370806394
0.6005925626496114,1.916350859922457,1.79980370806394
0.59663227661235,1.980425930115318,1.798021608272239
-0.6716250013485072,1.980425930115318,1.798021608272239
-0.7386098927769814,1.895972166535523,1.77450005858932
0.6590682352546203,1.959518966258833,1.772605105496649
-0.6839857836912389,1.786167628455176,1.801906887204872
0.6089930589550816,1.786167628455177,1.801906887204872
0.6047285264808491,1.851930589489733,1.801120197400707
-0.6797212512170062,1.851930589489733,1.801120197400707
-0.7482471600870384,1.766852933630688,1.775971477620966
0.66836389494404,1.832081056167086,1.775630093993179
-0.6919196188535715,1.647309338454536,1.80497925905524
0.6169268941174141,1.647309338454536,1.80497925905524
0.6131390227137874,1.718050388575342,1.803155057012496
-0.688131747449945,1.718050388575342,1.803155057012496
-0.7573389335141622,1.629120334938886,1.778524117394349
0.6780058859757874,1.69928790344151,1.776861149582434
-0.6976625125911335,1.501246198519927,1.807878046897648
0.6226697878549761,1.501246198519927,1.807878046897648
0.6201247632453782,1.574417003544812,1.80661731826037
-0.6951174879815357,1.574417003544812,1.80661731826037
-0.7639312414536432,1.484241101536471,1.781252743993539
0.6860142309615851,1.556818862286305,1.780073455980487
-0.7015516542046665,1.366011135300177,1.810814288704345
0.6265589294685091,1.366011135300177,1.810814288704344
0.6246681933813838,1.431070027275345,1.809141244579333
-0.6996609181175413,1.431070027275345,1.809141244579333
-0.7684024828366374,1.349844313249909,1.783971690650467
0.6912373672235683,1.414633650631298,1.782436063815114
-0.705784046822364,1.238725245797857,1.815295045393049
0.6307913220862066,1.238725245797857,1.81529504539305
0.6288512096340725,1.305397819703792,1.813066564652836
-0.7038439343702301,1.305397819703792,1.813066564652836
-0.7732507600002041,1.22203686165747,1.787929777337091
0.6960370855451591,1.288949191896562,1.78597309026422
-0.6955778917079089,0.6273522864475946,1.820248001174722
0.6205851669717515,0.6273522864475946,1.820248001174722
0.6243124981932864,0.7940331063762173,1.819483094870988
-0.6993052229294436,0.7940331063762173,1.819483094870988
-0.7612391778570387,0.6143026008967778,1.793669585822416
0.6920135943061406,0.7797650145328159,1.792179586213997
-0.6883957626880565,0.2861758325702118,1.815977617982328
0.6134030379518991,0.2861758325702118,1.815977617982328
0.6169065077416205,0.4500390671009851,1.819350596356189
-0.6918992324777779,0.4500390671009852,1.819350596356189
-0.7525467689092078,0.2759026668264659,1.789176325468007
0.6809978403223129,0.4384311099772068,1.79301979001884
-0.6856649027046144,-0.03826528492543517,1.804950383638301
0.6106721779684572,-0.03826528492543517,1.804950383638301
0.6111375534935807,0.1238392677371876,1.81153680993918
-0.6861302782297378,0.1238392677371876,1.81153680993918
-0.750244374489938,-0.04583366948343075,1.777699977861849
0.6756220425697189,0.114889368082756,1.784278758470727
-0.6898980763447441,-0.3288630305056586,1.77254381624929
0.6149053516085868,-0.3288630305056586,1.77254381624929
0.6120683626891199,-0.1908038253542643,1.792655018016757
-0.6870610874252772,-0.1908038253542643,1.792655018016757
-0.7549023864024065,-0.3334623650349708,1.747366566287532
0.6768355163115359,-0.1968883089693106,1.766046195010266
-0.6965959117123439,-0.564848300485197,1.708506862643064
0.6216031869761868,-0.5648483004851971,1.708506862643064
0.6182801813203022,-0.4519502543557277,1.74396630574831
-0.6932729060564593,-0.4519502543557277,1.74396630574831
-0.7609010824423215,-0.5672344288318119,1.688860721874429
0.6831534740781493,-0.4553096039033693,1.721153193067864
-0.7026805476471868,-0.795895274848051,1.626688513916633
0.6276878229110294,-0.7958952748480511,1.626688513916633
0.6245980022866382,-0.6776154220794085,1.669984711779633
-0.6995907270227956,-0.6776154220794084,1.669984711779633
-0.7655632852310885,-0.7961097620644942,1.614455279210229
0.6881777326079223,-0.6790918801119523,1.653906344379343
-0.7136774371149297,-1.041450468690699,1.509625698883191
0.6386847123787721,-1.041450468690699,1.509625698883191
0.6319954064577087,-0.9209169170251609,1.571376365725223
-0.7069881311938662,-0.9209169170251607,1.571376365725223
-0.7754161977725811,-1.036567102698865,1.505814854296149
0.6943013447325791,-0.9188886430391918,1.563420771950219
-0.7376926325406314,-1.196011908089198,1.425659531326361
0.6626999078044742,-1.196011908089198,1.425659531326361
0.6489609019700641,-1.133807111770554,1.459833280074959
-0.7239536267062214,-1.133807111770554,1.459833280074959
-0.7975336259136012,-1.188043874018531,1.425660123606552
0.7098292174721939,-1.126821732019402,1.458748344058562
-0.769231616628847,-1.297916394221396,1.365944035227237
0.6942388918926895,-1.297916394221396,1.365944035227237
0.6784484337319374,-1.247803799369695,1.396028530004646
-0.7534411584680949,-1.247803799369695,1.396028530004647
-0.8289031790815258,-1.289196560475357,1.365879871138087
0.737710898361555,-1.239339623755826,1.396317139867766
-0.7905126727856291,-1.386316740282878,1.308526295990422
0.7155199480494718,-1.386316740282878,1.308526295990422
0.7075894027172663,-1.34407796813994,1.336489487861725
-0.7825821274534239,-1.34407796813994,1.336489487861725
-0.8562205623048668,-1.378137296784232,1.304725351717497
0.7691296855611857,-1.335483747605693,1.334902327081633
-0.7823018228124493,-1.467449102540777,1.259543966113638
0.7073090980762921,-1.467449102540777,1.259543966113637
0.7145523711463776,-1.426960873469674,1.282693834910357
-0.7895450958825349,-1.426960873469674,1.282693834910356
-0.8655257890081057,-1.459869433268637,1.254066627956765
0.7879332850550433,-1.419160367857205,1.277476623419745
-0.7779040125865744,-1.551142332078787,1.220973555169038
0.7029112878504171,-1.551142332078787,1.220973555169038
0.7025131377187606,-1.508330734357626,1.239541037287454
-0.7775058624549177,-1.508330734357626,1.239541037287454
-0.8748727110346196,-1.543887211788806,1.21573332777559
0.793872873035844,-1.500894278060349,1.234188658491267
-0.7821736222526945,-1.644915990391625,1.178474665622028
0.7071808975165372,-1.644915990391625,1.178474665622027
0.7052741351449849,-1.598407715159953,1.199954185545672
-0.7802668598811424,-1.598407715159954,1.199954185545672
-0.889711600352499,-1.638403999239901,1.173413750723995
0.8075632561468491,-1.591523068525124,1.194788568151704
-0.7818445771827596,-1.715114368022058,1.147267685578977
0.7068518524466023,-1.715114368022058,1.147267685578977
0.7077380019173414,-1.682765431064489,1.161569288361968
-0.7827307266534987,-1.682765431064489,1.161569288361968
-0.8959423161548611,-1.708451338341467,1.142688049924311
0.8193434660414303,-1.676299652857319,1.15673564611017
-0.7393167614856464,-2.013148865652056,0.9628731471560943
0.6643240367494891,-2.013148865652056,0.9628731471560943
0.685009223046482,-1.908215060952696,1.040948683776687
-0.7600019477826393,-1.908215060952695,1.040948683776687
-0.8324760643869611,-2.010416156799711,0.95315108642736
0.7957625063616822,-1.903182593773358,1.033361755256406
-0.8380974585796501,0.8664132361199868,1.756670070169236
0.7631047338434926,0.8664132361199868,1.756670070169236
-0.840548943250429,0.9430419555084246,1.756381333395217
0.7655562185142717,0.9430419555084246,1.756381333395217
-0.908157373975096,0.8963874504089194,1.696238867034555
0.8331646492389389,0.8963874504089193,1.696238867034555
-0.8412981900611568,1.010107987230293,1.755862104743867
0.7663054653249994,1.010107987230293,1.755862104743867
-0.8411182538672493,1.099131954826335,1.754872536444069
0.7661255291310921,1.099131954826335,1.754872536444069
-0.908856171498066,1.052615197743831,1.695153724499317
0.8338634467619088,1.052615197743831,1.695153724499316
-0.9669297474410983,-1.819381716291456,1.070546364654094
0.891937022704941,-1.819381716291456,1.070546364654094
-0.9755543195591947,-1.756403437174357,1.104640774272102
0.9005615948230374,-1.756403437174357,1.104640774272102
-1.011144183121112,-1.780566471335016,1.064458119521404
0.9361514583849553,-1.780566471335016,1.064458119521403
-0.9122288128062148,2.349832536485594,1.42259236371464
0.8372360880700578,2.349832536485595,1.42259236371464
-0.9151424274999057,2.397790252667323,1.283327218468917
0.8401497027637485,2.397790252667323,1.283327218468917
-0.9464083923795532,2.406636383642905,1.204460750385075
0.871415667643396,2.406636383642905,1.204460750385075
-0.8203025644630595,2.265640844883921,1.664059451275474
0.7453098397269022,2.265640844883921,1.664059451275474
-0.8648175955815391,2.30584547221147,1.565379513867713
0.7898248708453819,2.30584547221147,1.565379513867713
-0.9120576965177641,2.29151004118459,1.519931160774734
0.837064971781607,2.29151004118459,1.519931160774734
-0.7872237551609196,2.132075152039296,1.734209770658083
0.7122310304247622,2.132075152039296,1.734209770658083
-0.7938051145277201,2.208056518867592,1.716987525866574
0.7188123897915628,2.208056518867592,1.716987525866574
-0.8575230158314895,2.181601139889375,1.663610177140811
0.7825302910953321,2.181601139889375,1.663610177140811
-0.7934211696659661,1.989577896073299,1.738709203838814
0.7184284449298088,1.989577896073299,1.738709203838814
-0.7892341100565109,2.056824195788016,1.737462901755496
0.7142413853203535,2.056824195788016,1.737462901755496
-0.8566684881550731,2.018681612946073,1.680564653671888
0.781675763418916,2.018681612946073,1.680564653671888
-0.8031477524338155,1.862579314951779,1.74202993889741
0.7281550276976583,1.862579314951779,1.74202993889741
-0.7982792911983766,1.925757293425256,1.740136530162546
0.7232865664622193,1.925757293425256,1.740136530162546
-0.8660387792630229,1.886699247864227,1.68324816607166
0.7910460545268655,1.886699247864227,1.68324816607166
-0.8134110777377982,1.734200465887666,1.742493798864431
0.7384183530016409,1.734200465887666,1.742493798864432
-0.8082107517233391,1.799056774338539,1.742771693130333
0.7332180269871818,1.799056774338539,1.742771693130333
-0.8759497911209593,1.760052234826164,1.685216923696598
0.8009570663848021,1.760052234826164,1.685216923696598
-0.82304995213053,1.59725011156003,1.744840443289234
0.7480572273943726,1.59725011156003,1.744840443289234
-0.8184501094678391,1.667019164517749,1.743078005019006
0.7434573847316819,1.667019164517749,1.743078005019006
-0.8860141664000075,1.628171128368315,1.684657481464594
0.8110214416638503,1.628171128368315,1.684657481464593
-0.8300873174782828,1.453192869380511,1.747762697437463
0.7550945927421254,1.453192869380511,1.747762697437463
-0.8269534371693612,1.525359014758402,1.746531628146173
0.7519607124332037,1.525359014758401,1.746531628146173
-0.8944168497204725,1.486692418902885,1.688545975097569
0.8194241249843152,1.486692418902885,1.688545975097569
-0.8348899160450553,1.318850654175704,1.75048176698368
0.7598971913088979,1.318850654175704,1.750481766983679
-0.8325622674017045,1.38397995821776,1.749005412387339
0.7575695426655472,1.383979958217759,1.749005412387339
-0.9001555700905568,1.345492782319931,1.691360814449338
0.8251628453543995,1.345492782319931,1.691360814449338
-0.84002206571609,1.187494115020044,1.753606583606428
0.7650293409799329,1.187494115020044,1.753606583606428
-0.8376774536448827,1.256179344861488,1.752115993034574
0.7626847289087255,1.256179344861488,1.752115993034574
-0.9053579193568619,1.213833437535312,1.693758175170212
0.8303651946207047,1.213833437535312,1.693758175170212
-0.8264863038010024,0.5815835680143284,1.759060743576603
0.7514935790648453,0.5815835680143284,1.759060743576603
-0.8332089131841759,0.7461552614783016,1.757606328214367
0.7582161884480185,0.7461552614783016,1.757606328214367
-0.9004056970298057,0.6999300903382604,1.69744019334292
0.8254129722936483,0.6999300903382604,1.69744019334292
-0.8176876864911246,0.2451522164742705,1.754343388107881
0.7426949617549672,0.2451522164742706,1.754343388107881
-0.8207709454169649,0.4067296754910235,1.758350578142559
0.7457782206808079,0.4067296754910235,1.758350578142559
-0.8900410548956572,0.3607982421925828,1.696396600760132
0.8150483301595,0.3607982421925828,1.696396600760132
-0.8158426309552053,-0.0743800663243797,1.740538065248178
0.7408499062190481,-0.0743800663243797,1.740538065248178
-0.8161269006867538,0.08508501381592952,1.748571873820424
0.7411341759505964,0.08508501381592952,1.748571873820424
-0.8862215189163711,0.03963442981912052,1.685937326579893
0.8112287941802141,0.03963442981912053,1.685937326579892
-0.8205741333282959,-0.3571879250285394,1.708785324377628
0.7455814085921388,-0.3571879250285394,1.708785324377628
-0.8174525895359122,-0.2232931144792773,1.727713321979269
0.7424598647997549,-0.2232931144792773,1.727713321979269
-0.8873410202171028,-0.2656660999775919,1.660348623957328
0.8123482954809456,-0.2656660999775919,1.660348623957328
-0.8262865364136365,-0.5880670155006053,1.653731851096474
0.7512938116774792,-0.5880670155006053,1.653731851096474
-0.8238242638917678,-0.4770819961990982,1.683658073582989
0.7488315391556106,-0.4770819961990982,1.683658073582989
-0.8933172904103071,-0.5139142956677828,1.615595760537602
0.8183245656741497,-0.5139142956677828,1.615595760537602
-0.82854048233587,-0.8140230915954981,1.586522554238979
0.7535477575997129,-0.8140230915954982,1.586522554238979
-0.8275110597091091,-0.6993088597254314,1.621903218780588
0.752518334972952,-0.6993088597254314,1.621903218780588
-0.895767802629359,-0.735382487086959,1.558749778966528
0.8207750778932018,-0.735382487086959,1.558749778966528
-0.8386135730171126,-1.0363173016856,1.490275008648144
0.7636208482809553,-1.0363173016856,1.490275008648144
-0.8319099925940812,-0.9294749597622773,1.541394050816434
0.7569172678579239,-0.9294749597622775,1.541394050816434
-0.8979221516920378,-0.9509574185375296,1.489389809024872
0.8229294269558808,-0.9509574185375295,1.489389809024872
-0.8601376748355732,-1.176578468198774,1.413970230519983
0.7851449500994159,-1.176578468198774,1.413970230519983
-0.8481040003715425,-1.118590543633655,1.4468758346597
0.7731112756353852,-1.118590543633655,1.4468758346597
-0.9155910499497351,-1.109600002579881,1.408311761203361
0.8405983252135778,-1.109600002579881,1.408311761203361
-0.8911358899570795,-1.276750772198702,1.351050885856035
0.8161431652209221,-1.276750772198701,1.351050885856035
-0.8747746199990309,-1.226808214297432,1.383395192641165
0.7997818952628735,-1.226808214297432,1.383395192641165
-0.941406991919195,-1.21216586424313,1.343695273732652
0.8664142671830375,-1.21216586424313,1.343695273732652
-0.9220484200822354,-1.370514015193074,1.283040307052072
0.8470556953460781,-1.370514015193074,1.283040307052072
-0.9074035693102214,-1.324820983524254,1.316900643417998
0.832410844574064,-1.324820983524254,1.316900643417999
-0.9726780770625054,-1.314640827197648,1.271187880865958
0.8976853523263479,-1.314640827197648,1.271187880865958
-0.9427801673289347,-1.457283113377992,1.230174657364195
0.8677874425927774,-1.457283113377992,1.230174657364195
-0.9338298817201778,-1.414405359421459,1.253698226954882
0.8588371569840203,-1.414405359421459,1.253698226954882
-0.9985532786123587,-1.414432005583589,1.204869465809918
0.9235605538762013,-1.414432005583589,1.204869465809918
-0.9572676126379256,-1.545204599450037,1.192875626608182
0.8822748879017682,-1.545204599450037,1.192875626608182
-0.9502042636712238,-1.500147979183536,1.210841756558923
0.8752115389350664,-1.500147979183536,1.210841756558924
-1.012707299823174,-1.507246766995874,1.164592056742721
0.9377145750870169,-1.507246766995874,1.164592056742721
-0.9721314250987584,-1.64575059882139,1.151338204819719
0.8971387003626011,-1.64575059882139,1.151338204819719
-0.9649961112480853,-1.595861557280526,1.172256313371291
0.8900033865119279,-1.595861557280526,1.172256313371291
-1.016842727801289,-1.611828070809369,1.127473616739534
0.9418500030651317,-1.611828070809368,1.127473616739534
-0.9779586760623886,-1.717225972782617,1.122711828399873
0.9029659513262314,-1.717225972782617,1.122711828399873
-0.9766077467392327,-1.684973021388623,1.135651456084394
0.9016150220030754,-1.684973021388623,1.135651456084394
-1.017347767901232,-1.708558326639901,1.092955405114885
0.9423550431650747,-1.708558326639901,1.092955405114885
-0.8877904436243712,-2.033317783759147,0.9164817131846776
0.812797718888214,-2.033317783759147,0.9164817131846775
-0.9452594905661156,-1.920594568481656,1.002810484979724
0.8702667658299583,-1.920594568481656,1.002810484979724
-0.9689144840061778,-1.955195198680708,0.9523623401510644
0.8939217592700204,-1.955195198680708,0.9523623401510643
-0.9735117406210541,2.350945726280845,1.268529881021441
0.8985190158848967,2.350945726280845,1.268529881021441
-0.9567863370081575,2.417400788255588,1.128168383071748
0.8817936122720002,2.417400788255588,1.128168383071748
-0.9638132342161584,2.426443593767182,1.063465402080564
0.8888205094800011,2.426443593767182,1.063465402080564
-0.9332903534534603,2.235067420577666,1.501436073539848
0.858297628717303,2.235067420577666,1.501436073539848
-0.9523402353809074,2.287803893841862,1.412742488933576
0.8773475106447501,2.287803893841862,1.412742488933576
-0.9886177581601525,2.293069313961505,1.260374242368688
0.9136250334239952,2.293069313961505,1.260374242368688
-0.9247942312898549,2.077040149351519,1.558440959621895
0.8498015065536977,2.077040149351519,1.558440959621895
-0.923929202304834,2.165317920879553,1.545077005941848
0.8489364775686767,2.165317920879553,1.545077005941848
-0.9847986893604785,2.160660901585523,1.377257953528947
0.9098059646243213,2.160660901585523,1.377257953528947
-0.9343217229029497,1.925898888691592,1.561761218288309
0.8593289981667924,1.925898888691593,1.561761218288309
-0.9293932316520557,1.994622000810256,1.56061291044303
0.8544005069158984,1.994622000810256,1.56061291044303
-0.9963423393904578,1.988804996318642,1.393238782906495
0.9213496146543005,1.988804996318642,1.393238782906495
-0.9441226233908754,1.798727053845103,1.564591130130934
0.869129898654718,1.798727053845102,1.564591130130934
-0.9392629528220311,1.862153745050494,1.563137627060799
0.8642702280858738,1.862153745050494,1.563137627060799
-1.006860081413058,1.85666177866298,1.395433651879803
0.9318673566769009,1.85666177866298,1.395433651879803
-0.953943695273319,1.670164260752083,1.563402400286195
0.8789509705371617,1.670164260752083,1.563402400286195
-0.949028890793138,1.735016850936741,1.564567970336512
0.8740361660569807,1.735016850936741,1.564567970336512
-1.016609448775902,1.728820467243638,1.396567596087784
0.941616724039745,1.728820467243638,1.396567596087784
-0.9630210906485106,1.533358756831023,1.564790179992206
0.8880283659123536,1.533358756831023,1.564790179992206
-0.9586627611367617,1.603053496283149,1.563316682359515
0.8836700364006045,1.603053496283149,1.563316682359515
-1.025889424452024,1.596768574318937,1.394954538370946
0.9508966997158663,1.596768574318937,1.394954538370946
-0.9702102236971651,1.389454271464058,1.568069074774314
0.8952174989610077,1.389454271464058,1.568069074774314
-0.9668929640333115,1.461544228005843,1.566559357676207
0.8919002392971542,1.461544228005843,1.566559357676207
-1.034127274073955,1.455253671274632,1.396525843149716
0.9591345493377973,1.455253671274632,1.396525843149716
-0.9755568862258792,1.253631804843837,1.570354773038291
0.900564161489722,1.253631804843837,1.570354773038291
-0.9729622742273284,1.320313424908422,1.56947258552018
0.897969549491171,1.320313424908422,1.569472585520179
-1.040793730917154,1.314018274227896,1.399095561230977
0.9658010061809964,1.314018274227896,1.399095561230977
-0.9811046626511641,1.112673019235959,1.569725863190052
0.9061119379150067,1.112673019235959,1.569725863190052
-0.9785497547112823,1.18616691421445,1.570231288145166
0.903557029975125,1.18616691421445,1.570231288145166
-1.047083913752953,1.179693954585922,1.397796495089911
0.9720911890167953,1.179693954585922,1.397796495089911
-0.9830066330937028,0.9330937583973715,1.56951251272231
0.9080139083575457,0.9330937583973716,1.56951251272231
-0.9825150089918324,1.022394422534215,1.569492401104149
0.9075222842556752,1.022394422534215,1.569492401104149
-1.051887300995964,1.016025837666612,1.394885629977537
0.9768945762598066,1.016025837666612,1.394885629977537
-0.9801241901701293,0.789859091158257,1.570319784634362
0.9051314654339722,0.789859091158257,1.570319784634362
-0.9824198700041393,0.8661671886508564,1.569751407819452
0.9074271452679821,0.8661671886508564,1.569751407819452
-1.053061259991561,0.8602097754906595,1.394173894833661
0.9780685352554038,0.8602097754906594,1.394173894833661
-0.9726772063832403,0.5048913628863956,1.569529214161766
0.897684481647083,0.5048913628863956,1.569529214161766
-0.9764184186074614,0.6697871017800002,1.57061788597066
0.901425693871304,0.6697871017800002,1.57061788597066
-1.050588558102043,0.6636923593328405,1.394590412721518
0.9755958333658861,0.6636923593328404,1.394590412721518
-0.9682074713246682,0.1682666661266782,1.563369941608654
0.8932147465885109,0.1682666661266782,1.563369941608654
-0.969870514214465,0.3297322215234243,1.56721854293329
0.8948777894783078,0.3297322215234244,1.56721854293329
-1.047785710655592,0.3221159036554085,1.389520691924133
0.9727929859194355,0.3221159036554086,1.389520691924133
-0.9670734002654271,-0.1498779522187814,1.544913073984062
0.8920806755292698,-0.1498779522187814,1.544913073984063
-0.9672835309722376,0.008455309746235186,1.556167588258922
0.8922908062360804,0.008455309746235189,1.556167588258923
-1.046629527758156,0.0006605297280138645,1.378476984666804
0.9716368030219986,0.0006605297280138679,1.378476984666804
-0.9697475279592183,-0.4234777720458848,1.511930780956624
0.894754803223061,-0.4234777720458848,1.511930780956624
-0.9679310401623554,-0.2950459420202024,1.53002540291294
0.8929383154261981,-0.2950459420202024,1.53002540291294
-1.046725988796301,-0.302390902530855,1.357389597466549
0.9717332640601435,-0.302390902530855,1.357389597466549
-0.9734199164909372,-0.6497312779581594,1.468203376324304
0.8984271917547799,-0.6497312779581594,1.468203376324304
-0.9719510572902885,-0.5397188448197111,1.491062615808384
0.8969583325541313,-0.5397188448197111,1.491062615808384
-1.047704848830944,-0.5461699821076933,1.330746028489722
0.972712124094787,-0.5461699821076933,1.330746028489722
-0.9703987346897269,-0.8702604323450052,1.418807012522354
0.8954060099535697,-0.8702604323450052,1.418807012522354
-0.9724824885976333,-0.7608939041703029,1.444484592523287
0.8974897638614761,-0.7608939041703029,1.444484592523287
-1.045871089523198,-0.7672534610022952,1.299023575690194
0.9708783647870407,-0.7672534610022952,1.299023575690194
-0.9764429116878509,-1.039328950460019,1.353515813988516
0.9014501869516935,-1.039328950460019,1.353515813988517
-0.9713601938894489,-0.9645594475509212,1.387840602536645
0.8963674691532916,-0.9645594475509212,1.387840602536645
-1.041084587246371,-0.9649189198167012,1.256087374237677
0.9660918625102135,-0.9649189198167012,1.256087374237677
-0.9920124523290169,-1.149668025581984,1.296149326581623
0.9170197275928596,-1.149668025581985,1.296149326581623
-0.9836074399448049,-1.098916357347578,1.323023583507536
0.9086147152086476,-1.098916357347578,1.323023583507536
-1.041701512130034,-1.08828002026055,1.208585761846574
0.9667087873938761,-1.08828002026055,1.208585761846574
-1.013076263891374,-1.253235086432786,1.229191429141523
0.938083539155217,-1.253235086432785,1.229191429141523
-1.002014744318027,-1.199929253624728,1.265272937557049
0.9270220195818696,-1.199929253624728,1.265272937557049
-1.047249337354983,-1.192363440805306,1.165179241882129
0.9722566126188256,-1.192363440805306,1.165179241882129
-1.033116611288723,-1.363251712801245,1.161233581635654
0.958123886552566,-1.363251712801245,1.161233581635654
-1.023764111530598,-1.308310315458625,1.193118932404194
0.9487713867944411,-1.308310315458625,1.193118932404195
-1.05380071772107,-1.306337110309585,1.100782785312623
0.9788079929849122,-1.306337110309585,1.100782785312623
-1.045578827607421,-1.4648831947926,1.118884210008387
0.9705861028712635,-1.4648831947926,1.118884210008387
-1.040643310790259,-1.415528031206174,1.136677514347933
0.9656505860541016,-1.415528031206174,1.136677514347933
-1.057667946119643,-1.41580203761182,1.064717133434466
0.982675221383486,-1.41580203761182,1.064717133434467
-1.044928174928308,-1.564617052212042,1.08741972336152
0.9699354501921507,-1.564617052212042,1.08741972336152
-1.046882849260129,-1.513336299053372,1.103578490039694
0.9718901245239722,-1.513336299053372,1.103578490039693
-1.056075778410119,-1.514858682067746,1.041074483550461
0.9810830536739612,-1.514858682067746,1.04107448355046
-1.037418380106175,-1.682900441947044,1.048433031503157
0.9624256553700178,-1.682900441947044,1.048433031503157
-1.041500715451881,-1.624165775222869,1.068001826390526
0.966507990715724,-1.624165775222869,1.068001826390526
-1.047712754247911,-1.627250201326244,1.006417654047408
0.9727200295117537,-1.627250201326244,1.006417654047407
-1.027922862798231,-1.759262010133166,1.022558000855279
0.9529301380620737,-1.759262010133166,1.022558000855279
-1.032751080177713,-1.726271833186308,1.034140155888653
0.9577583554415561,-1.726271833186308,1.034140155888653
-1.036593049632822,-1.730700209822909,0.971598047158261
0.9616003248966647,-1.730700209822909,0.971598047158261
-1.010105804883546,-1.864094447853779,0.9724266934430003
0.9351130801473887,-1.864094447853779,0.9724266934430003
-1.022382444522546,-1.798759315358235,1.006023092772015
0.9473897197863886,-1.798759315358235,1.006023092772015
-1.02513378816866,-1.80330752636404,0.9416515831255059
0.9501410634325024,-1.80330752636404,0.9416515831255059
-0.8927299802544814,-2.102481272322254,0.8039725835172115
0.817737255518324,-2.102481272322254,0.8039725835172115
-0.9730885637336477,-1.976204555793172,0.8975322317990735
0.8980958389974905,-1.976204555793172,0.8975322317990735
-0.9738083544571026,-1.981456895071288,0.8435627588419969
0.8988156297209452,-1.981456895071288,0.8435627588419971
-1.044660425842101,0.8672958236293229,0.3877021497204267
0.9696677011059434,0.8672958236293229,0.3877021497204267
-1.045041073942791,0.7911816086316267,0.3876386269582618
0.9700483492066336,0.7911816086316268,0.3876386269582618
-1.090395136873841,0.7888236777931875,0.5404119943215499
1.015402412137684,0.7888236777931876,0.5404119943215499
-1.10147434809225,1.019464542639469,0.8109526920431973
1.026481623356093,1.019464542639469,0.8109526920431975
-1.097438567265622,1.019495433889781,0.698642209007011
1.022445842529465,1.019495433889781,0.698642209007011
-1.098925877737898,0.9311610726979052,0.6985056595024978
1.023933153001741,0.9311610726979052,0.6985056595024977
-1.104696201090802,0.9308453475884997,1.020416878154128
1.029703476354645,0.9308453475884997,1.020416878154128
-1.103202362235724,1.019205681025899,1.020547835970057
1.028209637499566,1.019205681025899,1.020547835970057
-1.102831465469569,1.019464542639469,0.9129404347460292
1.027838740733411,1.019464542639469,0.912940434746029
-1.094142418937858,0.9285794538885919,1.24419806559967
1.019149694201701,0.9285794538885918,1.24419806559967
-1.092732112542452,1.017347885537993,1.245042853775013
1.017739387806294,1.017347885537993,1.245042853775013
-1.103092815604219,1.01842909618519,1.130449222073383
1.028100090868061,1.01842909618519,1.130449222073383
-1.042496466646169,1.022406634645529,0.3884138034152655
0.9675037419100114,1.022406634645529,0.3884138034152654
-1.043910240047968,0.9337500715809453,0.3878273474478579
0.9689175153118105,0.9337500715809455,0.3878273474478578
-1.089221002872138,0.9311610726979052,0.5405270950294734
1.014228278135981,0.9311610726979053,0.5405270950294734
-1.096006551972533,1.180979685482639,0.8110308947396523
1.021013827236375,1.180979685482639,0.8110308947396523
-1.092083164298777,1.181248969146459,0.700467609609997
1.017090439562619,1.181248969146459,0.7004676096099969
-1.095230685689539,1.10880824684319,0.6991871523032327
1.020237960953382,1.10880824684319,0.6991871523032328
-1.100966811929374,1.10840751695513,1.02076379797442
1.025974087193216,1.10840751695513,1.02076379797442
-1.097728558313139,1.180882897011946,1.02107370338264
1.022735833576982,1.180882897011946,1.021073703382641
-1.097363979194343,1.180979685482638,0.9129616700908585
1.022371254458185,1.180979685482638,0.9129616700908585
-1.090557269557199,1.107083463375396,1.24646129664194
1.015564544821041,1.107083463375396,1.24646129664194
-1.087361184719999,1.18018826694507,1.248511437393285
1.012368459983842,1.18018826694507,1.248511437393285
-1.097599240161379,1.180592531599867,1.132541247803299
1.022606515425222,1.180592531599867,1.132541247803299
-0.9663626206280223,-1.80698934721232,0.3782372230764639
0.8913698958918651,-1.80698934721232,0.378237223076464
-0.9544889616755284,-1.871370891043632,0.3755690511871785
0.8794962369393712,-1.871370891043632,0.3755690511871785
-0.9936479076895748,-1.868440648638016,0.471296650076915
0.9186551829534174,-1.868440648638016,0.4712966500769149
-1.031678791514568,-1.730700209822909,0.6834634462720304
0.9566860667784106,-1.730700209822909,0.6834634462720303
-1.027455530156729,-1.730783877894308,0.6079500504141507
0.9524628054205716,-1.730783877894308,0.6079500504141506
-1.021182645408843,-1.763747007638496,0.5971580783992291
0.9461899206726858,-1.763747007638496,0.597158078399229
-1.029879532380796,-1.763771086515323,0.8155280742438988
0.9548868076446386,-1.763771086515323,0.815528074243899
-1.035718288562296,-1.730700209822909,0.8278267145274815
0.9607255638261389,-1.730700209822909,0.8278267145274815
-1.034162058322292,-1.730700209822909,0.7565123565009588
0.9591693335861347,-1.730700209822909,0.7565123565009588
-1.03096252862066,-1.763771086515323,0.9073673226783554
0.9559698038845026,-1.763771086515323,0.9073673226783554
-1.03654943096321,-1.730700209822909,0.9215723312560712
0.9615567062270527,-1.730700209822909,0.9215723312560712
-1.036369161221873,-1.730700209822909,0.8806673343684852
0.9613764364857158,-1.730700209822909,0.8806673343684852
-0.943757973773917,1.974806299349953,0.2501287528273936
0.8687652490377597,1.974806299349953,0.2501287528273936
-0.973697966035888,1.922583984619343,0.2156519045772319
0.8987052412997306,1.922583984619343,0.2156519045772319
-1.014263033705158,1.922049122505262,0.2913099258122227
0.9392703089690012,1.922049122505262,0.2913099258122227
-0.974287885407641,1.861311880343241,0.1789510684952389
0.8992951606714836,1.861311880343241,0.1789510684952389
-0.975158734139332,1.797663992087599,0.1493582946881785
0.9001660094031748,1.797663992087599,0.1493582946881785
-1.019790175705692,1.79316384103605,0.2564468734059301
0.9447974509695347,1.79316384103605,0.2564468734059301
-0.9765778988828102,1.733202066603572,0.1269171866555423
0.901585174146653,1.733202066603572,0.1269171866555423
-0.9784124303987267,1.668014069330972,0.1128412752789918
0.9034197056625697,1.668014069330972,0.1128412752789918
-1.026305065338922,1.663847858668232,0.237549402154315
0.9513123406027648,1.663847858668232,0.237549402154315
-0.9801290435565362,1.600714184398266,0.1095140188223582
0.905136318820379,1.600714184398266,0.1095140188223583
-0.9825279637025473,1.530839711548767,0.1183589828604773
0.90753523896639,1.530839711548767,0.1183589828604773
-1.035408102320382,1.527026822024972,0.2395202778412016
0.9604153775842249,1.527026822024972,0.2395202778412017
-0.9877429266599237,1.458851066140633,0.1398398402791887
0.9127502019237664,1.458851066140634,0.1398398402791887
-0.9959779194289278,1.388660306728331,0.1716618261151891
0.9209851946927705,1.388660306728331,0.1716618261151892
-1.0476943687834,1.38404215873306,0.2651543160120643
0.9727016440472427,1.384042158733059,0.2651543160120642
-1.005507180186921,1.327631135062636,0.2087717375560321
0.9305144554507637,1.327631135062636,0.2087717375560321
-0.9832887841698117,1.287958822351797,0.2432237473421373
0.9082960594336544,1.287958822351798,0.2432237473421374
-1.031458095089069,1.267705948265754,0.2967654561988594
0.9564653703529118,1.267705948265754,0.2967654561988594
-0.9736567831926555,-1.08484063236713,0.2295441928074319
0.898664058456498,-1.08484063236713,0.2295441928074319
-0.9998567191212135,-1.115760168588242,0.2011409330347578
0.924863994385056,-1.115760168588242,0.2011409330347578
-1.042420063767176,-1.110010917308183,0.2802953898026883
0.9674273390310187,-1.110010917308183,0.2802953898026883
-0.9938731319938875,-1.164091260913627,0.1704956776196392
0.91888040725773,-1.164091260913627,0.1704956776196392
-0.9874108471021386,-1.219914482256765,0.1442223856710574
0.9124181223659813,-1.219914482256765,0.1442223856710574
-1.032586095701168,-1.218446261587004,0.2513324024498627
0.9575933709650102,-1.218446261587004,0.2513324024498627
