-0.6651892723918889,1.786517844417991,0.9812303733025058
1.017201910066204,1.815380034365208,1.028544631017033
-0.6316120938134955,1.815380034365209,1.028544631017033
1.020083236325936,1.756086905962291,1.030132625129042
-0.6344934200732277,1.756086905962291,1.030132625129042
1.053717920729751,1.669965039996453,0.9842557288482065
-0.6681281044770417,1.669965039996453,0.9842557288482063
1.020052329795373,1.698952563693078,1.032252514245701
-0.6344625135426645,1.698952563693078,1.032252514245701
1.017488395823443,1.645033461685065,1.032358112084808
-0.6318985795707346,1.645033461685065,1.032358112084808
1.049889061866362,1.566358880960718,0.9825473873588517
-0.6642992456136532,1.566358880960718,0.9825473873588516
1.015049054822371,1.596374715200796,1.026463202277796
-0.6294592385696625,1.596374715200796,1.026463202277796
1.005519933363481,1.549194940614568,1.023414749616616
-0.619930117110772,1.549194940614568,1.023414749616616
1.010051237080196,1.46651751758145,1.008720350543486
-0.6244614208274877,1.46651751758145,1.008720350543486
0.9718146641771959,1.493886255412428,1.044892900053739
-0.5862248479244874,1.493886255412428,1.044892900053739
0.9210931281919864,1.422966199896667,1.087528732670578
-0.5355033119392778,1.422966199896667,1.087528732670578
0.922982204892794,1.318832338693763,1.073830407628018
-0.5373923886400855,1.318832338693763,1.073830407628018
0.8847614545343661,1.331077737185815,1.12290425967749
-0.4991716382816574,1.331077737185815,1.12290425967749
0.8722574377594771,1.201756374543418,1.146132098593812
-0.4866676215067684,1.201756374543418,1.146132098593812
-0.4824018849581778,0.8380143402398999,1.198084578310952
0.8679917012108864,0.8380143402398997,1.198084578310952
-0.4842027598837845,1.027127869082708,1.17190118570989
0.8697925761364931,1.027127869082708,1.17190118570989
-0.5194361165674679,1.025420237566243,1.096752520052423
0.9050259328201764,1.025420237566243,1.096752520052423
0.8971826946734316,0.6322210313521084,1.12018557079889
-0.5115928784207231,0.6322210313521085,1.120185570798891
0.8636643365661052,0.633552698413631,1.218010987868673
-0.4780745203133966,0.633552698413631,1.218010987868672
0.8576864547752278,0.404344512519884,1.229342299203093
-0.4720966385225191,0.404344512519884,1.229342299203093
0.6496789474367442,-0.1302444106335789,0.3143342834125786
-0.1555702743214227,-0.1313325358512132,0.3117755183176352
0.6522392244087233,0.1321088768846041,0.3200993635342894
-0.1575171918980672,0.1319949088464356,0.3176254055957802
0.5431070081507756,0.1319949088464356,0.3176254055957802
-0.2666494081560152,0.1321088768846041,0.3200993635342894
0.1156439776759641,-0.1329881203186927,0.3078095177710138
0.4167698055166901,-0.1322177649512434,0.3096549263674404
0.1152128022597158,0.1319064268906314,0.3138434389713002
0.4180215398645156,0.1319475981814445,0.315603215259319
-0.03243172361180709,0.1319475981814445,0.315603215259319
0.2703770139929929,0.1319064268906314,0.3138434389713002
-0.3507020079171479,-0.1277329510385243,0.3200633353264111
0.7927014002632551,-0.1226682890227344,0.3284706965002798
-0.3537876039173405,0.1325779827927217,0.3257661326001899
0.796191598386552,0.1336858665837002,0.334152732824748
-0.410601782133843,0.1336858665837002,0.3341527328247481
0.7393774201700489,0.1325779827927217,0.3257661326001899
-0.6765063003432205,-0.3272931623343555,0.3935084032607494
1.062096116595929,-0.3272931623343555,0.3935084032607494
-0.6858123882409581,-0.5109517411589759,0.39661302058073
1.071402204493667,-0.510951741158976,0.39661302058073
-0.6861864550887227,-0.5109073590962791,0.4503080327579622
1.071776271341431,-0.5109073590962791,0.4503080327579622
0.1343312376768598,-0.1336560595916456,1.438926225331663
0.3625192978847892,-0.1328838655654276,1.431101896423825
0.1339074902310103,-0.3055484367656174,1.392597182774368
0.3637494682813031,-0.3043030688456715,1.385312429167837
0.02184034797140555,-0.3043030688456715,1.385312429167837
0.2516823260216983,-0.3055484367656174,1.392597182774368
0.5388658464134953,-0.1309059420466181,1.415093025521566
-0.07119033617087536,-0.131996523629795,1.422110820447605
0.5413832597849002,-0.3011492736893463,1.370457969832936
-0.0731037136949492,-0.3028719943447822,1.376941388799283
0.4586935299476576,-0.3028719943447822,1.376941388799284
-0.155793443532192,-0.3011492736893463,1.370457969832936
0.6404635442819817,-0.1233146934509046,1.420458319366202
-0.2180214395776636,-0.128389332597589,1.413788998429144
0.6439676622108363,-0.2896651361831045,1.376346528584849
-0.2210625798880312,-0.2973073631573919,1.369546391420972
0.6066523961407395,-0.2973073631573918,1.369546391420972
-0.2583778459581277,-0.2896651361831045,1.376346528584849
0.8225782064847855,0.2029727638047482,1.34050577393487
-0.4369883902320769,0.2029727638047483,1.34050577393487
0.7855205412912595,0.2240048394027212,1.399930668781721
-0.3999307250385507,0.2240048394027213,1.399930668781721
0.787847039092106,0.04235937832242005,1.384004945777372
-0.4022572228393974,0.04235937832242007,1.384004945777372
1.012537468784003,0.1451063616897903,0.9812016109615268
-0.6269476525312943,0.1451063616897904,0.9812016109615266
0.9786865216361251,0.1506719069736489,1.006677187842161
-0.5930967053834164,0.1506719069736489,1.006677187842161
0.9751076105709015,-0.08386135035865286,1.000757035926087
-0.5895177943181927,-0.08386135035865289,1.000757035926087
1.063992023873757,0.1369478917178139,0.8620476060604847
-0.6784022076210484,0.136947891717814,0.8620476060604847
1.048370632496499,0.1392827495949792,0.9374432128324519
-0.6627808162437902,0.1392827495949793,0.9374432128324517
1.0423619864892,-0.1106852383365183,0.9346710423448907
-0.6567721702364915,-0.1106852383365184,0.9346710423448905
1.066106208278744,0.1367259948838321,0.6665351000130887
-0.6805163920260355,0.1367259948838322,0.6665351000130887
1.065573324637287,0.1369412452644024,0.763105200748156
-0.6799835083845784,0.1369412452644024,0.763105200748156
1.061251000815387,-0.1147331919281132,0.7608859569140969
-0.6756611845626783,-0.1147331919281133,0.7608859569140969
1.061975205262679,-0.1158661897648788,0.5099973245600306
-0.6763853890099701,-0.1158661897648788,0.5099973245600307
1.066022910243765,0.1354479421242048,0.5121759059419286
-0.6804330939910568,0.1354479421242048,0.5121759059419286
1.066108467372096,0.1360869589542031,0.5815089730497439
-0.6805186511193868,0.1360869589542032,0.581508973049744
0.5810209771930109,-1.287936478609193,1.093190507145896
-0.1012656233375634,-1.292029636816775,1.089247698879765
0.5721446588246395,-1.342784825988637,1.082729919593662
-0.09431352513937669,-1.347568292936468,1.07876117970128
0.4799033413920851,-1.347568292936469,1.078761179701281
-0.1865548425719313,-1.342784825988637,1.082729919593662
0.5627296836700297,-1.40135324799301,1.069486646359051
-0.08694167017276977,-1.406868977344715,1.065488478047826
0.5527527095876006,-1.464088878779056,1.052659493480825
-0.07913168387003816,-1.470380851351497,1.048621563571664
0.4647215001227466,-1.470380851351498,1.048621563571664
-0.1671628933348923,-1.464088878779056,1.052659493480825
0.5428626121239507,-1.527938837526928,1.030356569339761
-0.0713919211513763,-1.535001199354011,1.026259908199668
0.5331879896973399,-1.592056506342331,1.002608760366092
-0.06382361760563285,-1.599873319128248,0.9984386643993273
0.4494134338583413,-1.599873319128248,0.9984386643993275
-0.1475981734446316,-1.59205650634233,1.002608760366092
0.5233371635976883,-1.657801530256518,0.9713697310394999
-0.05612088949031077,-1.666386521828998,0.9671286651787492
0.5136617032795684,-1.720812299254044,0.9388047432508101
-0.04855498200773113,-1.730126719230522,0.9344996175916969
0.4341447982604396,-1.730126719230523,0.9344996175916969
-0.1280718870268601,-1.720812299254044,0.9388047432508101
0.5052564263622038,-1.771005948272762,0.9072906563019888
-0.04197426930503292,-1.78087642372655,0.9029201027375914
0.4981258850377316,-1.81183873247668,0.8758043876258944
-0.03637237430267627,-1.822309080982579,0.8713831416610907
0.4219621905553848,-1.822309080982579,0.8713831416610907
-0.1125360687850233,-1.81183873247668,0.8758043876258944
0.4911843660712013,-1.860306027255964,0.8399229127862785
-0.03088816869444239,-1.871989069935875,0.8355061953520897
0.4849789717625735,-1.917221047656871,0.8015508959660112
-0.02594260472153768,-1.930536240334746,0.7971769414208142
0.4115324209742461,-1.930536240334746,0.7971769414208142
-0.09938915550986527,-1.917221047656871,0.8015508959660114
0.4816896199467193,-1.967214848381745,0.7689206899670823
-0.02323871517259361,-1.981625912738534,0.7645532740978207
0.4812836642809796,-2.009995207335675,0.7407481878201006
-0.02275242706281156,-2.024694324049056,0.7362616569714124
0.4083422433155201,-2.024694324049056,0.7362616569714126
-0.09569384802827131,-2.009995207335675,0.7407481878201007
0.4809153596329046,-2.050134226371895,0.7117473590429866
-0.02233332765020567,-2.064590944553,0.706803989595188
0.4798470460020436,-2.08549329589088,0.6733933213136616
-0.02147670191591513,-2.098887220649974,0.6685329817512768
0.4070665181686237,-2.098887220649973,0.6685329817512768
-0.09425722974933533,-2.085493295890879,0.6733933213136616
0.4799069476876482,-2.119484699302983,0.6174039762926523
-0.02155647553679825,-2.130864153646066,0.6144527937258577
0.4807540895809544,-2.145126565612446,0.5561135688443815
-0.02224269687138614,-2.15475420039939,0.555274566677593
0.4078325131240946,-2.15475420039939,0.5552745666775929
-0.09516427332824608,-2.145126565612446,0.5561135688443815
0.4811121943272226,-2.156037265945408,0.4967642859812972
-0.02253256347304949,-2.16499500722314,0.496455756707827
0.4811130965631384,-2.159632587328423,0.4436618765453686
-0.02253633204422016,-2.168491882383344,0.4429973239088794
0.4081261482969287,-2.168491882383343,0.4429973239088794
-0.09552328031042996,-2.159632587328423,0.4436618765453686
0.5265359943626833,-2.106432554123649,0.3351363212698689
-0.05826569479513881,-2.114275027570522,0.3328997901150402
0.6035602446332693,-1.994169606810649,0.3255899160311567
-0.1188300281696479,-2.000392490084846,0.3231967268130609
0.5044198444223564,-2.000392490084846,0.3231967268130609
-0.217970428380561,-1.994169606810649,0.3255899160311566
0.6640300101912076,-1.865530368477564,0.3255899160311566
-0.1663355064161434,-1.871029669337025,0.3231967268130609
0.6814866097470038,-1.76544122701624,0.3251424328621106
-0.1799843950892371,-1.77155424209183,0.3228753266482108
0.5655742113419455,-1.77155424209183,0.3228753266482108
-0.2958967934942958,-1.76544122701624,0.3251424328621106
0.6836369208028317,-1.702358677012446,0.323352500185927
-0.1816138135257293,-1.709074930409941,0.3215897259888112
0.6848295321150568,-1.665781463734999,0.3202452651116037
-0.1825175259697693,-1.672571268770581,0.3194089848901389
0.5681073422224777,-1.672571268770581,0.3194089848901389
-0.2992397158623488,-1.665781463734998,0.3202452651116037
0.6860547436942368,-1.626250583135767,0.3167659881952282
-0.1834459415728557,-1.632893604071517,0.3171140237924479
0.6876918392742422,-1.572397865550738,0.3132933373605133
-0.1846864661533023,-1.578840923253835,0.3148715369652135
0.5702762824060107,-1.578840923253835,0.3148715369652135
-0.3021020230215339,-1.572397865550738,0.3132933373605132
0.6895090863122553,-1.510945975700021,0.3096393878987973
-0.1860635021962386,-1.517160853301942,0.3122339925071329
0.691322886226955,-1.447649109850221,0.3063390321259076
-0.1874379261490476,-1.453628956677844,0.3096313230952402
0.573027742401756,-1.453628956677844,0.3096313230952402
-0.3057330699742468,-1.447649109850221,0.3063390321259076
0.6929977743985165,-1.387292995814441,0.3046499793821604
-0.1887070884213658,-1.393048731321147,0.3083709259849073
0.6945194354670782,-1.330351217760496,0.304932329695552
-0.1898601414145533,-1.335895519888845,0.3088559108535221
0.5754499576672616,-1.335895519888845,0.3088559108535221
-0.3089296192143701,-1.330351217760496,0.304932329695552
0.6959947033327405,-1.272985216210909,0.3066485737817584
-0.1909780395216945,-1.278316509755317,0.3105850998004894
0.6974761576272713,-1.213158565660645,0.3094461049948195
-0.1921006254535239,-1.218267713861619,0.3132032266257845
0.5776904417062322,-1.218267713861619,0.3132032266257844
-0.3118863413745633,-1.213158565660645,0.3094461049948196
0.6989621237141055,-1.150636974577105,0.313157219327139
-0.1932266302384259,-1.155513970715485,0.3165009368299532
0.7003802386688185,-1.088676807314529,0.3170422834102479
-0.1943012201894992,-1.093323736041325,0.3197110625972427
0.5798910364422076,-1.093323736041325,0.3197110625972428
-0.3147904224161106,-1.088676807314529,0.3170422834102479
0.7015874512791265,-1.034025084113998,0.3197897345148043
-0.1952159969045564,-1.038469082780228,0.3215086227956017
0.7025091502000546,-0.9907911190915743,0.3213179295035605
-0.1959144229348672,-0.9950745835490589,0.3218836768778565
0.5815042391875755,-0.9950745835490588,0.3218836768778565
-0.3169193339473466,-0.9907911190915744,0.3213179295035606
0.7031391639539377,-0.9604465202382954,0.3227751448313637
-0.1963918217851586,-0.9646173106404611,0.3221413248817117
0.70023199290776,-0.926025408644283,0.3243646823472355
-0.1941717868714045,-0.9300683882867601,0.322701231847868
0.5797616031241129,-0.9300683882867602,0.3227012318478681
-0.314642176655052,-0.926025408644283,0.3243646823472355
0.6873028092731546,-0.8521244184987408,0.3253448692943722
-0.1843061815208265,-0.8558929926599641,0.323097627820022
0.6689106310903317,-0.7198663658435165,0.3237597318655339
-0.1702704141205463,-0.7231438459812757,0.3213396197406334
0.5558602303732546,-0.7231438459812756,0.3213396197406334
-0.2833208148376236,-0.7198663658435165,0.3237597318655339
0.6561729969143375,-0.5423711399900876,0.3182691793686666
-0.1605438710873787,-0.5449895536826656,0.3157682985233527
0.6506117200810562,-0.3506470971339943,0.313236172913205
-0.1562908105349468,-0.3525536106457458,0.3106612540741788
0.5418806267876551,-0.3525536106457458,0.3106612540741788
-0.2650219038283482,-0.3506470971339943,0.3132361729132051
0.6575287615895868,0.4006310952215124,0.3244918055317834
-0.1615520352916967,0.4015141905299232,0.3220824625696051
0.6634356618614719,0.6496133655949486,0.3255899160311569
-0.1660635002307746,0.6514209694869511,0.3231967268130615
0.5516533164834829,0.6514209694869511,0.3231967268130615
-0.2778458456087638,0.6496133655949489,0.325589916031157
0.6664999203960589,0.8634196006395614,0.325589916031157
-0.168408506145411,0.8660210992101992,0.3231967268130617
0.666253437932417,1.055929510859422,0.3256097806852078
-0.1682285833730397,1.059245827654498,0.3233141045746418
0.5538183996257481,1.059245827654498,0.3233141045746418
-0.2806636216797088,1.055929510859422,0.3256097806852077
0.6662116978161677,1.20703099547922,0.3257289686095121
-0.1682035114458564,1.210908374792179,0.324018371144123
0.66894130090485,1.279731698120626,0.3254316555699622
-0.1702898911924746,1.283879026066972,0.3250186942275624
0.5558797074451829,1.283879026066972,0.3250186942275624
-0.2833514846521421,1.279731698120626,0.3254316555699622
0.6738391272588625,1.325275756232172,0.3234875465578353
-0.1740317265729835,1.32959219611003,0.3245596316212722
0.6787318306625254,1.384944603491439,0.3206903352238156
-0.1777726162288148,1.389482602765397,0.322982554115257
0.5633624324815232,1.389482602765397,0.322982554115257
-0.2931420144098175,1.384944603491439,0.3206903352238157
0.681104999893973,1.448447829524,0.3199371624941982
-0.1795915333602455,1.453221625818623,0.3231951565395335
0.6806794118637134,1.508950460700624,0.3216779767547559
-0.1792741964794591,1.513948912356324,0.3256476719481904
0.5648640127321676,1.513948912356324,0.3256476719481904
-0.2950895956110054,1.508950460700624,0.3216779767547559
0.6794110316146299,1.563072960137278,0.3239155338507402
-0.1783130694105461,1.568272376766185,0.3283328716193884
0.6787321498706067,1.612579558578842,0.3259039142359284
-0.1778016799927276,1.617962800646945,0.3305266910274624
0.5633914962454359,1.617962800646946,0.3305266910274624
-0.2931423336178987,1.612579558578842,0.3259039142359285
0.679551383036529,1.664378254399109,0.3281485229726231
-0.1784346200803556,1.669953832808404,0.3327882298429221
0.681260704248787,1.721058403413105,0.3307331121374262
-0.1797481119842972,1.726844443732819,0.3352018718467865
0.5653379282370057,1.726844443732819,0.3352018718467864
-0.295670887996079,1.721058403413105,0.3307331121374263
0.681735443375276,1.780890718877085,0.3333197808212389
-0.1801200084719341,1.786898925574912,0.3373772849305837
0.6805414985129754,1.840211271565622,0.3353398632728916
-0.1792183251296139,1.846439744389474,0.3387094127676066
0.5648081413823223,1.846439744389474,0.3387094127676065
-0.2949516822602674,1.840211271565623,0.3353398632728916
0.6789353359879491,1.893421489771603,0.3359939288991439
-0.1780012403626508,1.899847540131367,0.3383784748129118
0.6775735577402364,1.937210010321355,0.335176750487244
-0.1769693400814223,1.943798654037868,0.336618968627298
0.5625591563341306,1.943798654037868,0.3366189686272979
-0.2919837414875284,1.937210010321355,0.3351767504872441
0.6765129013238512,1.970552678574642,0.3334773042049278
-0.1761656177013705,1.977265128628666,0.334719669877305
0.676386219270727,2.005296502680706,0.3325754994934551
-0.1760759067418475,2.012183804829769,0.3343329134990738
0.5616657229945559,2.012183804829769,0.3343329134990738
-0.2907964030180189,2.005296502680705,0.3325754994934551
0.6784024790907156,2.066159653578258,0.3352421790676094
-0.1776288808261161,2.073456321973503,0.3374745936983458
0.6810864105892139,2.156012534205996,0.3470835821363399
-0.1797003565239769,2.163330524168088,0.3491617296255581
0.5652901727766853,2.163330524168088,0.3491617296255581
-0.295496594336506,2.156012534205996,0.3470835821363398
0.6802785058671641,2.255877779502598,0.3765413444027621
-0.179113293351769,2.261400460297644,0.3774124653758433
0.67670957404914,2.336815546110741,0.4153297036879166
-0.1764151852421048,2.339617206429336,0.4147121244213489
0.5620050014948131,2.339617206429336,0.4147121244213489
-0.291119757796432,2.336815546110741,0.4153297036879166
0.6745830757517641,2.379243752669216,0.4454827856989743
-0.1748038111474023,2.380636624594011,0.4443937902189972
0.6742286593688683,2.398089440880184,0.4670969195571452
-0.1745352487982852,2.399277761536153,0.4663084366511958
0.5601250650509936,2.399277761536153,0.4663084366511958
-0.2886388431161601,2.398089440880183,0.4670969195571452
0.6744179923815338,2.477542606123321,0.5734894564904673
-0.174678717670213,2.478668860684545,0.5739802777801589
0.6748233412112934,2.514685865727627,0.6311959621724321
-0.1749858745602038,2.515671804593911,0.6322894070915139
0.5605756908129121,2.515671804593911,0.6322894070915139
-0.2892335249585853,2.514685865727627,0.6311959621724322
0.6752268661970056,2.546953445784423,0.6989959231627394
-0.1752916494152058,2.547780964824956,0.7008315284508504
0.675097845332051,2.562873891434869,0.7739686442311249
-0.1751938826407296,2.563619876662877,0.7765932592091944
0.5607836988934378,2.563619876662878,0.7765932592091944
-0.289508029079343,2.562873891434869,0.7739686442311248
0.6743138235900468,2.569861284766915,0.8612576895029885
-0.1745997827882591,2.570597287171494,0.8646506357805496
0.6743107782078546,2.573471707427994,0.9287584571534405
-0.1746023266746046,2.574215127863633,0.9326788563524318
0.5601921429273131,2.574215127863633,0.9326788563524315
-0.2887209619551461,2.573471707427994,0.9287584571534405
0.675900319313073,2.572839449624116,0.9571193688602996
-0.1758189452877003,2.573580522391526,0.9612536817188043
0.6776206555782993,2.571168834227936,0.9677937497664891
-0.1771341412286742,2.571903703749346,0.9720085747011324
0.5627239574813828,2.571903703749346,0.9720085747011324
-0.2920308393255906,2.571168834227936,0.967793749766489
0.6233747029082799,2.091473626601551,1.115519398225146
-0.1359059313918744,2.098148207075718,1.121672436169486
0.6226730069646477,2.026077522164798,1.118989124455594
-0.1353679311295063,2.032476819260999,1.125383071203431
0.5209577473822147,2.032476819260999,1.125383071203431
-0.2370831907119396,2.026077522164798,1.118989124455594
0.6237325764992961,1.966492793809758,1.121065585596059
-0.1361708299146948,1.972670843855987,1.127774278082096
0.6247048500555026,1.906314884628686,1.125862519450392
-0.1369045397389455,1.912160464064496,1.132714524718479
0.522494355991654,1.912160464064497,1.132714524718479
-0.2391150338027944,1.906314884628686,1.125862519450392
0.6243352649426486,1.848838281426278,1.134785179263382
-0.136612324694616,1.854034357633967,1.140875561508996
0.6229033265827908,1.79482823501998,1.148335099004858
-0.1355090222571905,1.799325910159446,1.153682291145437
0.5210988385098989,1.799325910159446,1.153682291145437
-0.2373135103300827,1.79482823501998,1.148335099004858
0.622222608510661,1.742520760239984,1.166110093369694
-0.1349810432852793,1.747013215083581,1.173312768614963
0.6183250808354013,1.685162819776683,1.188942924382591
-0.1319962558025279,1.690256115260803,1.199837141248532
0.5175860720552363,1.690256115260803,1.199837141248532
-0.2327352645826932,1.685162819776683,1.188942924382591
0.6014611102405637,1.611012324180666,1.218901301398078
-0.1191039849976171,1.616396202957324,1.231217648720896
0.5760974257689884,1.518336747431155,1.253415487643618
-0.09971500321480166,1.523444019225747,1.264195071110819
0.48530481946751,1.523444019225747,1.264195071110819
-0.1905076095162803,1.518336747431155,1.253415487643618
0.560917118822803,1.415413126935998,1.285278300219614
-0.08810152995391063,1.420079053905069,1.294288728901078
0.5577488790167143,1.284823333380223,1.317647311422884
-0.0856701813481426,1.28898956733339,1.325872823969162
0.471259997600851,1.28898956733339,1.325872823969162
-0.1721590627640062,1.284823333380223,1.317647311422884
0.5541986194577521,1.106538100005363,1.358847426279882
-0.08296355921282168,1.110042334096713,1.366842924040736
0.5482339934497627,0.9099673325678999,1.400191617991069
-0.07841608192386049,0.9127416698617532,1.408128652521535
0.4640058981765689,0.9127416698617532,1.408128652521535
-0.1626441771970544,0.9099673325679,1.400191617991069
0.5427374170780781,0.6967518099615004,1.433576311342514
-0.07420979970293448,0.6987344459807652,1.44148803649543
0.5384335447741917,0.4607453417550738,1.457196376219021
-0.07090047778179991,0.4618516502940214,1.465050808624003
0.4564902940345083,0.4618516502940215,1.465050808624003
-0.1528437285214835,0.4607453417550738,1.457196376219021
0.5367046214513445,0.2421390382912039,1.4631471666593
-0.06956019206836286,0.2424336287761855,1.470857574695009
0.5374059410251301,0.05136454811085685,1.448458173729173
-0.0700840791254634,0.05095076424678358,1.455898002222656
0.4556738953781718,0.05095076424678356,1.455898002222656
-0.1518161247724218,0.05136454811085688,1.448458173729173
0.5472276825583172,-0.4329913165729276,1.327401874163268
-0.07755551546061192,-0.4352035865450314,1.333341696895884
0.5542150677281423,-0.5143073477579723,1.295264120165518
-0.08287989561792494,-0.5168215563729403,1.300766020737623
0.4684697118706335,-0.5168215563729401,1.300766020737623
-0.168625251475434,-0.5143073477579723,1.295264120165518
0.577367943541202,-0.6997031716361982,1.208272167194336
-0.1004457953319213,-0.7018691493895626,1.212864999115099
0.6139507916157538,-0.8147884730267863,1.157072630550666
-0.1281441758469716,-0.8152374586638636,1.161022581782622
0.51373399209968,-0.8152374586638636,1.161022581782622
-0.2283609753630458,-0.8147884730267864,1.157072630550666
0.6383605139699169,-0.9245038422448036,1.116808548447308
-0.1464563179002392,-0.9239451274989097,1.118657324163652
0.6337241788942069,-0.9949680221454942,1.104498055756701
-0.1425984687544561,-0.9949792503793035,1.10326094816621
0.5281882850071645,-0.9949792503793034,1.10326094816621
-0.2481343626414987,-0.9949680221454943,1.104498055756701
0.6208473312064162,-1.054423435720509,1.103933733442573
-0.1324883957927449,-1.055424924476397,1.100631843164989
0.6097392638063223,-1.115551709700356,1.105195057335974
-0.1237743262734739,-1.117413351075278,1.101347544118097
0.5093641425261823,-1.117413351075278,1.101347544118097
-0.2241494475536141,-1.115551709700357,1.105195057335974
0.5996130176756862,-1.175473674554403,1.104648398135272
-0.1158349473302574,-1.178121835574766,1.100764731567061
0.590054198604905,-1.232861056721341,1.100578905319008
-0.1083430688229334,-1.236251970762867,1.096663568205629
0.4939328850756418,-1.236251970762867,1.096663568205629
-0.2044643823521969,-1.232861056721341,1.100578905319008
-0.4935682467596674,0.1347837686855532,0.3270770494181022
0.8791580630123764,0.1347837686855532,0.3270770494181021
0.8751866032831365,-0.1177903942333823,0.3213950130936339
-0.4895967870304276,-0.1177903942333823,0.3213950130936341
-0.605555094788869,0.1351497360528376,0.3100808704318905
0.9866545862958895,-0.1161644293035981,0.3045899398621315
0.1143192229420215,0.4030296596691371,0.3184407122667566
0.4206156671786301,0.4023245009722966,0.3201352448912266
0.1133200883118081,0.6544236726721183,0.3195900305906211
0.4235162294268725,0.6530264932705308,0.3212682522992038
-0.03792641317416383,0.6530264932705305,0.3212682522992038
0.2722697279409005,0.6544236726721184,0.3195900305906212
0.1371936021096923,-2.125409203826035,0.3296330463097101
0.3542096407439771,-2.12022839148511,0.3311530857120786
0.1237806811078885,-2.008781779198221,0.3195900305906199
0.3931483494224864,-2.00487818259864,0.3212682522992028
-0.007558533169777826,-2.00487818259864,0.3212682522992028
0.2618091351448202,-2.008781779198221,0.3195900305906199
0.1132598482782261,-1.878532444633354,0.3195900305906198
0.4236911107311103,-1.87504134929281,0.3212682522992028
0.1102370879284577,-1.78070345019891,0.3192634092729129
0.4324664091652658,-1.776446257822655,0.3209440604214952
-0.04687659291255725,-1.776446257822655,0.3209440604214952
0.275352728324251,-1.78070345019891,0.3192634092729129
0.1094704741981993,-1.643485211611502,0.3134085139235732
0.4346919459225064,-1.638556860398612,0.3151327143329731
0.1091957405840202,-1.589110854897223,0.3111295978477422
0.4354895180669538,-1.584332181794022,0.3128707490486842
-0.04989970181424526,-1.584332181794022,0.3128707490486842
0.2763940756686885,-1.589110854897223,0.3111295978477422
0.1098762276737529,-1.719666386767983,0.317956924002086
0.4335140133619738,-1.714738105901139,0.3196472929106655
0.1096760863868787,-1.683399004254156,0.3157407567155566
0.4340950384245303,-1.678360781009773,0.3174476096842974
-0.04850522217182173,-1.678360781009773,0.3174476096842974
0.27591372986583,-1.683399004254156,0.3157407567155566
0.1088907743665878,-1.527063717271647,0.3084492064210277
0.436374857710406,-1.522455843398684,0.3102102946248314
0.1085863866374598,-1.463153732465797,0.3058042565864055
0.4372585179592237,-1.458721785744787,0.3075850181751845
-0.05166870170651512,-1.458721785744787,0.3075850181751845
0.2770034296152488,-1.463153732465797,0.3058042565864055
0.1110828160422338,1.98815813627589,0.3344410011884632
0.4300111974601403,1.983089541424018,0.334570667734874
0.111102683940484,2.023383920754657,0.3378169664236012
0.4299535194717353,2.018172426211024,0.3361958115241635
-0.04436370321902666,2.018172426211024,0.3361958115241635
0.2744871323122247,2.023383920754657,0.3378169664236011
0.110676288629596,1.910279823688394,0.3350184064258288
0.431191376817672,1.90542560707138,0.3365818704277152
0.1109048191224236,1.95449249749828,0.333858484436158
0.4305279357757709,1.949516575175855,0.3351429575966494
-0.04493811952306234,1.949516575175855,0.3351429575966493
0.274684997130285,1.95449249749828,0.3338584844361579
0.1102070542190524,1.79665903438857,0.3340009521914996
0.432553599260616,1.79211758551708,0.3355719841134215
0.1104067461295435,1.856554189861123,0.3353547204749894
0.4319738787711695,1.851847865592618,0.3369156829414307
-0.04638406251846091,1.851847865592618,0.3369156829414307
0.2751830701231651,1.856554189861123,0.3353547204749894
0.1105803098976678,1.6790179832163,0.3293373478014368
0.4314700102250693,1.674800368799609,0.3309430680502744
0.1102894165259018,1.736247159000046,0.3317901994735655
0.4323144953493898,1.731872007917761,0.3333776751815798
-0.04672467909668113,1.731872007917761,0.3333776751815799
0.2753003997268069,1.736247159000045,0.3317901994735655
0.1106072291988643,1.576731405040538,0.3248096121840464
0.4313918614887143,1.572795358307462,0.3264490101551233
0.1107204844017234,1.626717544349515,0.3270390702374059
0.4310630731994324,1.622643899099517,0.3286618852903511
-0.04547325694672382,1.622643899099517,0.3286618852903511
0.2748693318509852,1.626717544349515,0.3270390702374059
0.1103240933166457,1.460995969209535,0.3195884348079629
0.4322138260430914,1.457378511280191,0.3212666683861274
0.1103943725433092,1.522084653258876,0.3220807913842131
0.4320098002136073,1.518299034466499,0.3237404865803719
-0.04641998396089868,1.518299034466499,0.3237404865803719
0.2751954437093995,1.522084653258876,0.322080791384213
0.1115553996824188,1.336630801568145,0.3209750758178823
0.4286392519540928,1.33335568779381,0.3226429954301431
0.1107269210278309,1.39687762533302,0.3193723786525556
0.431044387194435,1.393436668112607,0.3210522192766707
-0.04545457094172641,1.393436668112607,0.3210522192766707
0.2748628952248778,1.39687762533302,0.3193723786525556
0.10660340609208,-0.9712319021913596,0.3185174836313222
0.4430152581772056,-0.9681540851395496,0.320203683044797
0.1070950676238812,-0.9364773738361334,0.3190864862986498
0.4415879281308525,-0.9334952267365163,0.3207684534169107
-0.0559981118781438,-0.9334952267365162,0.3207684534169107
0.2784947486288275,-0.9364773738361333,0.3190864862986498
0.1068638109435286,-1.045523177694495,0.3178745032856911
0.4422592834981879,-1.042240856564739,0.3195654852472906
0.1067091335509412,-1.001870431060302,0.3182556501298894
0.4427083234894249,-0.9987082743057005,0.3199437970855088
-0.05711850723671628,-0.9987082743057005,0.3199437970855088
0.2788806827017675,-1.001870431060302,0.3182556501298894
0.1128461492824891,1.217240674400959,0.320425022552193
0.4248921097285268,1.214294209821385,0.3220970335122404
0.1123840877825613,1.290645585352035,0.3214415959064658
0.426233508677706,1.287497056619853,0.3231060454985462
-0.04064369242499742,1.287497056619853,0.3231060454985462
0.2732057284701473,1.290645585352035,0.3214415959064658
0.1073043873760541,-1.163264617932048,0.3127854673496788
0.4409802572999108,-1.159658186003161,0.3145143020379392
0.1070664025866575,-1.100704279514728,0.3160477416817595
0.4416711448689186,-1.097270059521057,0.3177523112675255
-0.05608132861621003,-1.097270059521057,0.3177523112675255
0.2785234136660511,-1.100704279514728,0.3160477416817595
0.1078023730380511,-1.286797973949922,0.3067735274155351
0.4395345678325706,-1.282851487621688,0.308547079476966
0.1075537587863552,-1.226391818347758,0.3094341857695856
0.4402563135223282,-1.222611614063681,0.3111879476046003
-0.05466649726961967,-1.222611614063681,0.3111879476046003
0.2780360574663534,-1.226391818347758,0.3094341857695856
0.1083053107575058,-1.402212984781384,0.3045233842968629
0.4380745021735955,-1.397948791694028,0.3063136731338816
0.1080499490974858,-1.344719645713359,0.305016247755501
0.4388158360922729,-1.340613716462699,0.3068028706278821
-0.05322601983956433,-1.340613716462699,0.3068028706278821
0.2775398671552229,-1.344719645713359,0.305016247755501
0.1104300070631726,2.269112299333155,0.3808894143648052
0.4319063505483424,2.265523925130203,0.379271564977711
0.111027545398243,2.341249458906714,0.414958551889315
0.4301716522562689,2.340489960082172,0.4148438874150079
-0.04458183600356024,2.340489960082171,0.4148438874150079
0.2745622708544657,2.341249458906714,0.414958551889315
0.1107587534858823,2.085418287416339,0.3435223529407977
0.4309519751977923,2.079852298809209,0.3407082870414255
0.1102999927211802,2.175150829966231,0.3552579602085859
0.4322837918667686,2.169650756611257,0.3524213402456105
-0.04669397561406007,2.169650756611257,0.3524213402456105
0.2752898235315284,2.175150829966231,0.3552579602085859
0.112800749992879,0.8703009210894752,0.3195900305906214
0.425023907247658,0.8683094891684891,0.321268252299204
0.1128405967111995,1.064675559895796,0.3197093151565602
0.4249082292565428,1.06214906640781,0.321386649615352
-0.03931841300383424,1.06214906640781,0.3213866496153521
0.2727492195415092,1.064675559895796,0.3197093151565602
0.1145424967085426,-0.5491068752940296,0.3119279084315256
0.4199674868047245,-0.5471910559171672,0.3137148695793566
0.115484403636716,-0.3555257160795237,0.3066601994471493
0.417233060837891,-0.35414277403186,0.3085219189594632
-0.03164324458518253,-0.35414277403186,0.3085219189594632
0.2701054126159926,-0.3555257160795237,0.3066601994471493
0.1092799605770325,-0.8618605489123464,0.319489321732225
0.435245021154434,-0.8590838020414499,0.3211682925227439
0.1123884012854527,-0.7283213914490927,0.3176745000508454
0.4262209862575378,-0.7259122422817185,0.3193799066192405
-0.04063117000482916,-0.7259122422817185,0.3193799066192405
0.273201414967256,-0.7283213914490928,0.3176745000508454
0.8030519820729022,0.3960678904359986,0.3384819033576761
-0.3600671356077696,0.3990098238836164,0.3301111209992595
0.8105865935240388,0.639485212532288,0.3395811907176433
-0.3670361493552669,0.6460538305413984,0.331197368099027
0.7526259656079753,0.6460538305413984,0.3311973680990269
-0.4249967772713299,0.639485212532288,0.3395811907176433
0.7258744561860675,-2.041320308409667,0.3491998253764824
-0.2302037582455198,-2.086394899732765,0.340628722783729
0.7760328524518598,-1.937719663622761,0.3396315630429211
-0.3078474432950015,-1.977188998277439,0.3311973680990268
0.69343725954771,-1.977188998277439,0.3311973680990269
-0.3904430361991512,-1.937719663622761,0.3396315630429212
0.8160054867794711,-1.816694085458896,0.3396848208144317
-0.3691237844491158,-1.850740120087989,0.3311973680990269
0.8288754952568511,-1.720162970926007,0.3366834244452066
-0.3873096248293625,-1.750963778457143,0.3299807177269382
0.7728994410820709,-1.750963778457143,0.3299807177269381
-0.4432856790041425,-1.720162970926007,0.3366834244452066
0.8342216349940206,-1.584464090198557,0.2728649443225164
-0.3929081009997575,-1.612093095579737,0.3056863191031488
0.8365842889541784,-1.53184712291371,0.2432318190835291
-0.394914443348556,-1.558659607718687,0.2947442882997599
0.7805042596012644,-1.558659607718687,0.2947442882997599
-0.4509944727014695,-1.53184712291371,0.2432318190835292
0.8311810787247412,-1.658750738437714,0.3242874322415191
-0.3899449383608936,-1.687761427841499,0.3251141162385833
0.8324553062035445,-1.623071711081346,0.3015187002848931
-0.391406543053129,-1.651316238317159,0.3163619553231414
0.7769963593058372,-1.651316238317159,0.3163619553231414
-0.4468654899508357,-1.623071711081346,0.3015187002848931
0.8392116351968721,-1.47179839111451,0.2178342117500726
-0.3971415703013896,-1.497686105217308,0.2848879402327471
0.8418293960993184,-1.40994840071649,0.1994913999170329
-0.3993644726325401,-1.434881989386244,0.277298872439502
0.7849542888852484,-1.434881989386244,0.277298872439502
-0.4562395798466098,-1.40994840071649,0.199491399917033
0.8218945854991679,1.930068938808984,0.3023634229566201
-0.3815943792703254,1.95670996658207,0.325346917903994
0.8219686055459431,1.963915215946765,0.3252343475774763
-0.3813912406952114,1.991149879321691,0.3304851035527725
0.7669810569479197,1.991149879321691,0.3304851035527725
-0.4363787892932342,1.963915215946765,0.3252343475774764
0.8253891115579541,1.85472519331467,0.2525218977042811
-0.3845631938668206,1.880179224487056,0.3135334150018664
0.8234235955343832,1.897507991484987,0.2770147446825804
-0.3828942666511903,1.923626862529726,0.3198251000783928
0.7684840829038984,1.923626862529725,0.3198251000783927
-0.4378337792816742,1.897507991484987,0.2770147446825806
0.8295205335025917,1.744765647140712,0.2145611657534935
-0.3880180283765343,1.768524477053133,0.3007820521431814
0.8277118722886176,1.802730134166974,0.2312288321937201
-0.3865316262127214,1.827383234310629,0.3069823730351097
0.7721214424654296,1.827383234310628,0.3069823730351096
-0.4421220560359088,1.802730134166974,0.2312288321937204
0.8272203267651571,1.630917428460376,0.1964758542035923
-0.3855729848081524,1.652919032508669,0.2919366831260823
0.8291758021416812,1.68630149426562,0.2030120841762853
-0.3875288644380383,1.709157940963378,0.2956420978955036
0.7731186806907464,1.709157940963378,0.2956420978955033
-0.4435859858889725,1.68630149426562,0.2030120841762856
0.8274429238604618,1.53192864347268,0.1962448586357337
-0.3855167928319643,1.55240237422392,0.2888622841684183
0.8263786975497577,1.580303193532603,0.1942478235257239
-0.3846616262289368,1.601523576374812,0.2897045079335073
0.7702514424816451,1.601523576374812,0.2897045079335071
-0.440788881297049,1.580303193532604,0.1942478235257243
0.83002892380602,1.419924024334075,0.215843594672092
-0.3876321298913548,1.438669571129531,0.2916374530833329
0.8292724342504894,1.479043742453738,0.2030053448294189
-0.3870712561383203,1.498701204694416,0.2892047354335046
0.7726610723910286,1.498701204694416,0.2892047354335046
-0.4436826179977806,1.479043742453738,0.2030053448294191
0.8212600851141683,1.299577635092321,0.2654550818025908
-0.3791391218764729,1.316456361133809,0.3083570768773131
0.8271763541461936,1.357870592657151,0.2368498479985801
-0.3848808700566817,1.375660701577296,0.2981768962243471
0.7704706863093898,1.375660701577296,0.298176896224347
-0.4415865378934849,1.357870592657151,0.2368498479985801
0.8588644142431414,-0.9339026272255613,0.300201848179432
-0.4138459107955677,-0.9514721481503415,0.3177847787125565
0.8556473630504538,-0.9003318911662462,0.3233716521312701
-0.4104133269407461,-0.9173189961646783,0.3255741703335183
0.7960031431934543,-0.9173189961646782,0.3255741703335183
-0.470057546797745,-0.9003318911662464,0.3233716521312702
0.8566272840938723,-1.005780598309244,0.2477681137760701
-0.4119442094589654,-1.02447792160046,0.3006581787172383
0.8579552963144069,-0.9635385544143404,0.2735585111994116
-0.4130737974930949,-0.9815805220112339,0.3091200032907432
0.7986636137458032,-0.9815805220112337,0.3091200032907431
-0.4723654800616982,-0.9635385544143406,0.2735585111994117
0.8134985580604117,1.184252902359802,0.3257138718728763
-0.3701606023046385,1.199132105800739,0.3272732583155756
0.8158814782559323,1.255123185290806,0.2984456769055527
-0.3733687198694581,1.271266851943231,0.3192295599773187
0.7589585361221662,1.271266851943231,0.3192295599773187
-0.4302916620032235,1.255123185290806,0.2984456769055528
0.8528482245340319,-1.119727927921665,0.206259229874856
-0.4087267394850053,-1.140182018124024,0.2840792917081773
0.8548921700586095,-1.059184188321643,0.22480000715027
-0.4104647101471068,-1.078704195021298,0.2921405246826579
0.7960545263998151,-1.078704195021298,0.2921405246826578
-0.4693023538059009,-1.059184188321643,0.2248000071502703
0.8485680203734816,-1.239278479281888,0.1864149551241308
-0.4050900176890782,-1.261577809781864,0.2737806004403022
0.8507048685514264,-1.180819861783103,0.1933723765652241
-0.4069056138737049,-1.20221689450591,0.2777577611455311
0.7924954301264132,-1.20221689450591,0.277757761145531
-0.4651150522987175,-1.180819861783104,0.1933723765652244
0.8442452531060959,-1.350972426770459,0.1886116738087825
-0.4014171316887055,-1.374995732363487,0.2729882026750351
0.8464400954942879,-1.295332714496084,0.1847113867416922
-0.403282003281825,-1.31849723158443,0.2720738631319217
0.7888718195345332,-1.31849723158443,0.2720738631319216
-0.460850279241579,-1.295332714496084,0.1847113867416924
0.8264062177434878,2.210416873485105,0.3873869022955954
-0.3854910646627487,2.24145454668313,0.379751468888999
0.8203533164413819,2.29188014818508,0.4277960622268479
-0.3810692771811132,2.323966260610452,0.4196331379199433
0.7666590934338213,2.323966260610452,0.4196331379199433
-0.4347635001886732,2.291880148185081,0.4277960622268479
0.8249294079246907,2.022993626350887,0.3413889272877802
-0.3836707341633246,2.051405467960365,0.3365226375336287
0.828239454637441,2.11098106593366,0.3567777291139973
-0.3866727258088635,2.140786680690098,0.3494072596278275
0.7722625420615716,2.140786680690098,0.3494072596278276
-0.442649638384732,2.11098106593366,0.3567777291139972
0.814491172687724,0.8489161573515304,0.3396491696245838
-0.3706160132694073,0.858195638368177,0.331197368099027
0.8141107259068178,1.037074471976043,0.3377452259162433
-0.3702617243335108,1.049206907848184,0.3306367809871054
0.7558515405862191,1.049206907848184,0.3306367809871053
-0.4285209096541088,1.037074471976043,0.3377452259162433
0.8005767745593861,-0.525413000997755,0.3323609605917337
-0.3582594243636817,-0.536651378516489,0.3239557207672442
0.7936690432473074,-0.3380311119005978,0.3273884038670478
-0.3517406229831029,-0.3464198586224899,0.3189770882266436
0.7373304392358112,-0.3464198586224899,0.3189770882266436
-0.4080792269945985,-0.3380311119005978,0.3273884038670478
0.8398618342383866,-0.8283590979800802,0.3364798685311176
-0.3950891645312828,-0.8439933064513122,0.3300727285459251
0.8166944505015814,-0.6991010696321489,0.3378447166921288
-0.3733024547679897,-0.7127648491330583,0.3293869562660811
0.758892271020698,-0.7127648491330583,0.3293869562660812
-0.4311046342488726,-0.699101069632149,0.3378447166921288
0.8867035206365483,0.3932969177417841,0.3314062199510303
-0.5011137043838393,0.3932969177417841,0.3314062199510304
-0.5094714246725458,0.6338974994089872,0.3326074756714083
0.8950612409252547,0.6338974994089872,0.3326074756714081
0.9995738647288628,0.3923732601770461,0.3142644365802783
-0.6239969146172937,0.6317863951989846,0.3154303403234698
0.8664198696449319,-1.981777820691711,0.3435798912830885
-0.4808300533922232,-1.98177782069171,0.3435798912830885
-0.5020560968681158,-1.883349679113269,0.3329600819483534
0.8876459131208246,-1.883349679113269,0.3329600819483533
0.9934147422823068,-1.928011174035817,0.3280401465206279
-0.6261563274393467,-1.83590308274692,0.3159742316891807
0.9024470834308789,-1.77063465198073,0.3333328863489277
-0.51685726717817,-1.77063465198073,0.3333328863489277
-0.5211062969931911,-1.683814255200578,0.3292561575536889
0.9066961132458998,-1.683814255200578,0.3292561575536888
1.019304926008541,-1.736266794155774,0.3161998660503277
-0.6379103812698279,-1.659943948211725,0.3105507528113141
0.9058633865262858,-1.558021066432225,0.2276001965512259
-0.520273570273577,-1.558021066432225,0.227600196551226
-0.5231023386738218,-1.506205935723914,0.1793172067031572
0.9086921549265308,-1.506205935723914,0.1793172067031572
1.008706211846362,-1.548506317069455,0.1974167873858273
-0.6342447101816047,-1.49892160661642,0.1475874994240905
0.9048274801245436,-1.629515167951665,0.3102163952852284
-0.5192376638718348,-1.629515167951665,0.3102163952852283
-0.5181697674755788,-1.595943191933826,0.2740356980860014
0.9037595837282876,-1.595943191933826,0.2740356980860014
1.019283701163971,-1.610947727734307,0.2846614470285847
-0.6209470269166253,-1.581743941289969,0.243783323126559
0.911865096159034,-1.447030371942281,0.1383542842884329
-0.5262752799063253,-1.447030371942281,0.138354284288433
-0.5294099915910242,-1.386089306275997,0.1092481531848764
0.9149998078437331,-1.386089306275998,0.1092481531848763
1.023679543170898,-1.439108714207245,0.1049310445141645
-0.64184304200384,-1.378187401044512,0.07468114268340943
0.8923282750380116,1.904548052087071,0.2670825393375417
-0.5067384587853027,1.904548052087071,0.2670825393375417
-0.5092182483130967,1.937540089483505,0.3074790774255561
0.8948080645658056,1.937540089483504,0.307479077425556
0.9936584978755786,1.89214760582078,0.235299377465001
-0.6219400933126961,1.922036363391928,0.2810842500410536
0.8965033488100158,1.830457898822173,0.1791493185279062
-0.510913532557307,1.830457898822173,0.1791493185279064
-0.5085590927213155,1.872583228360905,0.2218577034051863
0.8941489089740244,1.872583228360905,0.2218577034051862
1.006040209795319,1.823501993177194,0.1444634659450386
-0.6099493957901219,1.864092407415882,0.1892919935409054
0.9015381533107852,1.722107859481746,0.1159553526328739
-0.5159483370580764,1.722107859481747,0.1159553526328741
-0.5137220963203449,1.779220022372533,0.1430972119025318
0.8993119125730538,1.779220022372533,0.1430972119025315
1.012137551893849,1.714555263595425,0.07830988805843536
-0.6238615948119279,1.77160995694489,0.1066421005331629
0.8993697435746875,1.609938355285591,0.08862168860992546
-0.5137799273219785,1.609938355285591,0.08862168860992566
-0.515767981595447,1.664505772095025,0.09799315704615597
0.901357797848156,1.664505772095025,0.09799315704615574
1.009738770136607,1.602945330893996,0.05015105336585437
-0.6264063545734137,1.657240531371493,0.05970187158982903
0.8999246359630443,1.51240917949562,0.09122593150560412
-0.5143348197103355,1.51240917949562,0.09122593150560431
-0.5130062421917683,1.560070437254682,0.08639365793205731
0.8985960584444772,1.560070437254682,0.08639365793205711
1.010489181773827,1.505943642000614,0.05343693282406101
-0.6233009995797204,1.553326185162042,0.04808839479456057
0.9031013649543284,1.402052617783954,0.1276434025783416
-0.5175115487016194,1.402052617783954,0.1276434025783416
-0.5165193789346203,1.460304076793806,0.1043995317087994
0.9021091951873292,1.460304076793806,0.1043995317087993
1.01447396763556,1.396236160590373,0.09229021258681025
-0.6274923334214373,1.454262274060568,0.06761177994253452
0.8948230236292225,1.28353582804109,0.2099118058271755
-0.5092332073765137,1.283535828041091,0.2099118058271757
-0.5144608676283853,1.340900284950084,0.1631344098093963
0.9000506838810942,1.340900284950084,0.1631344098093963
1.000281130053613,1.27933684203172,0.1778255853865858
-0.6261350338963612,1.334308887436108,0.1294116711423688
0.9352898606948811,-0.9171600090154128,0.2699612669124749
-0.5497000444421721,-0.9171600090154128,0.269961266912475
-0.5490755909573402,-0.8844649003255982,0.3078830466968721
0.9346654072100491,-0.8844649003255982,0.307883046696872
1.04311748696376,-0.915586674933394,0.2395885118735749
-0.66984734574253,-0.8865659150588597,0.2822970691244955
0.9326247223146187,-0.9878692582157123,0.1824861211399494
-0.54703490606191,-0.9878692582157123,0.1824861211399495
-0.5486122507993723,-0.9462699702412287,0.2255559350459034
0.9342020670520812,-0.9462699702412287,0.2255559350459033
1.048475655944335,-0.9810079626138364,0.1500641602385432
-0.6564063432888485,-0.9411001922980053,0.1949539124337599
0.89742142052209,1.171211791573857,0.3098230007874906
-0.511831604269381,1.171211791573857,0.3098230007874907
-0.508232997003837,1.240026597062591,0.2639798964688235
0.8938228132565459,1.240026597062591,0.2639798964688234
1.023472555022896,1.182868046845381,0.2817960972682849
-0.6180170039302744,1.24151054744426,0.2313806679169369
0.9281570347330015,-1.100148191708589,0.1160159831426994
-0.5425672184802927,-1.100148191708589,0.1160159831426995
-0.5449988747090743,-1.0404948255592,0.1450466036374808
0.9305886909617831,-1.0404948255592,0.1450466036374807
1.043104975999916,-1.093621612970897,0.08094664100451826
-0.6604209815190369,-1.034086868190913,0.1110352277069503
0.9230461812873361,-1.217935946562319,0.08661528349733716
-0.5374563650346274,-1.217935946562319,0.0866152834973373
-0.5400079063778581,-1.160339312931687,0.09655776367513286
0.9255977226305668,-1.160339312931687,0.09655776367513269
1.037018659307114,-1.210821768989129,0.050779124446892
-0.6544673744532756,-1.153512463314548,0.06090480532093578
0.9178845046115004,-1.327982944721179,0.09179706091869111
-0.5322946883587916,-1.327982944721179,0.09179706091869125
-0.534915478714021,-1.273163651000324,0.0849117151148988
0.9205052949667298,-1.273163651000324,0.08491171511489865
1.030871081664065,-1.320330009287821,0.05649745831108597
-0.648403000307782,-1.265773963168404,0.04920200077407803
0.9058860654846955,2.177076999879732,0.3807175071405065
-0.5202962492319865,2.177076999879732,0.3807175071405066
-0.508714609858097,2.254179285660155,0.422104992982029
0.894304426110806,2.254179285660154,0.422104992982029
1.018889498770236,2.160486177600047,0.3600356214416903
-0.6119356039255157,2.229089787030308,0.3998594481977396
0.9022515881199749,1.994442704261395,0.3330900463465942
