-0.5820607530025476,0.7381506718490842,0.1318391241891644
-0.5818534794926081,0.7888253602479494,0.1318915154663685
-0.6889927881953276,0.7888253602479505,0.1432082638292323
0.51101928246902,0.7888253602479494,0.1318915154663685
0.5112265559789595,0.7381506718490842,0.1318391241891644
0.6184041834780807,0.7381506718490849,0.1431571331690265
-0.5814449825033479,0.8222390148899117,0.1319947735217919
-0.5836303555592756,0.8624084957732535,0.1321918560778097
-0.6891749073242368,0.8624084957732541,0.1435013777705047
0.5127961585356873,0.8624084957732534,0.1321918560778097
0.5106107854797597,0.8222390148899116,0.1319947735217919
0.6177279553322632,0.8222390148899125,0.1433090373325159
-0.6002538356250046,0.9201913247330034,0.1324867868697717
-0.6429621361912543,1.005500459419321,0.1324242832647387
-0.7158596934230832,1.005511214602638,0.1431574237044689
0.5721279391676659,1.005500459419321,0.1324242832647388
0.5294196386014161,0.9201913247330034,0.1324867868697717
0.6256341072975701,0.9201913247330036,0.1437892120611114
-0.6850779782284201,1.086255849490825,0.1299653586809746
-0.6970631323254115,1.126756966243473,0.1232617249157625
-0.738384786174304,1.126818675645094,0.1229596118422495
0.6262289353018232,1.126756966243473,0.1232617249157625
0.6142437812048318,1.086255849490825,0.1299653586809746
0.6637074954270993,1.086331135774038,0.1373329326122801
-0.6936117506076069,1.152946058190377,0.1137989995635655
-0.6895007535991017,1.190158680482283,0.1035437090844177
-0.7291953502191637,1.190063908116031,0.0830345440893604
0.6186665565755135,1.190158680482283,0.1035437090844177
0.6227775535840187,1.152946058190377,0.1137989995635654
0.6632387293027199,1.1528674185991,0.1035901105326423
-0.6845987246215632,1.2418335358774,0.09294828161245303
-0.6793697452917978,1.305211945843861,0.08327117325601013
-0.7175201638831923,1.305211945843862,0.04336685792413396
0.6085355482682096,1.305211945843861,0.08327117325601012
0.6137645275979751,1.241833535877401,0.09294828161245303
0.6528597085142276,1.241814581404151,0.06212421957611998
-0.6748733955217501,1.371337850559714,0.0765768680976328
-0.6716279054799385,1.435521760501632,0.07425033605512543
-0.7082411450032176,1.435521760501633,0.02528263461375913
0.6007937084563505,1.435521760501632,0.07425033605512542
0.6040391984981619,1.371337850559713,0.0765768680976328
0.6412968454852079,1.371337850559714,0.03045319569488829
-0.669610155591455,1.497340756444917,0.07699703288155294
-0.6686347470507452,1.557219856431123,0.0835701033494296
-0.7046536807505092,1.557219856431124,0.03727816264512356
0.5978005500271573,1.557219856431124,0.08357010334942958
0.5987759585678674,1.497340756444917,0.07699703288155292
0.6349885642665458,1.497340756444917,0.02796324157001264
-0.6683540018216069,1.616432015768067,0.09077038125071897
-0.6685833740034936,1.673647606205364,0.09800247878447375
-0.704499883935872,1.673670778796248,0.06705770902732496
0.5977491769799055,1.673647606205364,0.09800247878447374
0.5975198047980188,1.616432015768067,0.09077038125071893
0.6334829951990072,1.616432015768067,0.05068562311277498
-0.6693014498315139,1.724934415934434,0.1072747865568359
-0.6703956755851557,1.766731236124834,0.1182400837168755
-0.7062079834943154,1.766839173364927,0.107745567676324
0.5995614785615679,1.766731236124835,0.1182400837168755
0.598467252807926,1.724934415934434,0.1072747865568359
0.6341574464874601,1.725050278888854,0.08668036722380626
-0.6716623575882859,1.795847860924263,0.1281955379565906
-0.6644059908331917,1.82199030957323,0.1365140975553663
-0.7046287237859752,1.821880558166962,0.1425222601880399
0.5935717938096042,1.82199030957323,0.1365140975553663
0.6008281605646983,1.795847860924263,0.1281955379565906
0.6368802698564297,1.795831404943509,0.1268591698554951
-0.6314392589805806,1.867760826405058,0.1446444913799743
-0.5807155874896376,1.936675999703863,0.1549907171594879
-0.6598234866458073,1.935815704652477,0.1657821095920693
0.5098813904660492,1.936675999703863,0.1549907171594879
0.5606050619569928,1.867760826405058,0.1446444913799743
0.6167394370465167,1.867402286517582,0.154614911151913
-0.5453291436180245,2.01316676170455,0.1709120414852821
-0.534566622337068,2.076844714220915,0.1907787386148907
-0.6305858056550078,2.073764926973324,0.2009514375681147
0.4637324253134796,2.076844714220915,0.1907787386148907
0.4744949465944361,2.013166761704549,0.170912041485282
0.5679921743190916,2.011670199832802,0.1814421312678927
-0.5331965571772226,2.115158229244472,0.2094677665496683
-0.5327476687396779,2.135676029242483,0.2246546071949692
-0.6277936492878288,2.125172960112767,0.2338304708467435
0.4616409431711416,2.167564914234145,0.2539124638632049
0.4616798951189637,2.1509689090848,0.2378588550073123
0.5562167796241228,2.136626951552224,0.2465167155872643
-0.5334875056107581,2.183712551829247,0.2774194069998124
-0.5360347281443424,2.193789661819945,0.3170478199117671
-0.6310567693294733,2.170161587601182,0.3232151641401433
0.4652005311207542,2.193789661819945,0.3170478199117672
0.4626533085871696,2.183712551829247,0.2774194069998124
0.5573120047764507,2.161387539114016,0.2844425251517418
-0.5388789370945959,2.194839181948646,0.3819011840696473
-0.540842807086161,2.187830362022862,0.4608757938471025
-0.6368131100952913,2.164346242871217,0.4641131949466782
0.4700086100625728,2.187830362022863,0.4608757938471025
0.4680447400710077,2.194839181948646,0.3819011840696473
0.5634968968748875,2.171236195300802,0.386874613489581
-0.5416710750564102,2.175821965324972,0.5272886481368768
-0.5416485768804941,2.16265339708264,0.5704266452784227
-0.6392963404549663,2.139179935555764,0.5713484538528089
0.4708143798569056,2.16265339708264,0.5704266452784228
0.4708368780328219,2.175821965324972,0.5272886481368769
0.5675841975570415,2.152379108142299,0.5290048598906861
-0.541503588353034,2.151502229665073,0.5993939981751482
-0.5414794235984575,2.142560040826277,0.6234296824311842
-0.640276364383082,2.119288525887149,0.624251082719243
0.4706452265748687,2.142560040826277,0.6234296824311844
0.4706693913294454,2.151502229665073,0.5993939981751483
0.5690340913101135,2.128058553984491,0.6002333318804912
-0.5414794235984575,2.133398634868293,0.650775559719687
-0.5398094418002444,2.127668545568805,0.6784921457730739
-0.6345576494376284,2.106461332011375,0.6774325372044866
0.4683221243389085,2.127430907487934,0.6785399535050891
0.4706452265748687,2.133398634868293,0.6507755597196869
0.5695950369370646,2.110570418919166,0.6508543967624595
-0.5347994964056055,2.13126539182184,0.6959640329664558
-0.5280126174464561,2.138929615512683,0.7044546320585152
-0.6200188106760018,2.120192109250032,0.7026299753174263
0.5178600842999699,2.141078954961904,0.7131749366936504
0.5238424457121689,2.13319385660218,0.7081990316199615
0.5689118628490036,2.122089377690354,0.7074003461859296
-0.5846608924957278,2.145479904797898,0.7191371166381687
-0.5828517834308145,2.145839800388485,0.7264798946334268
-0.6272294820942233,2.134730894910059,0.7254928573334256
0.515738593799198,2.122788596607389,0.7728846019505122
0.5141218459555361,2.132249671011865,0.7564520449419901
0.5624928396874885,2.120160880417961,0.7551492189794207
-0.5876202961897642,2.105048135468032,0.7984852250271892
-0.5874759227136154,2.073447030461265,0.8290986903257348
-0.6276533924702128,2.068407118849639,0.8261637398295936
0.5166417256900273,2.073447030461265,0.8290986903257347
0.5167860991661764,2.105048135468032,0.7984852250271892
0.5667979688843595,2.094696339776279,0.7962184382064977
-0.5869870522974112,2.030832336329115,0.8536071680580828
-0.5866072589355528,1.990614678577659,0.8686371261831509
-0.6231958062842395,1.991187786841895,0.864353050414872
0.5134677606443134,1.934250661247987,0.8850717833211256
0.515086315002685,1.957776161150774,0.8785042262107309
0.5507492254906442,1.957641453787235,0.8742406636321185
-0.6437063652484656,1.901206308661234,1.130397954483002
-0.6449676446107633,1.861721492539547,1.123802517011459
-0.6865402741645982,1.861866559203839,1.123050931886236
0.576859686524981,1.784486820633089,1.111112150760734
0.5755984071626834,1.821568208980908,1.117243692343015
0.6172695204038552,1.821713650499434,1.116490165111603
-0.5904074714399903,1.754775152690121,0.9156774048274072
-0.5935053139535452,1.734303513656449,0.9172596880169762
-0.6290796888664461,1.734062964669732,0.9125692957763644
0.5266439826536784,1.667411510702426,0.9240899654027326
0.524832547851391,1.704906954751706,0.9199153943964638
0.5607288153739887,1.703333446718945,0.91533539334598
-0.5332275453927611,1.623813510905874,0.9376971777602352
-0.5442667024891842,1.576509523148118,0.9494987171810805
-0.6191414700645894,1.576509523148121,0.9391385853942788
0.4655006901906378,1.576509523148117,0.9503444403634647
0.4623933483691729,1.623813510905873,0.9384690074662996
0.5460453226301111,1.623813510905878,0.9289679489398217
-0.5407240245818149,1.521642610221811,0.9660472951288657
-0.5366051727766881,1.459230603265945,0.9851244006309508
-0.6145483232477079,1.459230603265948,0.9654356611491668
0.4657709757530997,1.459230603265945,0.9851244006309508
0.4659534464779062,1.521642610221811,0.9665071034582178
0.546558618217634,1.521642610221814,0.9518072690212334
-0.537487280789107,1.393146120519258,1.004543172947576
-0.5392489686593851,1.326809175650956,1.023457497447628
-0.6158732957627915,1.326809175650958,0.9980826048100959
0.4684147716357967,1.326809175650956,1.023457497447628
0.4666530837655186,1.393146120519258,1.004543172947576
0.5433081816136679,1.39314612051926,0.9810391897311932
-0.5398204328794893,1.263187177760716,1.04090868714426
-0.5388347807733441,1.190486395239728,1.060073334828136
-0.6123505302138772,1.190486395239729,1.033179084101354
0.468000583749756,1.190486395239728,1.060073334828136
0.468986235855901,1.263187177760716,1.04090868714426
0.5447691217533655,1.263187177760718,1.014479978518326
-0.5375163027699378,1.094379729047365,1.085092996357554
-0.5370315852126352,1.005442277254023,1.108415420957347
-0.6060548116056612,1.005593254525804,1.082748050296265
0.4661973881890471,1.005442277254023,1.108415420957347
0.4666821057463498,1.094379729047365,1.085092996357554
0.5373851365165522,1.094379729047367,1.058592910064537
-0.5378479125207234,0.9469109115204987,1.12418767276009
-0.5388100297373024,0.9062835209687756,1.135093667977057
-0.6093758703952747,0.9073479107348239,1.111163529008862
0.4679758327137141,0.9062835209687756,1.135093667977057
0.4670137154971351,0.9469109115204987,1.12418767276009
0.5364303358157287,0.9475148206076192,1.099433381369821
-0.5385199432731948,0.8724326679865504,1.143139725101398
-0.5360808327278956,0.8211437881064558,1.15361104479277
-0.6071603164913139,0.8219047135562269,1.130919123069628
0.4652466357043073,0.8211437881064558,1.15361104479277
0.4676857462496063,0.8724326679865504,1.143139725101398
0.5388731293319137,0.8735876441156665,1.119821632794535
-0.5316954369361969,0.7337574361468882,1.171274540940202
-0.5266155935429049,0.6117426921002094,1.195382537163747
-0.5940551614531816,0.6117426921002103,1.17219621144561
0.4557813965193165,0.6117426921002094,1.195382537163746
0.4608612399126087,0.733757436146888,1.171274540940202
0.5308010621251068,0.733974843418252,1.148857688348364
-0.5222727838357266,0.4810322078589758,1.217813053497341
-0.519359138417835,0.3602366867253634,1.233074070534873
-0.5822785887278755,0.360236686725364,1.207942634487151
0.4485249413942465,0.3602366867253632,1.233074070534873
0.4514385868121381,0.4810322078589758,1.217813053497341
0.5161946963715949,0.4810322078589766,1.19346917792341
-0.5174720311497973,0.2405665849835173,1.242952056649952
-0.5167497258718314,0.120342394761642,1.248173536130236
-0.5777925652845281,0.1203423947616423,1.222262876636984
0.4459155288482428,0.120342394761642,1.248173536130236
0.4466378341262088,0.2405665849835172,1.242952056649952
0.5083024720238929,0.2405665849835178,1.217310856973387
-0.5178713764038048,0.004994644032000705,1.24840508917743
-0.5209356389381767,-0.1062883620531778,1.242588312900212
-0.5838359235703259,-0.1062883620531781,1.21696588459381
0.4501014419145883,-0.1062883620531778,1.242588312900212
0.4470371793802161,0.00499464403200066,1.24840508917743
0.5084585206802577,0.004994644032000627,1.222482480151121
-0.5254606720399992,-0.2205605411616985,1.228939821314236
-0.5309056962258841,-0.3371735708609064,1.207117423489686
-0.5993327670968592,-0.3371735708609079,1.183325506898281
0.4600714992022959,-0.3371735708609065,1.207117423489686
0.4546264750164107,-0.2205605411616986,1.228939821314235
0.5199391401253274,-0.2205605411616994,1.20402173744789
-0.5366709939640052,-0.4477768886176858,1.178220123551279
-0.5420539847628955,-0.5441740496150632,1.144395514402027
-0.6179643875357898,-0.5441740496150647,1.123840426412325
0.4712197877393072,-0.5441740496150633,1.144395514402027
0.465836796940417,-0.4477768886176858,1.178220123551279
0.537784479440107,-0.4477768886176874,1.155919481831975
-0.5466468432004208,-0.6248901386048698,1.108873036895458
-0.5493883176871792,-0.6906691517977812,1.076686170968042
-0.6339690657778254,-0.6906691517977832,1.059625293256975
0.4742468104765552,-0.8140871201912479,1.014657240716789
0.477932392678267,-0.7487958733264883,1.047508073627879
0.5656360270697077,-0.7487958733264908,1.031952961627513
-0.5416625106114605,-0.880398654731689,0.9809125959341254
-0.5412526890262955,-0.9374061284563295,0.9503439465759469
-0.6376239575782601,-0.9374061284563326,0.9397304263664833
0.4704184920027073,-0.9374061284563295,0.9503439465759471
0.4708283135878723,-0.8803986547316891,0.9809125959341256
0.5642107777957547,-0.8803986547316918,0.9687942120257249
-0.5427613784560421,-0.9936357466352798,0.9172091758150736
-0.543883171154069,-1.052298651765334,0.8834844749767459
-0.646866323180211,-1.052406884271139,0.8754708089613779
0.4730489741304805,-1.052298651765334,0.8834844749767459
0.4719271814324537,-0.9936357466352799,0.9172091758150736
0.5717926213108935,-0.9936357466352835,0.9080149580029503
-0.5425189188948494,-1.105864058189629,0.8612831650738547
-0.5389192172758103,-1.153675302364902,0.8525086901838678
-0.6407063387623624,-1.154792578205923,0.8444151469182192
0.4680850202522219,-1.153675302364902,0.8525086901838677
0.471684721871261,-1.105864058189629,0.8612831650738546
0.5752325885584351,-1.106405220718633,0.853629093798888
-0.5356844057173321,-1.201949842861494,0.8488546174488294
-0.5335598871598755,-1.253118730460076,0.8454936992689182
-0.6335099358775878,-1.254009400819264,0.8363566611933544
0.4627256901362872,-1.253118730460076,0.8454936992689182
0.4648502086937438,-1.201949842861494,0.8488546174488294
0.565182738675952,-1.203206921834588,0.840148522567726
-0.5314361280639807,-1.305826608151649,0.8410778733024483
-0.5283161933410279,-1.354502052109983,0.8349126783042884
-0.6269878835068734,-1.35467680602508,0.8256841358838123
0.4574819963174396,-1.354502052109984,0.8349126783042883
0.4606019310403924,-1.305826608151649,0.8410778733024484
0.5601419082626655,-1.306284348487637,0.8317748894386432
-0.5233157463532373,-1.389357571691626,0.8269572541258606
-0.5173647248663589,-1.430661847477227,0.81619124195128
-0.6131481099951516,-1.430661847477238,0.8073915148531139
0.4465305278427706,-1.430661847477227,0.8161912419512801
0.4524815493296489,-1.389357571691626,0.8269572541258605
0.5500651866887788,-1.389392522474652,0.8179109310457632
-0.5124159051109646,-1.50825572279377,0.80206737785259
-0.5069505031375611,-1.601487596278633,0.787242261545331
-0.5955253310217982,-1.601487596278645,0.7791056121154151
0.4361163061139728,-1.601487596278633,0.787242261545331
0.4415817080873763,-1.50825572279377,0.8020673778525901
0.5342661181947619,-1.508255722793781,0.7935911584822235
-0.4982950392813129,-1.690738435828469,0.7726527008770596
-0.4889036683986034,-1.767625606136969,0.7595610614602378
-0.5674212198668924,-1.76765509177535,0.7520584511346191
0.4017742001383856,-1.884478865842122,0.7376748789030968
0.4107618265652803,-1.822504012233274,0.7496957879286827
0.4857376780373134,-1.822651440425079,0.7424191421267973
-0.4553259055485462,-1.993849697655505,0.7165285292689113
-0.4284697069345423,-2.133786429015268,0.6865803766848252
-0.4860844289936517,-2.133895933718742,0.6811683014924084
0.3576355099109539,-2.133786429015268,0.6865803766848253
0.3844917085249578,-1.993849697655505,0.7165285292689114
0.4487140224299573,-1.994877596784575,0.7100418957133869
-0.2410037536911887,-2.235474100314422,0.6578854154173248
-0.2285775987719016,-2.283318919219803,0.632914884972546
-0.3103022863685636,-2.283190389987269,0.6328653047064525
0.1577434017482989,-2.283318919219803,0.632914884972546
0.1701695566675859,-2.235474100314422,0.6578854154173247
0.2566289116806282,-2.235474100314588,0.657721144507553
-0.2202782643572539,-2.333147422256976,0.550634436583625
-0.2199709353268965,-2.335623003401746,0.5263456316979424
-0.2984061346349338,-2.333540605789199,0.5267679763608829
0.1491367383032938,-2.335623003401746,0.5263456316979424
0.1494440673336512,-2.333147422256976,0.550634436583625
0.2280122930991451,-2.331219483766391,0.5509492221507681
-0.2153769554229479,-2.364298484995231,0.2911069964199692
-0.2215848349738596,-2.347436987842486,0.2339512760714646
-0.3002954958532922,-2.344491768629042,0.2356612453590851
0.1507506379502568,-2.347436987842486,0.2339512760714646
0.1445427583993452,-2.364298484995231,0.2911069964199692
0.2209894671587772,-2.361157799748738,0.2920322020079592
-0.2223460602953901,-2.309318467238809,0.6062577800470016
-0.2205560037170067,-2.325445614251013,0.576428662865037
-0.2992444481389442,-2.324031792691305,0.5766292228180073
0.149721806693404,-2.325445614251013,0.576428662865037
0.1515118632717873,-2.309318467238809,0.6062577800470014
0.2308879522827435,-2.308675821075412,0.6063262465154388
-0.2194635881078659,-2.338923778261427,0.4919276770154587
-0.218673584824322,-2.34586915869534,0.4439618978080053
-0.2965472298229033,-2.343302842922823,0.4447490656875437
0.1478393878007193,-2.34586915869534,0.4439618978080053
0.1486293910842632,-2.338923778261426,0.4919276770154586
0.2268449866563378,-2.336867310538132,0.4925024360974002
-0.2177684187403773,-2.352745772986348,0.394429644790698
-0.2167637721749122,-2.357971999847516,0.3473785239158517
-0.2938107604439502,-2.354877346562194,0.348593395851389
0.1459295751513095,-2.357971999847516,0.3473785239158517
0.1469342217167745,-2.352745772986348,0.394429644790698
0.224416068265989,-2.350327899421994,0.3954361583470811
-0.4936436448734392,-2.227035797707208,0.6399259122343577
-0.4749443568474335,-2.267632921520421,0.6185336296379141
-0.5144311253757302,-2.236694656572714,0.598184258924828
0.4023847086785056,-2.267632921520421,0.6227049304189158
0.418750545241756,-2.227035797707208,0.6422247389221782
0.4464870920673058,-2.208875318054055,0.6253538637959484
-0.4661826464328738,-2.288334145215364,0.5533639869349154
-0.4655326662232048,-2.288754387327249,0.5312292251805684
-0.5104920545367165,-2.255936796101389,0.5282877380980295
0.3946984691996165,-2.289054215996215,0.5312292251805684
0.3953484494092856,-2.288334145215364,0.5537672170871493
0.4401945807208476,-2.255304698819935,0.5507580374178672
-0.4529778168199615,-2.305226615910745,0.3073085705438713
-0.4605594146963015,-2.293347276802409,0.2530431272108306
-0.4979015230420224,-2.269323575377562,0.2467711588031683
0.3897252176727131,-2.293347276802409,0.2404322275168359
0.3821436197963732,-2.305788794665055,0.3009568949922522
0.4251854883356777,-2.276668227582473,0.2938790616620057
-0.4680200361553493,-2.28297032068588,0.5970052168530707
-0.4663600176907494,-2.287654378665089,0.5741960897830094
-0.5104424825438293,-2.254150749172118,0.5657407145362072
0.3955258206671612,-2.287654378665089,0.5762122405441793
0.3968407489026932,-2.28297032068588,0.6010653182271427
0.4386996352865193,-2.249505581004421,0.5907977521840601
-0.4642410480981287,-2.290256190173149,0.4985736464167668
-0.4622298366011103,-2.293404971562944,0.4530639612734701
-0.5067420851340736,-2.262329620584859,0.4483981116919888
0.3913956395775219,-2.298464580351736,0.45306396127347
0.3934068510745404,-2.292354990855906,0.4985736464167667
0.4381954493540496,-2.259286076725495,0.4947817890664782
-0.4599254405654706,-2.296488679098096,0.4060680138187994
-0.4571959099692889,-2.299517810580698,0.3612806628531704
-0.500949087517525,-2.270335846050502,0.3544776444970854
0.3863617129457005,-2.30232870435225,0.3600103277428465
0.3890912435418822,-2.301998030890336,0.4060680138187994
0.4332722970102382,-2.269977112803373,0.400499143647176
-0.3325217276859745,0.8222390148899021,0.1213466550585616
-0.3348103529405827,0.8624084957732479,0.1215482005328382
-0.4639977194670963,0.8624084957732513,0.1236767606756338
0.2639761559169868,0.8624084957732479,0.1215482005328382
0.2616875306623728,0.8222390148899024,0.1213466550585616
0.3902883864380874,0.8222390148899081,0.1234761077133225
-0.3504526409128588,0.9201913247330011,0.1218498100083078
-0.3901838812814477,1.00550045941932,0.1222448393635679
-0.5348531233153279,1.005500459419321,0.1242805646341107
0.3193496842578594,1.00550045941932,0.1222448393635679
0.2796184438892684,0.9201913247330013,0.1218498100083078
0.4131518449428634,0.9201913247330026,0.1239770345216795
-0.3282675209275547,-1.730732732294108,0.1334827362605788
-0.3661292952589029,-1.636466812568877,0.1305702138586465
-0.500611541684816,-1.63646681256892,0.1325418035209257
0.2952950982353001,-1.636466812568878,0.1305702138586465
0.257433323903952,-1.730732732294108,0.1334827362605787
0.3814355400332283,-1.730732732294162,0.1355584462167299
-0.4277906488293545,1.79584786092426,0.1280393446456617
-0.4209560745491568,1.821990309573223,0.1302709595874062
-0.5719234901644272,1.821990309573227,0.1315194868991387
0.3501218775255678,1.821990309573222,0.1302709595874062
0.3569564518057666,1.795847860924259,0.1280393446456617
0.5098213936277499,1.795847860924262,0.1280705807989557
-0.4265060319734117,1.724934415934429,0.1231199492335486
-0.4271014219641061,1.766731236124831,0.125749157883649
-0.5796680339857731,1.766731236124833,0.1242474636665487
0.3562672249405183,1.766731236124831,0.125749157883649
0.3556718349498237,1.724934415934429,0.1231199492335486
0.5079807341834526,1.724934415934432,0.1199511712148258
-0.4259905066716861,1.616432015768062,0.1225825057758137
-0.4261153126368031,1.673647606205359,0.1222901687421304
-0.5782550901667558,1.673647606205362,0.1174330208772817
0.355281115613215,1.673647606205359,0.1222901687421304
0.3551563096480981,1.616432015768061,0.1225825057758137
0.5072420652869596,1.616432015768065,0.1162205918604621
-0.4266740049158571,1.49734075644491,0.1161839578439171
-0.4261432657333404,1.557219856431118,0.120503889020667
-0.5782951426780557,1.557219856431121,0.1131177251439632
0.3553090687097524,1.557219856431117,0.120503889020667
0.3558398078922691,1.49734075644491,0.1161839578439171
0.5082214137148382,1.497340756444915,0.1083472023005631
-0.4295378384188532,1.371337850559708,0.1133522925322395
-0.4277719027521394,1.435521760501626,0.1133750622939487
-0.5806287303903112,1.43552176050163,0.1055507454962214
0.3569377057285513,1.435521760501626,0.1133750622939487
0.358703641395265,1.371337850559708,0.1133522925322395
0.512324849038607,1.371337850559711,0.1059977983591475
-0.4348295833654205,1.241833535877396,0.117121519691184
-0.4319843917364274,1.305211945843857,0.1149134788333598
-0.5866645827123933,1.305211945843859,0.1085855259798008
0.3611501947128392,1.305211945843856,0.1149134788333598
0.3639953863418323,1.241833535877396,0.117121519691184
0.5199071100588104,1.241833535877399,0.1122872603637105
-0.4397337500239906,1.152946058190374,0.1210354001142725
-0.4374968748065208,1.190158680482279,0.1193043818188901
-0.5945631276968816,1.190158680482281,0.1161525004314759
0.3666626777829326,1.190158680482279,0.1193043818188901
0.3688995530004024,1.152946058190374,0.1210354001142725
0.5269340306808973,1.152946058190376,0.1195882362405019
-0.4255334094705208,-0.9880036133494216,0.1211570191486071
-0.4225691612303774,-0.9570049528470314,0.1229828636828566
-0.5744578264701366,-0.9570049528470419,0.1242859451075668
0.3517349642067743,-0.9570049528470314,0.1229828636828566
0.354699212446918,-0.9880036133494216,0.1211570191486071
0.5070165848979897,-0.9880036133494323,0.1209045346677174
-0.4217223124468275,-1.039822661236825,0.1192953109032346
-0.4236048073598761,-1.010258920418065,0.119827740464845
-0.575087390118935,-1.010258920418076,0.1177732185255806
0.3527706103362731,-1.010258920418065,0.119827740464845
0.3508881154232246,-1.039822661236825,0.1192953109032346
0.5015558658537531,-1.039822661236836,0.1156938070137508
-0.4295927531836134,1.086255849490823,0.1224839227307128
-0.4416117154456664,1.12675696624347,0.1221332776597424
-0.6004590648778264,1.126756966243472,0.1223589489849989
0.3707775184220782,1.12675696624347,0.1221332776597423
0.3587585561600252,1.086255849490823,0.1224839227307127
0.5144241029415482,1.086255849490824,0.1239800897484555
-0.4175107255055933,-1.130785913478124,0.1154624520604129
-0.4196763227127498,-1.080450675013771,0.11779959695343
-0.5694584725673255,-1.080450675013783,0.1128343318195499
0.348842125689147,-1.080450675013771,0.11779959695343
0.3466765284819904,-1.130785913478124,0.1154624520604129
0.4955213060213803,-1.130785913478137,0.1093079265474808
-0.4139533996314702,-1.237716167409795,0.114599396731435
-0.4155228975398837,-1.184358440880263,0.1142877166244929
-0.5635072496519082,-1.184358440880277,0.1071728267192276
0.3446887005162808,-1.184358440880263,0.1142877166244929
0.3431192026078673,-1.237716167409795,0.1145993967314351
0.4904242022146252,-1.237716167409809,0.1068917906779515
-0.4126102456986057,-1.342698309593375,0.1154910919204829
-0.412985976697525,-1.290424849195557,0.1150416641524593
-0.5598722301623852,-1.290424849195572,0.1073320995882902
0.3421517796739222,-1.290424849195557,0.1150416641524593
0.3417760486750028,-1.342698309593375,0.1154910919204829
0.4884996680936264,-1.34269830959339,0.1083708730597851
-0.4128828766201336,-1.443149258194788,0.1197255527199122
-0.4126216956386539,-1.395398439186062,0.1170566543301202
-0.5593502711297851,-1.395398439186077,0.1108950691468809
0.341787498615051,-1.395398439186062,0.1170566543301202
0.3420486795965307,-1.443149258194788,0.1197255527199122
0.4888903064993083,-1.443149258194805,0.1147517587983144
-0.4139667845413677,-1.491297223920497,0.124622815857177
-0.4133233998440296,-1.47433691647908,0.1223632154723262
-0.5603557059150695,-1.474336916479106,0.1187481258571147
0.3424892028204268,-1.47433691647908,0.1223632154723262
0.343132587517765,-1.491297223920497,0.124622815857177
0.4904433807429934,-1.491297223920534,0.1225470596918618
-0.3064008068249987,2.111240245693173,0.1982916841830374
-0.3059664831890145,2.161210058155517,0.2309826035410723
-0.4230048858830147,2.158969179645159,0.2318066673735334
0.2351776451837994,2.183671484128144,0.2497073176344383
0.2352581618679602,2.139463975702407,0.2154459978879048
0.3523522510179349,2.139872344537111,0.2175516733943578
-0.3158466270480718,2.00814812831507,0.1595890649061545
-0.307173287903254,2.068839131587854,0.1787126038154191
-0.4246452845061434,2.07398658484682,0.1822277918715812
0.2363390908796476,2.068839131587854,0.1787126038154191
0.2450124300244664,2.00814812831507,0.1595890649061545
0.3652459290798081,2.011159207582211,0.1624773396146168
-0.3914732568630455,1.867760826405036,0.135143352891292
-0.3465740544739248,1.935672273025934,0.1445521126579344
-0.4759356653421007,1.936274488879383,0.1467644381398449
0.2757398574503239,1.935672273025934,0.1445521126579344
0.3206390598394516,1.867760826405036,0.135143352891292
0.4630881212744587,1.86776082640505,0.1370434279747765
-0.3328567806588889,0.7381506718490773,0.1211874810596094
-0.3327439990205892,0.7888253602479393,0.1212410587329727
-0.4614410642829145,0.7888253602479455,0.1233709790042078
0.2619098019969864,0.7888253602479394,0.1212410587329727
0.2620225836352911,0.7381506718490773,0.1211874810596094
0.3907684660945803,0.7381506718490817,0.1233176385910193
-0.3329424186003763,0.5259870190002641,0.1211467998696205
-0.3329263156198146,0.6504270813611855,0.1211544494472075
-0.461702296080268,0.650427081361187,0.1232847532538404
0.2620921185962236,0.6504270813611855,0.1211544494472075
0.262108221576788,0.5259870190002641,0.1211467998696205
0.3908911721645166,0.5259870190002642,0.1232771375511867
-0.3329277798456156,0.2716171222531961,0.1211537537038377
-0.3329307075965678,0.3929858160583183,0.1211523629369943
-0.4617085891111017,0.3929858160583185,0.1232826759834045
0.2620965105729794,0.3929858160583183,0.1211523629369943
0.2620935828220272,0.271617122253196,0.1211537537038377
0.3908701970682624,0.2716171222531963,0.123284060591459
-0.3329094623288049,0.03170723366077996,0.1211624552895736
-0.3329277798456156,0.1519466261142844,0.1211537537038377
-0.4617043940918508,0.1519466261142847,0.1232840605914589
0.2620935828220272,0.1519466261142844,0.1211537537038377
0.2620752653052165,0.03170723366077996,0.1211624552895736
0.3908439508687378,0.03170723366078011,0.1232927236436112
-0.3326706527643075,-0.1950908715154079,0.121275902355907
-0.3328361922615622,-0.08370093159831187,0.1211972616325168
-0.4615731630942281,-0.08370093159831178,0.1233273758522201
0.2620019952379739,-0.08370093159831187,0.1211972616325169
0.2618364557407181,-0.1950908715154079,0.121275902355907
0.3905017732939657,-0.1950908715154082,0.1234056683277182
-0.3318988076687995,-0.426230891287684,0.1216426043444466
-0.3323748451115024,-0.3094887133043475,0.121416433534751
-0.4609121232013483,-0.3094887133043492,0.1235455771866667
0.2615406480879085,-0.3094887133043475,0.1214164335347511
0.2610646106452001,-0.426230891287684,0.1216426043444466
0.3893958373427243,-0.4262308912876877,0.1237707464350301
-0.3361245227701119,-0.6334718132934664,0.1224063766197134
-0.3311806158930422,-0.5369641468966855,0.1219838570607816
-0.4592009754148041,-0.5369641468966887,0.1241104879681767
0.2603464188694437,-0.5369641468966854,0.1219838570607816
0.2652903257465175,-0.6334718132934664,0.1224063766197134
0.3945817376884859,-0.6334718132934687,0.1245311364666782
-0.4096305770300212,-0.901731442794544,0.1237056950714249
-0.391982989329268,-0.838246328727068,0.1235210280499235
-0.5364487058715032,-0.8382463287270769,0.1256408518409352
0.2818998256850305,-0.7142602408391833,0.1228291760581723
0.3028057780827546,-0.7800836655427174,0.1231940194599455
0.4424336466878948,-0.7800836655427246,0.1253152913563053
-0.3054398083342939,-2.01604694984551,0.1775026386114075
-0.307947524203606,-1.954514121963261,0.1597826230846947
-0.4248918681561209,-1.95451412196345,0.1617418681896716
0.2415108561436301,-1.821001369982793,0.1402250929907109
0.237956043913884,-1.899034449243247,0.1491969980921107
0.3560808680023577,-1.899034449243402,0.1512031199478365
-0.2516238335113762,-2.256060381498877,0.2042853291706618
-0.2889679498601555,-2.119858414452715,0.1945528225188727
-0.3941006781742228,-2.119269370610205,0.1963739269901149
0.2181337528365527,-2.119858414452715,0.1945528225188727
0.1807896364877734,-2.256060381498877,0.2042853291706618
0.2708101482337362,-2.254186151090412,0.2051997878809634
-0.4033304422496343,-1.554550421089165,0.1291012714719133
-0.4149304579732138,-1.510315650422628,0.1269452720316271
-0.5626583743794706,-1.510315650422673,0.1266671551966868
0.344096260949611,-1.510315650422628,0.1269452720316271
0.3324962452260315,-1.554550421089165,0.1291012714719133
0.4771725713675366,-1.554550421089211,0.1303772585042662
-0.7852977123245214,0.8222390148899125,0.1459696277621806
-0.7851483074598321,0.8624084957732541,0.1461608530738072
-0.8861125351792911,0.8624391047427578,0.1437409446149204
0.7143141104362438,0.8624084957732541,0.1461608530738071
0.7144635153009331,0.8222390148899126,0.1459696277621805
0.8148646417797527,0.8222390148899124,0.1435188155067945
-0.78615803173516,0.9201913247330036,0.1464470185962196
-0.7891749970277525,1.005554235335902,0.145368394559619
-0.8936530680624856,1.012232910242866,0.1422578288540226
0.7183408000041641,1.005554235335902,0.145368394559619
0.7153238347115716,0.9201913247330036,0.1464470185962195
0.8157988078502355,0.9204055875195309,0.1442148114763697
-0.7206844044087327,-1.730732732294201,0.1574842793221759
-0.7278551674276954,-1.636373753540854,0.1528171958265376
-0.8190567238252652,-1.630369251797674,0.148075121126825
0.6570209704041072,-1.636373753540854,0.1528171958265376
0.6498502073851443,-1.730732732294201,0.1574842793221759
0.726431570591354,-1.730516835597492,0.1536046576166585
-0.7533317093138041,1.795765581020492,0.1208888656654741
-0.7533399551653902,1.821441552541888,0.1415800188920963
-0.8526949781125335,1.815727754372728,0.1334554521488766
0.6825057581418019,1.821441552541888,0.1415800188920963
0.6824975122902157,1.795765581020491,0.1208888656654741
0.7610870923360995,1.793347065887998,0.1091628133985913
-0.7505955665357117,1.725513730706534,0.06768927943323544
-0.7516355788481386,1.767270922325297,0.09580661461430401
-0.8302056199799993,1.767841882311175,0.08481426998302209
0.6808013818245504,1.767270922325297,0.095806614614304
0.6797613695121236,1.725513730706534,0.06768927943323541
0.7714773868193556,1.726965219833605,0.05431441439842978
-0.7515887135497261,1.616432015768067,0.01760701198162424
-0.751445330890933,1.673763469159785,0.04043849295936447
-0.8433097596360308,1.674053766985199,0.0247842012560567
0.680611133867345,1.673763469159784,0.04043849295936444
0.6807545165261381,1.616432015768067,0.01760701198162421
0.7727472317374308,1.616432015768068,0.0003603814881620801
-0.7533287816678,1.497340756444917,-0.01140953639971984
-0.7519776116561928,1.557219856431124,-0.0001406145464155279
-0.8441397755511284,1.557219856431124,-0.01834803095350725
0.6811434146326048,1.557219856431124,-0.0001406145464155515
0.6824945846442122,1.497340756444917,-0.01140953639971987
0.7749253578038116,1.497340756444917,-0.03003381789176205
-0.7606196056260698,1.371337850559714,-0.006926012591396332
-0.7561238393553804,1.435521760501633,-0.01407460208178848
-0.8489770918986881,1.435521760501633,-0.03269155692397058
0.6852896423317926,1.435521760501633,-0.0140746020817885
0.6897854086024818,1.371337850559714,-0.006926012591396352
0.7832326022539664,1.371337850559714,-0.02512262364625942
-0.7736240897072619,1.241738763511149,0.03552998397866643
-0.7668481065233082,1.305211945843862,0.01033067857740657
-0.8610411766802616,1.305211945843862,-0.006935191653513567
0.6960139094997201,1.305211945843862,0.01033067857740655
0.7027898926836736,1.241738763511149,0.03552998397866643
0.7977906014490045,1.241487953340147,0.01977810055903973
-0.7839913268120875,1.152552860233988,0.09170286884563289
-0.7785450244548237,1.189684818651022,0.06404648221452573
-0.8742543136698504,1.188430767796013,0.0504401495958308
0.7077108274312354,1.189684818651022,0.06404648221452572
0.7131571297884993,1.152552860233988,0.09170286884563289
0.7955261829188753,1.152020115096208,0.08051917024186511
-0.7557057018220753,-0.9883315713710168,0.1086664796254902
-0.7614873507046202,-0.9573800439494999,0.1341877799037549
-0.857880014019861,-0.9634932907117046,0.1242415612632372
0.690653153681032,-0.9573800439495001,0.1341877799037549
0.684871504798487,-0.9883315713710168,0.1086664796254902
0.7626460205398158,-0.9902542116398105,0.09586025341522682
-0.7455159290392014,-1.039453034724456,0.0570986783825067
-0.7500466909948651,-1.009969670570506,0.08107618613841801
-0.8284869567446853,-1.009441627593812,0.06942124521469104
0.6792124939712769,-1.009969670570506,0.08107618613841801
0.6746817320156131,-1.039453034724456,0.05709867838250669
0.7660012325926743,-1.038394432175065,0.04302892427611067
-0.7913747876024138,1.08663228090689,0.1368746804622795
-0.7896482509113776,1.127065513251576,0.1172369475772594
-0.8714154746433178,1.12938793469072,0.1050764101785536
0.7188140538877894,1.127065513251576,0.1172369475772594
0.7205405905788254,1.08663228090689,0.1368746804622795
0.8225644341407342,1.094979227889746,0.1276402594307634
-0.7370390830959184,-1.130785913478146,0.01353597862110883
-0.7421032934539752,-1.080376749711314,0.03420436321334398
-0.8329400430955987,-1.080165029201436,0.01834869896515297
0.671269096430387,-1.080376749711314,0.03420436321334397
0.6662048860723301,-1.130785913478146,0.01353597862110883
0.756399565089802,-1.130785913478146,-0.003536850273583317
-0.7279827477037615,-1.237716167409819,-0.01104863558531441
-0.7319784174733705,-1.184358440880286,-0.002317751487365717
-0.8215356826088253,-1.184358440880286,-0.02026547263327145
0.6611442204497823,-1.184358440880286,-0.002317751487365713
0.6571485506801733,-1.237716167409819,-0.01104863558531441
0.7461810017841453,-1.237716167409819,-0.02953559462611082
-0.7245633104832926,-1.342698309593401,-0.001175995182462103
-0.7255198565136116,-1.290424849195582,-0.01062901452604006
-0.8141920032225877,-1.290424849195582,-0.02910632008332701
0.6546856594900234,-1.290424849195582,-0.01062901452604007
0.6537291134597043,-1.342698309593401,-0.001175995182462095
0.7422022054120722,-1.342698309593401,-0.0190936462803461
-0.7248130167703495,-1.443172802438219,0.03603758280870556
-0.7245924600470285,-1.395398439186089,0.01504854955288353
-0.8129693170990252,-1.395398439186089,-0.00197046393679454
0.6537582630234402,-1.395398439186089,0.01504854955288354
0.6539788197467612,-1.443172802438219,0.03603758280870557
0.7422929433734729,-1.443345241010067,0.02027016736580273
-0.7257033539873421,-1.491275356595418,0.08565694099368776
-0.7241570533500923,-1.474454637696126,0.06003890373495756
-0.812361738046455,-1.475316830555366,0.04611501918402247
0.6533228563265039,-1.474454637696125,0.06003890373495757
0.6548691569637538,-1.491275356595418,0.08565694099368777
0.7305601186240145,-1.492178058313117,0.07407979096764877
-0.7074177379109367,2.093671403509349,0.2214404951307943
-0.7058630043293684,2.108841604725675,0.2360731824033635
-0.7775708634453603,2.085751666884273,0.232521791949162
0.6314103564529027,2.127591718656667,0.2635410749262213
0.632392250896598,2.118660157192031,0.2486804075352862
0.7013523364511884,2.096695370831714,0.2448788216254662
-0.7210648282796519,2.003676196684984,0.1838816386077797
-0.7114873320480636,2.061341744318089,0.203293532296772
-0.788944964700663,2.037847393690169,0.2003520947084238
0.640653135024475,2.061341744318089,0.203293532296772
0.6502306312560633,2.003676196684984,0.1838816386077797
0.735150530901192,1.987752912892429,0.1812338262894682
-0.7479718824657675,1.865968126967672,0.1564884752176247
-0.734959021940148,1.931972973314753,0.1683124085677975
-0.8258150603714932,1.924168503469409,0.166100124090324
0.6641248249165597,1.931972973314753,0.1683124085677974
0.6771376854421791,1.865968126967672,0.1564884752176247
0.7769269589757357,1.859719558212998,0.1541581266786261
-0.785841666593383,0.7381506718490849,0.145818604288883
-0.7855687257986647,0.7888253602479503,0.1458694385104007
-0.8855912934133923,0.7888253602479503,0.1434188913510495
0.7147345287750765,0.7888253602479503,0.1458694385104007
0.7150074695697946,0.7381506718490849,0.145818604288883
0.8150369715270258,0.7381506718490849,0.1433681916624495
-0.7866287428956,0.5259870190002645,0.1457800061846034
-0.7862223545029605,0.6504270813611881,0.1457872640645593
-0.8865887150060614,0.6504270813611881,0.1433369343964927
0.715388157479372,0.6504270813611881,0.1457872640645593
0.7157945458720115,0.5259870190002645,0.1457800061846034
0.8167493897793645,0.5259870190002646,0.1433296957274004
-0.7868550234197788,0.2716171222531965,0.1457866039468204
-0.7868651360703884,0.3929858160583187,0.145785284394377
-0.8882247824815978,0.3929858160583188,0.1433349599646909
0.7160309390467999,0.3929858160583187,0.145785284394377
0.7160208263961904,0.2716171222531965,0.1457866039468204
0.8173354805696803,0.2716171222531965,0.1433362760240135
-0.7862583798582433,0.03170723366078024,0.1457948599667086
-0.7866726865973253,0.1519466261142848,0.1457866039468204
-0.8876635692203357,0.1519466261142849,0.1433362760240135
0.7158384895737368,0.1519466261142848,0.1457866039468204
0.7154241828346548,0.03170723366078024,0.1457948599667085
0.8158295643979336,0.03170723366078025,0.1433472756947597
-0.7842562413324029,-0.1950908715154084,0.1459024979610157
-0.78541833005941,-0.08370093159831164,0.1458278840462609
-0.8848395652319053,-0.08370093159831163,0.1433912743777442
0.7145841330358216,-0.08370093159831167,0.1458278840462609
0.7134220443088147,-0.1950908715154084,0.1459024979610157
0.8117387165456408,-0.1950908715154084,0.1434822811780588
-0.782184049292617,-0.4262308912876901,0.1462504229257647
-0.7831732950835008,-0.3094887133043505,0.146035833222273
-0.8809583612339024,-0.3094887133043505,0.1436263149643948
0.7123390980599124,-0.3094887133043505,0.146035833222273
0.7113498522690284,-0.4262308912876901,0.1462504229257647
0.809352605196729,-0.4262308912876901,0.1438430805818292
-0.7800955667849221,-0.6334718132934705,0.1469750861407249
-0.7809164385133003,-0.536964146896691,0.1465742017516549
-0.8795454697168497,-0.536964146896691,0.1441659688518249
0.7100822414897119,-0.536964146896691,0.1465742017516548
0.7092613697613336,-0.6334718132934705,0.1469750861407249
0.8082491945473926,-0.6334718132934704,0.1445426756309395
-0.7698846660845666,-0.9017850272377681,0.1463029765045458
-0.7776183569327059,-0.8382463287270834,0.1480326616971241
-0.8730670450091114,-0.8384434922120553,0.1456374219031393
0.7099144732744047,-0.7142602408391903,0.1473762360780546
0.7101629724628635,-0.7800836655427295,0.1477223976252177
0.8075128156307868,-0.780123098239724,0.1451870329176369
-0.641950642651492,-2.01515218581636,0.1992855134204641
-0.6790788993346182,-1.954514121963587,0.1824374769653097
-0.7247609364133475,-1.95442240165094,0.1777963072074244
0.6395008054062739,-1.821001369982968,0.1638813927847805
0.62641930324077,-1.899034449243516,0.1722065914870562
0.6791923435928546,-1.898960636801301,0.1674647906169548
-0.5048306469256308,-2.222516982453995,0.2253326280606744
-0.5774023226905221,-2.110016010128515,0.2158164070634953
-0.6143212194304777,-2.107845923853735,0.2107961773948208
0.5065681256669338,-2.110016010128515,0.2084102321886205
0.4339964499020425,-2.222516982453995,0.212704790376776
0.4671175945352333,-2.210992684881077,0.208527616700949
-0.7309322105983381,-1.553899007892571,0.1400012876993355
-0.7295675774652759,-1.509641251955384,0.1141732203523882
-0.8053656465490451,-1.508303558387962,0.1013665336078058
0.6587333804416877,-1.509641251955384,0.1141732203523882
0.66009801357475,-1.553899007892571,0.1400012876993355
0.7548015597347522,-1.546520306360692,0.1294542630186574
-0.3468370464023912,2.145805802326612,0.6977289429100799
-0.338406642946898,2.153144232149108,0.7062228527308211
-0.4204637873195413,2.151158780808876,0.706037741739845
0.3127911093908628,2.168135871008138,0.7163624222621734
0.3164704270266632,2.160698546352577,0.7115095424578843
0.3723813246378608,2.158266298940045,0.7112754748689677
-0.310775672390442,2.149923492883728,0.6518751894565902
-0.3098202838005056,2.143373828900481,0.6801296071968348
-0.4335981113118752,2.140456505559239,0.6798093852751392
0.2302323772932302,2.143466716866285,0.6801296071968348
0.2399414753668353,2.149923492883727,0.65187518945659
0.359129615734783,2.14661878671507,0.6516552811722817
-0.3065904225234725,2.206174398929758,0.274499741871378
-0.3079055458715193,2.221923650822276,0.3131007734780167
-0.4257601674340513,2.211024026955915,0.3128836254952649
0.2370713488479241,2.221923650822276,0.3131007734780167
0.2357562254998721,2.206174398929758,0.274499741871378
0.3529716851415812,2.198684830994177,0.2733054888304318
-0.3107888209139114,2.168417809488099,0.5993300966803401
-0.310775672390442,2.159084898841718,0.6239100670278598
-0.4299638127583717,2.155780192673057,0.6238139978248264
0.2399414753668354,2.159084898841718,0.6239100670278598
0.2399546238903047,2.168417809488099,0.5993300966803401
0.3591484555575602,2.16484252880924,0.5993428759528794
-0.3093791840828694,2.225367320226373,0.3774142879076043
-0.3104292766873088,2.216637831875444,0.4576751590173768
-0.4294674807045769,2.205006074703522,0.4583152345723867
0.239595079663708,2.216637831875444,0.4576751590173768
0.2385449870592743,2.225367320226373,0.3774142879076043
0.3571104229991949,2.212740068920833,0.3781102962943718
-0.3108799537596109,2.19996087356783,0.5255919269257853
-0.3108677120547275,2.181913307751118,0.5697067804617099
-0.4300956915178114,2.176714580011115,0.5698507418620653
0.2400335150311209,2.181913307751117,0.5697067804617099
0.2400457567360056,2.19996087356783,0.5255919269257853
0.3592790349846822,2.191419173664002,0.5259312439140328
-0.7747800059942381,2.075354478280814,0.6980546945787342
-0.7655452045182917,2.08565898536814,0.7052338765563273
-0.7958093702267772,2.078717495864343,0.708101070096363
0.6772962878651296,2.102992946756802,0.7145159021200315
0.6854612112837852,2.095179722518516,0.7099920229212391
0.7138841098163755,2.088466683850947,0.7127313509452569
-0.7287759832298619,2.085363180772187,0.6555686760271984
-0.7189227711935234,2.083764291807686,0.679258957257187
-0.7937617223846045,2.064485772327291,0.6856067919918811
0.6551906855881211,2.08203391297204,0.6792589572571868
0.6579417862062735,2.085363180772187,0.6555686760271984
0.7265582376338303,2.064515393326197,0.6636872242184722
-0.7042634821927171,2.136441815644844,0.2848504313818586
-0.7070453551802025,2.143628907408892,0.3230355486501654
-0.7680108880884355,2.11597852923994,0.316093746453536
0.6362111581566143,2.143628907408892,0.3230355486501654
0.6334292851691287,2.136441815644844,0.2848504313818586
0.6916123884701971,2.112566113221487,0.2774743962249529
-0.7258599150510664,2.100331250833758,0.6033350367721644
-0.7280116353420061,2.092308091780171,0.6294584023084816
-0.7988549725972624,2.067829892000378,0.638178515324491
0.6571774383184177,2.092308091780171,0.6294584023084817
0.6550257180274781,2.100331250833757,0.6033350367721644
0.7264802185195164,2.073542791151489,0.6089746685271708
-0.7102761352773347,2.143972016470404,0.387007199353599
-0.7136285991772318,2.136190099360859,0.4642590604145297
-0.771766466927302,2.106624953100177,0.4614995664920298
0.6427944021536437,2.136190099360859,0.4642590604145297
0.6394419382537465,2.143972016470404,0.3870071993535988
0.6972287652043778,2.115528841237628,0.3825916415205419
-0.7178387448032465,2.123879662321596,0.5290821861232725
-0.7223321353931442,2.110984132552178,0.5721559590751698
-0.7895201916961093,2.08299029152322,0.5735148148072208
0.6514979383695561,2.110984132552178,0.5721559590751698
0.6470045477796581,2.123879662321596,0.5290821861232726
0.7088876394848861,2.094488931325439,0.5278696783811155
-0.6594155546747815,0.873639683121106,1.083738237737289
-0.6581352186468469,0.8219389980774576,1.094920618843956
-0.7052907844658443,0.8164035090473374,1.044336618228021
-0.6553917675146792,0.9475420305451037,1.062817589609037
-0.6582553852597657,0.9073958682496408,1.07481995980434
-0.7019392119045875,0.9015687460950445,1.026369550020844
-0.6735348185756904,-1.690738435828487,0.749079883200484
-0.6528470451063669,-1.767773034328769,0.7363016191622118
-0.7419487367855887,-1.774915552743372,0.7112135633793427
-0.7439759975395257,2.10704603727431,0.7199629262066778
-0.7439959783290762,2.107031166203562,0.7267961245439538
-0.7743077410840482,2.098544564065579,0.7271348666832893
-0.706609629883347,2.07963450876361,0.7955827102209996
-0.6914579218460518,2.057170210588874,0.8227045837817375
-0.7467112137108853,2.041246435656542,0.816985523354103
-0.7005731871844099,2.019107193922995,0.8413845456203375
-0.6943185619749817,1.985856825290964,0.8544111102743724
-0.7173752093698259,1.979124811162617,0.8491321949085201
-0.6951870526982313,1.889554480067665,0.878163973893888
-0.6976858164983997,1.856861068398774,0.8844015743167255
-0.7191498105796518,1.85084971724383,0.8798240780555191
-0.7014100838005829,1.760627902268294,0.8988365682585087
-0.7025539762651187,1.729460940649878,0.9018417923942605
-0.7262190583514701,1.722892699468264,0.8967764026203046
-0.6728946427175759,1.623260830385799,0.9195710163470001
-0.671575035726153,1.576509523148121,0.9289596081488216
-0.728461064987002,1.568049617449058,0.9123280663689941
