-0.4360839314673985,3.011738066665484,1.088505089973815
0.5901919798834711,2.925819428570971,1.118746243222355
0.6017533497540066,2.883428893798802,1.119566826241053
0.5835232742610339,2.886789112713861,1.085354095720337
-0.1115717277401616,3.142769187862213,1.323318092088676
-0.09886338595757677,3.153059503229815,1.316118684762613
0.0142684425216951,3.154807762705301,1.31752001774595
0.01394273211539468,2.762180837855116,1.252043780750361
-0.09793782909736341,2.761080836901214,1.251783197998704
-0.1100298921219462,2.773417998186592,1.256709691835513
0.4331617846440093,2.758035481039466,1.251061773887737
0.3426708280428654,2.759736268886516,1.251464678972136
0.3575296054228314,2.772036399596518,1.256382400517255
0.005987168027210417,2.792292319014363,1.261609195258752
-0.119031958572894,2.791069304545404,1.261319471441234
-0.1212341245594189,2.816155987212315,1.266561788760665
0.01627365813247853,3.149386794455575,1.287403898971276
-0.09193631999857274,3.148465357362272,1.287174175454017
-0.0949704865932051,3.13270334629472,1.280752729934449
0.4285722171314974,3.145640723011588,1.286481300843866
0.3359725427197504,3.147311993344659,1.286886630226315
0.3405057937775553,3.131540767166129,1.280242275049938
0.01359878830352438,3.111697295206549,1.274859414409517
-0.09929318716868672,3.110647176858032,1.273783983087694
-0.1035178663638339,3.081864758326852,1.265456579261081
0.1369606488524567,3.13238559687443,1.327410362531707
0.2617217954360442,3.12978659317321,1.327115571194483
0.2634878335223795,3.113003200659866,1.326852409411486
-0.3169722991745411,3.126140811698843,1.326438062216188
-0.2246582160929482,3.127427610263891,1.326818862674268
-0.2265460363716052,3.111439602740354,1.326498064941633
0.1377411053937125,3.092441332909405,1.324313833832726
0.2635088091679738,3.091087952086576,1.324005386447387
0.2635624037055844,3.061278378564562,1.318574029656208
0.1272480642734473,2.783578793231257,1.212487207989184
0.2360425312531158,2.782399545068365,1.212216409055554
0.239070314192032,2.798897738196752,1.21173781760866
-0.2872801173705591,2.779082677790415,1.211448419271291
-0.1941776521290046,2.780923478596981,1.211877449675335
-0.1986981586173835,2.797479854939552,1.21122198790383
0.1299140533745481,2.819712442928821,1.213676948526422
0.2433695670639655,2.818718722759978,1.212728500641214
0.2475246838891144,2.843729138569966,1.215123430609167
-0.09018847227674437,2.747391524437763,1.231303159451901
-0.09018847227674437,2.747293869476431,1.236368962429035
0.01686505712730549,2.748349287313428,1.236618983743234
-0.09018847227674437,2.749260339899291,1.241345214434798
-0.09139813800526649,2.753551181467759,1.246507364944751
0.01640888553831559,2.754613558678268,1.246759034887246
0.3331472940588782,2.747939272009158,1.24103226242806
0.3346339068115897,2.752226445235083,1.24619354393259
0.4265008833298164,2.750487586258084,1.245781620056194
-0.0902677247576654,3.158265007250598,1.309558620903598
-0.08937089931226108,3.159787863383144,1.304208955942915
0.01714168982439614,3.160854928389867,1.304585692445987
-0.0896369869869158,3.159459228277385,1.299076677975592
-0.09032922716962483,3.156539547413285,1.293368585870804
0.01681743152404104,3.157574387725987,1.293618187638906
0.3322558645269341,3.158102983301133,1.29875285515676
0.3333748124906359,3.155244236437289,1.293056159010465
0.4253751509722706,3.153475133541031,1.292633403757117
-0.09121304834044078,2.769987627087246,1.214552517787411
-0.09052099303816835,2.761020443994378,1.217934718618742
0.01675254592761153,2.762091510787496,1.218187365687596
-0.09025497642902916,2.754495543607512,1.221854378971338
-0.09018847227674437,2.749816351093794,1.226386917304658
0.01686505712730547,2.750871768930792,1.226636938618856
0.3332547924209143,2.753170558153601,1.221540769632491
0.3331472940588782,2.748495283203661,1.226073965297919
0.425268796993111,2.746749382098755,1.225660373189272
-0.1211134890768092,2.853639084314192,1.274338285481045
-0.1209087854403207,2.905461693216354,1.285505222927996
0.005267092541195374,2.906719439591073,1.285803174497991
-0.1206649235257334,2.964995051391006,1.29842903092198
-0.1204602198892448,3.019423582540868,1.310044714977675
0.005421672558894529,3.020707080618314,1.310348766951068
0.3703902761338301,2.963536873373946,1.298083598457813
0.3700721864372706,3.017951929930281,1.309696090473859
0.4688589061829852,3.015978762909483,1.30922866061397
-0.10262678581424,3.041748354208187,1.254585689962336
-0.09690871799136323,2.989254592555251,1.241538539354548
0.01379228443825518,2.990151449301219,1.24585815436002
-0.09712962282571799,2.931377221052968,1.229138926740381
-0.1032135894176384,2.880441808567501,1.2201894725309
0.0118087711538055,2.880898760008281,1.223316574663955
0.3363650037186816,2.931231765023435,1.224368285038173
0.3477100200283486,2.880453133272207,1.216562614439854
0.4456012631867008,2.879359152095075,1.210359451629504
-0.2539130406827334,2.761103400299529,1.059406840310526
-0.2641837691519868,2.803361200767908,1.05829264885454
-0.1970346731770981,2.808195821440891,1.060899747003381
-0.2821364590165721,2.910478516795111,1.056509896063123
-0.281331083880941,2.946428210804561,1.05534774404466
-0.21567605373738,2.953471889045542,1.056921121265182
-0.2668381230230312,3.058605205556993,1.044272709659849
-0.2520858855552587,3.097260496765643,1.035613706412961
-0.1875900286420445,3.102668010086274,1.037317399866186
0.01611409279948292,3.175535944776523,0.9746116226686306
0.01644910768007572,3.175781109540898,0.9987964652556303
-0.08381224281151807,3.170762562524725,0.9958486995426021
0.1267737116187148,3.175781109540898,0.9987964652556303
0.1271087264993075,3.175535944776523,0.9746116226686306
0.2295104052847443,3.170692780796837,0.9702194410794565
0.1276998703050327,3.173091985248403,0.9514470027706576
0.1284801049445267,3.169740715944837,0.9176314229027576
0.2409428489287661,3.164627185952783,0.9153935064355496
0.01474271435426372,3.169740715944837,0.9176314229027576
0.01552294899375776,3.173091985248403,0.9514470027706576
-0.09160151936177113,3.168111858811582,0.9480445475835011
0.01387037133624615,3.163905621839064,0.8225076250552093
0.01408845709075055,3.166282505766785,0.8725462661414918
-0.09966813699396865,3.161176749805589,0.8707704211953676
0.1291343622080399,3.166282505766785,0.8725462661414918
0.1293524479625443,3.163905621839064,0.8225076250552093
0.2435403254141961,3.158805209095331,0.8212446192042677
0.01386761416988407,3.161215608228825,0.7431962699154605
0.01387037133624615,3.162775639806713,0.7797034362406219
-0.1003175061153262,3.157677767254223,0.778879124586507
0.1293524479625443,3.162775639806713,0.7797034362406219
0.1293552051289064,3.161215608228825,0.7431962699154604
0.2435485351145593,3.156121242615775,0.7427461151476907
0.0138485041597585,3.136461877576368,0.6373608220983876
0.01385107117171164,3.153550391810128,0.6974246660658199
-0.100374974017869,3.148473257546827,0.6974436181201706
0.1293717481270788,3.153550391810128,0.6974246660658198
0.129374315139032,3.136461877576369,0.6373608220983876
0.2436054368159684,3.131423158166517,0.6379953601623636
0.01398835927908363,3.099099670641675,0.5103653868775546
0.01394300843370462,3.116654191292978,0.5733827801102925
-0.1001012229002131,3.111659999415209,0.5746730202567458
0.1292798108650859,3.116654191292978,0.5733827801102925
0.1292344600197068,3.099099670641675,0.5103653868775545
0.2431890061501512,3.094144941196333,0.5123014835505751
0.01285395477422845,3.060320238359835,0.3665822085626374
0.01359798330183447,3.081928720941352,0.4398877893885437
-0.101128564953058,3.077012591663773,0.4425462011872812
0.129624835996956,3.081928720941352,0.4398877893885437
0.130368864524562,3.060320238359835,0.3665822085626374
0.2465667932883154,3.055452684791066,0.369991919096245
0.01207985937352592,2.980513701851951,0.2717044298398312
0.01230699563486928,3.02650160991388,0.3081339392502208
-0.1049725919454934,3.021710080371403,0.3121426779927998
0.1309158236639212,3.02650160991388,0.3081339392502208
0.1311429599252645,2.98051370185195,0.2717044298398312
0.2488717290295031,2.975825552786228,0.2760865295738045
0.009808616308880042,2.874030651323665,0.2488190364903105
0.01186733103113259,2.930210859654219,0.2539312822581583
-0.1062817311786786,2.925635791005236,0.2584955365176435
0.1313554882676579,2.930210859654219,0.2539312822581583
0.1334142029899104,2.874030651323664,0.2488190364903105
0.2556345509140874,2.869581875366964,0.2534356854479124
-0.008294501590620718,2.72061070216537,0.2469265078270832
0.002487341568215559,2.800993867386074,0.2477391705798149
-0.134211457857613,2.796709277578793,0.2523668869334187
0.1407354777305749,2.800993867386073,0.2477391705798149
0.1515173208894112,2.72061070216537,0.2469265078270832
0.309538143979782,2.716646679088168,0.2512547692514805
-0.01739906293579402,2.630278517165851,0.2490557093650543
-0.01551655632859587,2.662880753783616,0.2474792167894117
-0.1878196148178461,2.659605971082604,0.2505706783879276
0.1587393756273863,2.662880753783616,0.2474792167894117
0.1606218822345845,2.630278517165852,0.2490557093650543
0.3366477597109712,2.627916219870937,0.2503284902192271
-0.01723419168163475,2.553846446855777,0.2493282730801655
-0.0174028588314162,2.597753384040097,0.2498746407932231
-0.1934362430183193,2.596023666883329,0.2500846105124836
0.1606256781302066,2.597753384040097,0.2498746407932231
0.1604570109804252,2.553846446855777,0.2493282730801655
0.3361568413486332,2.552355298138586,0.2495340649596949
-0.01632482659766113,2.441389696681531,0.2461920684138682
-0.01684471939959314,2.500690498783727,0.2479824749991641
-0.1917743347783173,2.499318844244158,0.2485104991777515
0.1600675386983836,2.500690498783727,0.2479824749991641
0.1595476458964516,2.441389696681531,0.2461920684138681
0.3334491284724985,2.440151349905939,0.2469953434271164
-0.01575042218269011,2.317958178327033,0.2422043469650351
-0.01590362458743469,2.38001956109353,0.2441008282782927
-0.1889721439031077,2.378919173928268,0.245117812611824
0.1591264438862252,2.38001956109353,0.2441008282782927
0.1589732414814806,2.317958178327033,0.2422043469650351
0.3317387898440024,2.31699730469064,0.2433547521536619
-0.01656838495719217,2.187363119723548,0.2418293506343758
-0.01597472569938398,2.253886200452325,0.2413500342652744
-0.1891838535890474,2.253069360147702,0.2425306379921696
0.1591975449981745,2.253886200452325,0.2413500342652744
0.1597912042559827,2.187363119723548,0.2418293506343758
0.3341743444696982,2.186695822811745,0.2429232220419893
-0.01831152498516273,2.053139044123829,0.2451758386614848
-0.01740559327950972,2.118827268578706,0.2433778071918907
-0.1934443850730809,2.118314039752701,0.2442635321928653
0.1606284125783002,2.118827268578706,0.2433778071918907
0.1615343442839533,2.053139044123829,0.2451758386614848
0.3393646940683627,2.052773481939908,0.2457594311741098
-0.01959510706646888,1.959720219056496,0.2452643804917333
-0.01906233538840837,1.999580908132969,0.2458488033709376
-0.198377477424832,1.999335744242103,0.2460956165546024
0.1622851546871988,1.999580908132969,0.2458488033709377
0.1628179263652594,1.959720219056496,0.2452643804917333
0.3431866702915332,1.95987256049496,0.2454865834142644
-0.0170871283856205,1.8818540420203,0.2433858024844636
-0.02000784985953162,1.927409232021092,0.2445325700390599
-0.2011928282153473,1.928865803501093,0.2456766243440589
0.1632306691583221,1.927409232021092,0.2445325700390599
0.160309947684411,1.8818540420203,0.2433858024844636
0.3357189477157652,1.884265797543964,0.2460751721044234
0.002121581127975083,1.71591906922436,0.238448880828053
-0.0075882583338917,1.804215659083222,0.2408996051833652
-0.1642124245436292,1.805357589717081,0.2448017080689103
0.1508110776326822,1.804215659083222,0.2408996051833653
0.1411012381708154,1.71591906922436,0.238448880828053
0.2785233603762745,1.715130914993108,0.2429572043514866
0.007359884692884525,1.565536338715698,0.2369893594865143
0.006314834199369537,1.633404485082483,0.2373338821319882
-0.1228147688233248,1.631895655483584,0.2420375825983352
0.136907985099421,1.633404485082483,0.2373338821319882
0.135862934605906,1.565536338715698,0.2369893594865143
0.2629258602503297,1.564029048283613,0.241727249163663
0.007844444919205291,1.496090106621605,0.2368223862594773
0.007630528490446462,1.525619348941584,0.2368785891385773
-0.1188971757292079,1.524201791606905,0.2416176140856624
0.135592290808344,1.525619348941584,0.2368785891385773
0.1353783743795852,1.496090106621605,0.2368223862594773
0.2614830404333005,1.494738930804981,0.2415619872220778
0.008263890279636938,1.32059306584033,0.2367797117673051
0.00807183424503137,1.436882929845253,0.2367877361598765
-0.1175831498279928,1.435664851323559,0.2415276922465439
0.1351509850537591,1.436882929845253,0.2367877361598765
0.1349589290191536,1.32059306584033,0.2367797117673051
0.2602341057388728,1.319636406071726,0.2415197500948587
0.008499698355297,1.056952705014572,0.2367870063264234
0.008415604462852694,1.182744658531582,0.2367855474145851
-0.1165595443898348,1.182097880961765,0.2415255259333954
0.1348072148359378,1.182744658531582,0.2367855474145851
0.1347231209434935,1.056952705014572,0.2367870063264235
0.2595319668795587,1.056588706824702,0.2415269698930435
0.008169315595217507,0.8082993446797999,0.2367961342735924
0.008414419054175167,0.9329208396652274,0.2367870063264381
-0.1165630740462909,0.9328356641901364,0.2415269698930546
0.1348084002446153,0.9329208396652274,0.2367870063264381
0.135053503703573,0.8082993446797999,0.2367961342735924
0.2605157100090081,0.8084943174025416,0.241536004289144
0.007663574532976059,0.5762146149924902,0.2369151400338546
0.007885238952679324,0.6886851500748645,0.2368326460621947
-0.1181387533854992,0.6891490146212643,0.2415721418734903
0.1353375803461112,0.6886851500748646,0.2368326460621947
0.1355592447658144,0.5762146149924902,0.2369151400338546
0.2620215975896456,0.576931312468844,0.2416537903758765
0.007675485375987137,0.3656327423955743,0.2372895152208896
0.007586242174683316,0.4695635277002398,0.2370625569774824
-0.119029042049503,0.4705199760310129,0.2417996964636902
0.1356365771241072,0.4695635277002398,0.2370625569774824
0.1355473339228034,0.3656327423955743,0.2372895152208896
0.2619861320285029,0.3668228263620448,0.2420243286435269
0.006475510355017915,0.1451655970991627,0.2380572161015273
0.007893871294683996,0.2595481792058512,0.2376063106307891
-0.1181130498435343,0.2609767404847551,0.2423378772611906
0.1353289480041065,0.2595481792058513,0.2376063106307891
0.1367473089437725,0.1451655970991627,0.2380572161015273
0.265559161027066,0.1465164723393584,0.2427841614642698
-0.01006168872122999,-0.1131304659798706,0.2391794993853327
-7.394375231956421e-05,0.01507059388433516,0.2387204815550839
-0.1418379055452277,0.01537465278346807,0.2434406292021377
0.1432967630511101,0.01507059388433517,0.2387204815550839
0.1532845080200205,-0.1131304659798707,0.2391794993853327
0.3148000958981267,-0.1144483929016661,0.2435927921958104
-0.01801117172848034,-0.2324706418397717,0.2369312056719943
-0.01660777363020801,-0.1968104513847594,0.2385228044580412
-0.1910688083379286,-0.1988846450111579,0.2417342259379465
0.1598305929289985,-0.1968104513847594,0.2385228044580412
0.1612339910272709,-0.2324706418397717,0.2369312056719942
0.3384703663722141,-0.2342071534791784,0.2383801517787261
-0.01754980419611827,-0.2864328353834535,0.2345684204915398
-0.01774978043600577,-0.2557407274724838,0.2356777859589936
-0.1944692319820608,-0.2570300378789555,0.2360674369258504
0.1609725997347963,-0.2557407274724838,0.2356777859589936
0.1607726234949088,-0.2864328353834534,0.2345684204915398
0.3370966047994159,-0.2875544275954525,0.2348985940213656
-0.01725428023547001,-0.3807112266138362,0.2281212863267382
-0.01738575447552691,-0.3285415296462208,0.2319417766828324
-0.1933853133251789,-0.3295684618253686,0.2325417811416625
0.1606085737743174,-0.3285415296462207,0.2319417766828324
0.1604770995342605,-0.3807112266138362,0.2281212863267382
0.336216656748236,-0.3816208817005602,0.2289685460743065
-0.01713427336853911,-0.491538533973014,0.2246357483325527
-0.01717416793171506,-0.4362361949188614,0.2254151455977916
-0.1927552961635426,-0.4370210302880426,0.2264538263180375
0.1603969872305056,-0.4362361949188613,0.2254151455977916
0.1603570926673296,-0.491538533973014,0.2246357483325527
0.3358593259637799,-0.4921990500935571,0.2257805742470446
-0.01705291116937675,-0.6003467310100026,0.22667748403145
-0.0170935216987287,-0.5461681739671671,0.2250996860296072
-0.1925151650574364,-0.5467058830615724,0.226239757110966
0.1603163409975192,-0.5461681739671671,0.2250996860296072
0.1602757304681672,-0.6003467310100026,0.2266774840314499
0.3356170630067065,-0.6007626471093985,0.2277032272201099
-0.01711486544218856,-0.7084990441520784,0.2343010086203948
-0.01705551312188253,-0.6549675071280102,0.2297936015244842
-0.1924019912455717,-0.6552606361271883,0.2306237219454539
0.160278332420673,-0.6549675071280102,0.2297936015244842
0.160337684740979,-0.7084990441520785,0.2343010086203949
0.3358015371911464,-0.7086718346524548,0.234880307058709
-0.01736117912766022,-0.7988365404405369,0.2440848124154977
-0.01721497256078047,-0.7569851237174945,0.2394811863561487
-0.1928767954617601,-0.7570489178700721,0.2397783767323191
0.160437791859571,-0.7569851237174945,0.2394811863561487
0.1605839984264507,-0.7988365404405369,0.2440848124154977
0.3365349574086959,-0.7985229393106221,0.2444827705400966
-0.01477918007137198,-0.8750830242468897,0.2465495129702419
-0.01758017001234605,-0.834831101918474,0.246331761128979
-0.1939642023342725,-0.8333033308503925,0.2480177734572222
-0.8235598727307065,2.762304903639499,1.240393808160786
-0.8357739496177874,2.761015856955603,1.23277718138133
-0.8377451394958964,2.789078257151026,1.235083535296584
-0.6142866799383131,2.767503723078387,1.255734739477349
-0.6838598957561712,2.764860771637105,1.254543996372887
-0.684901046432663,2.789886098248016,1.259699115271171
0.1608029893111365,-0.834831101918474,0.246331761128979
0.1580019993701625,-0.8750830242468897,0.2465495129702419
0.3288468327884609,-0.8719852405378696,0.2500743611375379
0.9391675524202051,2.763319603757598,1.247328219434498
0.8904391335044263,2.763819386027304,1.252043939744211
0.892083782895992,2.792006336753016,1.257439149371016
0.9849257091430677,2.76095998998053,1.219103146171363
0.9837446029724134,2.760382407754007,1.225591184310388
0.985720271166151,2.79199250018706,1.227068849771549
0.004313895143523969,-0.9924795954740882,0.2474528123431476
-0.005830570038371577,-0.9306846075843508,0.246767296292817
-0.1589787562250538,-0.9267063289740553,0.2512456788480605
0.1490533893371621,-0.9306846075843507,0.246767296292817
0.1389089241552665,-0.9924795954740882,0.2474528123431476
0.2719955565348364,-0.9882364850296834,0.2520834635426134
-0.7945192662656824,2.783649195334194,1.207963780799507
-0.7438735912440659,2.787571660226911,1.207411225215249
-0.7429689592940285,2.812332141189809,1.211186580027939
-0.8417028898441186,2.763366281873688,1.214224482538115
-0.8404845405007152,2.76751881928226,1.211171067778236
-0.8424806882707467,2.792432596077778,1.212030738218695
0.01226767262117934,-1.139217147612989,0.2500157162298687
0.009965004930436845,-1.057228475495087,0.2482863367989204
-0.1119460710222025,-1.05283981004789,0.2529084453218053
0.1332578143683536,-1.057228475495087,0.2482863367989204
0.1309551466776164,-1.139217147612989,0.2500157162298688
0.2483124989051734,-1.13472248327039,0.2546201005827264
0.02219714612898467,-1.315934230690201,0.2686967156974763
0.01583965216796571,-1.234079844090384,0.2551185367814666
-0.09445380279230846,-1.229841795302711,0.259670623033936
0.9662154720445453,2.778373850468256,1.208555043411809
0.978810553052992,2.772634995665283,1.209463235053054
0.9806239317911981,2.797465794158685,1.211084054113309
-0.7924787343951748,3.063335538358389,1.310250633355652
-0.7437608444207394,3.06295695914292,1.314606665725701
-0.7458336728712587,3.029494550635084,1.307991517201937
-0.8382368911180373,3.073198929298669,1.285181068602895
-0.837055784947383,3.070529612763633,1.291145679760135
-0.83951918866834,3.033520423906986,1.279091284202474
0.7510779782094446,2.793742071440775,1.205626208841407
0.8201687017092677,2.790896203218036,1.206656230521718
0.8180007272210966,2.815687505658786,1.20953484692453
0.1273831671308618,-1.234079844090384,0.2551185367814666
0.1210256731698951,-1.315934230690201,0.2686967156974763
0.2187466361466085,-1.312432328477731,0.2731096410766914
0.02779339870373077,-1.353191183341877,0.3292904913492057
0.02684558684060026,-1.35499846627275,0.2948823692747636
-0.06168268418205112,-1.352113547239124,0.2990269215208124
0.9633166933035748,3.065213430159813,1.304121025732856
0.9755307701906558,3.06783322889934,1.29749785063249
0.9779312657669876,3.034822204375706,1.287807050740222
0.7499461083534138,3.066900704757638,1.318240760908351
0.8236693610357572,3.063971189470433,1.317003001093821
0.8250757543851282,3.034124401774978,1.311511887604583
0.1163772324582875,-1.35499846627275,0.2948823692747636
0.1154294205951093,-1.353191183341877,0.3292904913492057
0.2020833120077597,-1.350486526889681,0.3330823995224224
0.4614464477148203,2.787912336217714,1.260571607095473
0.3685858345386755,2.789658962627813,1.260985371023992
0.3712747596104904,2.814735276788388,1.266225232114725
-0.8195266540195149,3.080495719771897,1.27214679655913
-0.8321217350279616,3.079193753959921,1.274139370359232
-0.8343059896353944,3.050241455664126,1.265216636486147
-0.6044896960355124,3.084930964645059,1.266250401065509
-0.6735193334731515,3.083097615702772,1.267719356004858
-0.6716926777065865,3.053471306674419,1.259826591792813
0.02739974455555301,-1.347361165606803,0.3896752835783642
0.027565117482269,-1.344884532321875,0.3615826733820823
-0.05954021971134432,-1.342198549159656,0.3650436234586031
0.9342760868385504,3.081696346752373,1.270547165120936
0.8836383017747167,3.082623983747532,1.269229234461035
0.8830986342643821,3.05373898864552,1.262519086914489
0.9814597104169868,3.075605221191827,1.280302404969647
0.9802413610735835,3.077614301562067,1.276716656438987
0.9826083847128416,3.048476817671505,1.266963443028079
0.1156577018165314,-1.344884532321875,0.3615826733820823
0.1158230747432375,-1.347361165606803,0.3896752835783642
0.2032554511457952,-1.3446696149913,0.3928483163877176
-0.4149917276961271,2.782493871176005,1.259287841742679
-0.5329236357481161,2.773857730877445,1.25724035624669
-0.5255413018807447,2.799383370778425,1.262588737389671
0.02712070600686275,-1.379447526310376,0.4488528604994943
0.027250746918366,-1.360814237560487,0.419739466886714
-0.06047628514727197,-1.35809244453886,0.4226043760494115
0.1159720723804245,-1.360814237560487,0.419739466886714
0.1161021132919277,-1.379447526310376,0.4488528604994942
0.20408631246271,-1.37668384579363,0.4514193905273091
0.4420587913812608,3.106820702857497,1.270700332754021
0.346008180280779,3.10875756640139,1.27226091073573
0.3506601395801135,3.079602372872639,1.262473839835905
0.02698526433409257,-1.403753623025299,0.4849929256881952
0.02703719256307623,-1.394599978839338,0.4697432427381361
-0.06111216163710385,-1.391802235721519,0.4720956701346109
-0.325275739863918,3.087663707339379,1.323184576894315
-0.2265786305006431,3.089589011621129,1.32365350988675
-0.2266619112400487,3.059798785137089,1.318223524026828
0.6761464550470654,2.773857730877445,1.25724035624669
0.5582145469950763,2.782493871176005,1.259287841742679
0.5735928034193091,2.807729950754908,1.264565717977407
0.1161856267357143,-1.394599978839338,0.4697432427381361
0.1162375549646979,-1.403753623025299,0.4849929256881952
0.2044896017112069,-1.400935302583139,0.4871890611983171
0.0269922999804118,-1.407017067054577,0.5215085421988736
0.0269341886271817,-1.407939876981805,0.5026782636534158
-0.0614188647296566,-1.405112145871753,0.5046931445866116
-0.3006973828358605,2.816288460839304,1.210224267602902
-0.2041529401722442,2.817993747141119,1.211582402844122
-0.2086836741718386,2.843467225336777,1.212820256994836
-0.5225235159989061,3.073734771860693,1.319864059358497
-0.4279019675530166,3.082410930805361,1.321925661301613
-0.4280414753762002,3.052503115180788,1.316495229387033
0.1162886306716088,-1.407939876981805,0.5026782636534158
0.1162305193183787,-1.407017067054577,0.5215085421988736
0.2044686524681952,-1.404191410414412,0.5234374421287312
0.02765671173235589,-1.394063216739234,0.5412207320815983
0.02728530434701585,-1.401108946805511,0.5342969383588673
-0.06037338742646617,-1.398296571575931,0.5364157955220374
0.1159375149517746,-1.401108946805511,0.5342969383588673
0.1155661075664346,-1.394063216739234,0.5412207320815982
0.2024903092400462,-1.391266680258686,0.5436514651637471
0.5711247868519659,3.082410930805361,1.321925661301613
0.6657463352978555,3.073734771860694,1.319864059358497
0.6660430527335512,3.043820436637048,1.314438004174628
0.1152820051187535,-1.38872502810385,0.5454415738759817
0.1151828952901823,-1.377883908435968,0.5520623139628502
0.2013492616751154,-1.375073400114176,0.5548933545559232
0.02803992400860818,-1.377883908435968,0.5520623139628503
0.02794081418003694,-1.38872502810385,0.5454415738759817
-0.05842155042877947,-1.385940491831833,0.5481191040534984
-0.5520257505846162,2.796736161264128,1.204851756009475
-0.5085173976310227,2.800458482046202,1.204994015545323
-0.5062751426559007,2.818114574082839,1.198553863634015
-0.3863250556765498,3.103715726316715,1.268644508152774
-0.4554834617640214,3.099519030611678,1.266872274166891
-0.4634440623201792,3.076360223203311,1.250785576391779
-0.6719589079026342,3.113469772583341,1.318521558485639
-0.670484173001946,3.120012142208695,1.315583470649971
-0.6108940782641283,3.122855739075368,1.316504128718998
-0.685216878501546,2.827239510991834,1.267374302458405
-0.6841217014874762,2.938179082101999,1.291326292108345
-0.6091921294964228,2.941042047954642,1.292754463969665
-0.6727598967090691,2.721143489014359,1.224840434838477
-0.6732189778005109,2.721052938891245,1.229785457459794
-0.6140574202593394,2.722968670666183,1.230498437675463
0.8187737654955902,2.727248957131116,1.23981852213246
0.8172990305949019,2.722987234260595,1.234682996045236
0.7578927801913182,2.724945634076503,1.235455505411025
0.8262137080372332,2.992409260542639,1.302940299532126
0.8281754709304918,2.878869710451777,1.278453975050022
0.7532188437484293,2.881765728685008,1.279891979508296
0.8123906777140116,3.127597110283845,1.307802548381054
0.8128497588054535,3.124373748937883,1.312039562898134
0.753726195971216,3.127267084593881,1.312919436501863
-0.6691678584150622,3.129950815082506,1.30303050304554
-0.6695777257851017,3.131302639847595,1.297918404784021
-0.6104773531228067,3.134275384690441,1.298615645337395
0.531913714505923,2.811974666862719,1.208132945552307
0.6015112629869865,2.805810753277324,1.206107421317477
0.6094605559150572,2.823331429370893,1.199533796413928
-0.6747928707172464,2.743128002595903,1.208485920155106
-0.6738300737239383,2.734388167989882,1.211848199638283
-0.6142623590425094,2.736518181074831,1.212299111766864
-0.6725287603777107,3.012575426999369,1.249863575307561
-0.6765253494492326,2.959413829055515,1.237643753577322
-0.6127871696791649,2.959363564590261,1.227270873444172
0.8159827160080184,2.723497193813021,1.220068389502963
0.8163925695850572,2.728040535234425,1.215674407507376
0.7571987191883165,2.730047677927393,1.216207324030553
0.6919829107491492,3.089235218053064,1.265500947791374
0.6486420689646969,3.094723921837923,1.265869809730606
0.6464501752029788,3.071824250288068,1.249954001038375
0.81442386421987,3.128446172944706,1.287033535106577
0.8134609236938832,3.131119548770646,1.292698133434539
0.7539867798157771,3.134074750250445,1.293284347477052
0.8180155543619706,2.851750936185401,1.215498853990357
0.8205909130986691,2.90195141367684,1.225297885970099
0.7568767592787467,2.902233931896447,1.21539073422294
0.3331472940588782,2.74607045654763,1.230990207445162
0.3331472940588782,2.745972801586298,1.236056010422297
0.425268796993111,2.744226900481392,1.23564241831365
-0.5611940723196667,2.726555891175557,1.231410883042311
-0.5107668761418392,2.73094947745114,1.23248173960337
-0.5107244037334865,2.731045290115342,1.227426149581553
0.5123794943413532,2.740873939309478,1.234848124594831
0.5913185652058556,2.735948046095836,1.233678144480682
0.5913100707241851,2.736045332597742,1.228614384094611
0.332863829810184,3.157036761525994,1.308822417633382
0.3318257562073681,3.158408949422749,1.303878299738629
0.4234687038106418,3.156537980981635,1.303586903946213
-0.3739153478437006,3.14545608166575,1.317464046533039
-0.4476334642003206,3.140596681956532,1.316281823875347
-0.4464100073462988,3.143927528904198,1.311911419880765
0.3619397448406162,3.138100545035807,1.32482080820701
0.3452323444122722,3.150349061474719,1.317947706562633
0.4353051612976947,3.148656846389447,1.317958550174877
0.700817416861114,3.130947904494109,1.313854084589097
0.6508711858601145,3.135508555352305,1.314984614377553
0.6509906519373687,3.138765509214048,1.310635027039993
0.3348034349891029,2.768606204438245,1.214229438792783
0.3336847858690586,2.759679788285355,1.217618479951458
0.425930257112282,2.757921894308296,1.217202936840862
-0.8402309510175791,2.969400217145539,1.261236105324906
-0.8413045939610764,2.888914541612605,1.242987602949248
-0.8425545899625544,2.885150548642506,1.234177853626948
0.3710873037122178,2.852210433073379,1.273999847709542
0.3707692140156583,2.904019567382014,1.285163593116844
0.4697866410214099,2.902085989365238,1.284705541623007
-0.3673157077921095,3.152755311710357,1.297540963631145
-0.4455385027021103,3.147570134816735,1.296325317953479
-0.446103339875687,3.144727894914555,1.290570401473749
0.9850347215381026,2.851201197614003,1.235347467884018
0.9839649025790489,2.930970368547788,1.252198915023721
0.9850742709102827,2.938228111758175,1.245815195918681
-0.5611014126375826,2.740199077526445,1.21307415409048
-0.5107644928241347,2.744654456548048,1.214082137816068
-0.5107172594077455,2.753619410024101,1.210695486328327
-0.8346430325161559,3.008056722936246,1.253577800812783
-0.8353517129273593,2.95180098512278,1.239710198588728
-0.8221873894403833,2.954750280363694,1.240644197328379
0.5129465843495605,2.754577340805992,1.216410310266727
0.591593511838999,2.749668166708418,1.215250989777881
0.592157286966063,2.758630460804066,1.211868233276459
0.3467855770161148,3.039651869455194,1.25022489556547
0.3360207957414694,2.987825242006998,1.236371017814045
0.4232754532393809,2.986978041336411,1.229297374410669
0.7009710554560088,3.137776156209671,1.294067404358049
0.650840871529243,3.142337060020476,1.295104193085249
0.6507947249956598,3.139501607242187,1.289345720690584
0.980126173375649,2.835736791810413,1.216162891626462
0.979418298247774,2.889659594650783,1.226120150193214
0.966253974760798,2.893766880438599,1.227332783436255
-0.4712831277194073,3.030964899886255,1.139582659678345
-0.4853168369605017,3.034366167928765,1.143612819756307
-0.4805503042567498,3.035383937997179,1.103107211294121
-0.4585305304550573,2.883428893798802,1.119566826241053
-0.4469691605845219,2.925819428570971,1.118746243222355
-0.4265860872508029,2.928438810964465,1.083103986268216
-0.5155328414533982,2.848407201725871,1.122842877833365
-0.5016899119099163,2.844976299563179,1.125431973462461
-0.5052808235960039,2.842855325957798,1.095965165048773
-0.5276909845185347,2.994733882624397,1.130541312913184
-0.5395780001733992,2.952228422224537,1.122051146569531
-0.5711843341820213,2.948920126626823,1.082136752647145
0.6182401927116302,2.85890682681859,1.123400683997401
0.6327530559239232,2.848165020897099,1.125570594127922
0.6308623509572294,2.846299930661387,1.09624208281585
0.5989963760306395,3.013840274298103,1.131242185344134
0.5891493905001456,2.975859910975746,1.123112165455801
0.5683842143549587,2.974147241285726,1.084259681298152
0.6546309653187166,3.019821073769192,1.139329637277503
0.6405716381537833,3.031000639776868,1.143587838641222
0.641279853666832,3.031498133636246,1.102989520045245
0.6741581297897354,2.865315225405234,1.118536351491478
0.6840680047548113,2.902713268893532,1.117546766230279
0.7162414371429349,2.904128698396706,1.080652244729877
-0.2782007668793954,3.157737275293418,0.9589071726145152
-0.2764308235871882,3.158796373437752,0.9701632710882507
-0.3279772502172834,3.154730641320193,0.9688880578873169
-0.4862934735117559,3.137908201302325,0.9565860356867014
-0.4832577362727454,3.138950244599963,0.9675756449424329
-0.5313397170591034,3.133376803681187,0.9680345297834635
0.5566104792878488,3.144256679607503,0.9390686283294789
0.5623594920119248,3.141376554690829,0.9086742469693536
0.6674340767827142,3.13006305484702,0.9096805969579327
-0.6549120130468391,3.116500811140544,0.9639208989857639
-0.649289030292633,3.117989801317516,0.972896742706368
-0.6872890022686574,3.109999978786693,0.9771450167425193
-0.8013907614727969,3.02285962278778,0.9965324634859837
-0.7936829259697986,3.030716882697335,1.00350972558377
-0.809624023311629,2.989625173107235,1.012862920415039
0.9528468426105783,2.989625173107235,1.012862920415039
0.9369057452687479,3.030716882697336,1.00350972558377
0.9446135807717461,3.02285962278778,0.9965324634859836
-0.8366733102555152,2.879104425835086,1.017731023509015
-0.8292023326873503,2.888415631199395,1.023824477874342
-0.8320014821903783,2.856930442897413,1.023847321367766
0.9752243014893276,2.856930442897413,1.023847321367766
0.9724251519862996,2.888415631199395,1.023824477874343
0.9798961295544643,2.879104425835087,1.017731023509015
-0.8473216014144833,2.731273618962731,1.018863221561565
-0.8209891092829698,2.752930233202156,1.031069094129222
-0.8189062444739224,2.705089866664775,1.031744776776029
0.9621290637728717,2.705089866664775,1.031744776776029
0.9642119285819193,2.752930233202156,1.031069094129222
0.9905444207134329,2.731273618962732,1.018863221561565
-0.8265443633013052,2.636117952749125,1.022738310792593
-0.7998654204543925,2.651147445813394,1.031557272598303
-0.7664283501318383,2.594327139016857,1.030534094845074
0.9096511694307876,2.594327139016857,1.030534094845074
0.9430882397533416,2.651147445813394,1.031557272598303
0.9697671826002545,2.636117952749125,1.022738310792593
-0.7832815504696854,2.518802777797028,1.021705986988401
-0.7418274148419621,2.535373182015107,1.029599528938415
-0.734998741080003,2.476060797277489,1.029226870896509
0.8782215603789523,2.476060797277489,1.029226870896509
0.8850502341409114,2.535373182015107,1.029599528938415
0.9265043697686346,2.518802777797028,1.021705986988401
-0.7745995503564345,2.40008581468521,1.019406275298905
-0.7326862335538111,2.416621107824563,1.028213350563379
-0.7307441436733081,2.35652122948408,1.02671158038693
0.8739669629722574,2.35652122948408,1.02671158038693
0.8759090528527603,2.416621107824563,1.028213350563379
0.9178223696553837,2.40008581468521,1.019406275298905
-0.7761249525337227,2.277962996820268,1.018835174819483
-0.7341370695504873,2.294464270890988,1.026229555418947
-0.7429101974982357,2.230016942094365,1.027763383789897
0.886133016797185,2.230016942094366,1.027763383789897
0.8773598888494366,2.294464270890988,1.026229555418947
0.9193477718326719,2.277962996820267,1.018835174819483
-0.7940464884664333,2.147144407277134,1.024429476778093
-0.7521893020303339,2.163609554557423,1.031797286708933
-0.7593313743918254,2.096948255194005,1.038535355297408
0.9025541936907746,2.096948255194005,1.038535355297408
0.8954121213292832,2.163609554557422,1.031797286708933
0.9372693077653825,2.147144407277134,1.024429476778093
-0.8061523341204531,2.016585142361491,1.037726941534596
-0.7639246225590168,2.033015026368591,1.047901550588881
-0.7667297664265811,1.959958452649518,1.05883591913788
0.9099525857255304,1.959958452649518,1.05883591913788
0.9071474418579659,2.033015026368591,1.047901550588881
0.9493751534194024,2.016585142361491,1.037726941534596
-0.8117514415681296,1.846996602657437,1.054022280009411
-0.769402101952575,1.863381361992822,1.069669000177212
-0.768554541276028,1.765560866268126,1.075232733585215
0.9117773605749774,1.765560866268126,1.075232733585215
0.9126249212515244,1.863381361992822,1.069669000177212
0.9549742608670789,1.846996602657437,1.05402228000941
-0.8032869310219053,1.666105735640891,1.049331522381262
-0.7603507564515332,1.681399897827826,1.072127334864833
-0.7502656211813465,1.614487908516366,1.06583021065436
0.8934884404802957,1.614487908516366,1.06583021065436
0.9035735757504825,1.681399897827826,1.072127334864833
0.9465097503208546,1.666105735640892,1.049331522381262
-0.7873532802102656,1.560420514553799,1.034616063477795
-0.7442825322985399,1.574121731163984,1.061414243523492
-0.7416424986543804,1.541534672194655,1.057509649510651
0.8848653179533296,1.541534672194656,1.057509649510651
0.8875053515974891,1.574121731163984,1.061414243523492
0.9305760995092147,1.560420514553799,1.034616063477795
-0.7816228752592623,1.468709418011856,1.017277783606415
-0.7415306783948976,1.481998819430249,1.047689480211373
-0.7441881618174531,1.374224698700049,1.027325726804337
0.8874109811164024,1.374224698700049,1.027325726804337
0.8847534976938468,1.48199881943025,1.047689480211373
0.9248456945582115,1.468709418011856,1.017277783606415
-0.7820383724777082,1.231413623694346,0.9675852514954801
-0.7454702149021588,1.246723332595599,1.004136732148938
-0.7438575436591519,1.12673313691259,0.9847550276691017
0.8870803629581012,1.12673313691259,0.9847550276691016
0.888693034201108,1.246723332595599,1.004136732148938
0.9252611917766573,1.231413623694346,0.9675852514954801
-0.7797318964805657,0.9915227892508489,0.9328004870531859
-0.7436989839578482,1.006495514845059,0.9664348522348899
-0.746496748360843,0.8851724624920691,0.9484202632258107
0.8897195676597923,0.8851724624920692,0.9484202632258107
0.8869218032567975,1.006495514845059,0.9664348522348899
0.922954715779515,0.9915227892508488,0.932800487053186
-0.7868616716643766,0.7529480024747253,0.9068037846422065
-0.7509064261239123,0.7688465688577053,0.9319451365308203
-0.7560447732085373,0.6598004219233944,0.9187189121170971
0.8992675925074866,0.6598004219233944,0.918718912117097
0.8941292454228617,0.7688465688577053,0.9319451365308205
0.9300844909633258,0.7529480024747252,0.9068037846422064
-0.7969754181299046,0.5405542679849227,0.8962889005364088
-0.761489712281904,0.5565166086479039,0.9109265940300418
-0.7654737520013915,0.4558705484835967,0.9072482170605032
0.9086965713003408,0.4558705484835966,0.9072482170605033
0.9047125315808533,0.5565166086479039,0.9109265940300418
0.9401982374288539,0.5405542679849227,0.8962889005364088
-0.8003367770229373,0.3372108565944251,0.8962405567629295
-0.7648839870145715,0.3531304933764308,0.9028588467447776
-0.7526477138116118,0.2409760517288154,0.8982049900399629
0.895870533110561,0.2409760517288154,0.898204990039963
0.9081068063135207,0.3531304933764308,0.9028588467447777
0.9435595963218866,0.3372108565944251,0.8962405567629295
-0.7556063705194481,0.09364477330654723,0.9034776491976475
-0.7177324307252764,0.1094981883996106,0.8990045953239584
-0.6696207527225939,-0.02595521902284934,0.9048051056494364
0.8128435720215432,-0.02595521902284934,0.9048051056494364
0.8609552500242257,0.1094981883996106,0.8990045953239584
0.8988291898183973,0.09364477330654723,0.9034776491976476
-0.6785608782657989,-0.1405581032924243,0.9261406116018365
-0.6383104114048575,-0.1247793802207559,0.9089834587438427
-0.6310391706183092,-0.1823951257120656,0.9091850648696391
0.7742619899172583,-0.1823951257120656,0.9091850648696391
0.7815332307038068,-0.1247793802207559,0.9089834587438427
0.8217836975647481,-0.1405581032924243,0.9261406116018365
-0.6730686861554225,-0.2459890147214039,0.9261760135449693
-0.6322848264541403,-0.2302489068504999,0.9073238068243037
-0.6340432379661525,-0.282575025363343,0.9039471448161487
0.7772660572651017,-0.2825750253633431,0.9039471448161488
0.7755076457530894,-0.2302489068504999,0.9073238068243037
0.8162915054543716,-0.2459890147214039,0.9261760135449693
-0.6771262681401203,-0.3520934200382409,0.917096699962993
-0.6358283271707579,-0.3363956333514421,0.8982361164643196
-0.6368795511953143,-0.3900036097837556,0.8903665217925731
0.7801023704942636,-0.3900036097837555,0.8903665217925733
0.7790511464697072,-0.3363956333514421,0.8982361164643196
0.8203490874390698,-0.3520934200382409,0.917096699962993
-0.6777404315960747,-0.4586151993663153,0.9005879329143444
-0.6361619022781253,-0.4429625604973527,0.8815089232292777
-0.633343024986406,-0.4954872867460341,0.8718101560756968
0.7765658442853555,-0.4954872867460341,0.8718101560756968
0.7793847215770747,-0.4429625604973528,0.8815089232292775
0.8209632508950242,-0.4586151993663153,0.9005879329143444
-0.6705756833438468,-0.5640490771663467,0.8794004721962022
-0.628793216216282,-0.5484437852003308,0.8603933285059908
-0.6237207205122517,-0.6038996137809711,0.84654850164075
0.7669435398112011,-0.6038996137809711,0.8465485016407499
0.7720160355152315,-0.5484437852003308,0.8603933285059908
0.8137985026427963,-0.5640490771663466,0.8794004721962022
-0.6627843761212022,-0.680673771028862,0.8488936473454809
-0.6201717300671856,-0.665123891658881,0.8297326895469939
-0.614837348095855,-0.7313349615807727,0.8093717952814521
0.7580601673948042,-0.7313349615807728,0.8093717952814521
0.763394549366135,-0.665123891658881,0.8297326895469939
0.8060071954201515,-0.680673771028862,0.8488936473454809
-0.6471120759409846,-0.8137487466707153,0.8055041862973733
-0.6027489313777448,-0.7982658544872132,0.7859738344160953
-0.5867663413129299,-0.8603652978942642,0.7623643952522961
0.7299891606118791,-0.8603652978942642,0.7623643952522961
0.745971750676694,-0.7982658544872132,0.7859738344160953
0.7903348952399336,-0.8137487466707153,0.8055041862973733
-0.6141539673423651,-0.938582500735802,0.7571293752690687
-0.568508644001387,-0.9231660581622477,0.7370032443018012
-0.5402691232789284,-1.009082232148595,0.7021135288983135
0.6834919425778778,-1.009082232148595,0.7021135288983135
0.7117314633003362,-0.9231660581622476,0.7370032443018013
0.7573767866413141,-0.938582500735802,0.7571293752690687
-0.1432361091331963,-1.387651088479019,0.5467941163007918
-0.145051522706245,-1.394660502162163,0.539155227885868
-0.2259416171714321,-1.389171723148575,0.5419627842508851
0.2850702553469557,-1.38234041490621,0.5515808347217648
0.2845858133699982,-1.371439744391951,0.5585535560828532
0.3606573836566076,-1.366557684030282,0.5617732771016261
-0.2935105170877201,-1.371986843251564,0.5527401937201122
-0.3034127135720233,-1.377782843233406,0.5452318228511399
-0.3729171258000313,-1.361263130628162,0.5513719119284225
0.4292075972129995,-1.367595511062736,0.5573591302328939
0.4230424920613207,-1.357588906851009,0.564014872437147
0.4698695899982601,-1.345201990996807,0.5663585038716698
-0.3969718348532238,-1.342658245202208,0.5685345487240495
-0.4249913065741405,-1.345200634199073,0.5648086535993869
-0.4704671140441333,-1.323530047470287,0.591880387886514
0.519993348882292,-1.341027816035205,0.5689603447371693
0.5039215993522136,-1.33357387878882,0.5715024740339312
0.5329425835694632,-1.318696565471256,0.5835522626286798
-0.5278607543761731,-1.146905669381042,0.6720491606888759
-0.4878595457003697,-1.139436680654731,0.6534892228153899
-0.4290415649844859,-1.263340173050385,0.6088700051466143
0.5722643842834352,-1.263340173050385,0.6088700051466142
0.631082364999319,-1.139436680654731,0.6534892228153899
0.6710835736751224,-1.146905669381042,0.6720491606888759
-0.2798196727623716,-1.357588906851009,0.564014872437147
-0.2859847779140503,-1.367595511062736,0.557359130232894
-0.3391559061185299,-1.353950418424389,0.5609701416268506
0.4466355328709726,-1.377782843233407,0.54523182285114
0.4367333363866694,-1.371986843251564,0.5527401937201122
0.4968272492504026,-1.357068962760884,0.5576312208802536
-0.3115570057275037,-1.382643015924409,0.5316479729017231
-0.3139304148666435,-1.383229532204031,0.512032406900266
-0.3954331010625035,-1.364944456537562,0.5152543397685556
0.4571532341655928,-1.383229532204031,0.512032406900266
0.454779825026453,-1.382643015924409,0.5316479729017232
0.5326578087280756,-1.364795404886597,0.5374746797017769
-0.3134896573445706,-1.379095367067848,0.4940408066415316
-0.3130415429881229,-1.370055620063535,0.4791587443305939
-0.3953999886588355,-1.351836420022229,0.4795211633414656
0.4562643622870721,-1.370055620063535,0.4791587443305939
0.4567124766435198,-1.379095367067848,0.4940408066415316
0.5389576531950574,-1.360830964130176,0.494961450424796
-0.3123208642003115,-1.355091706831387,0.4591252997680531
-0.3111986768946647,-1.336690268810053,0.4312061573461296
-0.3931625445802203,-1.318637910884374,0.4316475301793732
0.4544214961936139,-1.336690268810053,0.4312061573461295
0.4555436834992607,-1.355091706831387,0.4591252997680531
0.5377478238815697,-1.336947333244709,0.4595207037985651
-0.3099129026326287,-1.323404591060131,0.4023752272680855
-0.3084858179028426,-1.320958774086762,0.3754349950332121
-0.3898088443738858,-1.303009214282286,0.3759479598370896
0.4517086372017919,-1.320958774086762,0.3754349950332121
0.4531357219315779,-1.323404591060131,0.4023752272680855
0.5348242911461907,-1.305418667639112,0.4028640701603051
-0.3065158664017162,-1.329162066911831,0.3444674602524238
-0.3141191435512584,-1.330655504617947,0.3114707827285325
-0.3956353122011945,-1.313323655134509,0.3120133930556278
0.4573419628502077,-1.330655504617947,0.3114707827285324
0.4497386857006655,-1.329162066911832,0.3444674602524238
0.5303999712343032,-1.311268020490024,0.3449504725589694
-0.3519293964990766,-1.290911908348435,0.2863592824562471
-0.4045838913896102,-1.208554487733096,0.2733380896668644
-0.5002507460816857,-1.196706912759497,0.2740639808891633
0.5478067106885595,-1.208554487733096,0.2733380896668644
0.4951522157980259,-1.290911908348435,0.2863592824562471
0.5819116797830495,-1.27596092077632,0.2870452555533645
-0.4362720584504747,-1.114095197681057,0.2684445902820861
-0.4538797480614715,-1.032997203931289,0.2667861511706421
-0.5595558068044348,-1.023436913356542,0.267498241159696
0.5971025673604208,-1.032997203931289,0.2667861511706421
0.579494877749424,-1.114095197681057,0.2684445902820861
0.683428252689844,-1.103928034495873,0.2691574623671149
-0.48533930301134,-0.9690539828150658,0.2659868184544619
-0.5382991148521962,-0.9085300575217987,0.2639392794278924
-0.6087783275681964,-0.8995993400839639,0.263691449242679
0.6815219341511455,-0.9085300575217987,0.2639392794278924
0.6285621223102893,-0.9690539828150657,0.2659868184544619
0.7232875083450434,-0.9598134377814351,0.2667002245429632
-0.5839608520538946,-0.8566332655940852,0.2553895698625711
-0.5970977733512994,-0.822782552641214,0.2380349882937
-0.6360596983004094,-0.8145741673268163,0.2199944677938943
0.7403205926502487,-0.822782552641214,0.2380349882937
0.7271836713528438,-0.8566332655940852,0.2553895698625711
0.7748328265135351,-0.8480051366529525,0.2493681715025685
-0.5947334160745758,-0.7917552912077969,0.2201226085154314
-0.5933530831669235,-0.7515544808030924,0.2070056716840504
-0.6306486432298177,-0.7441244987973279,0.1667244453810737
0.7365759024658728,-0.7515544808030924,0.2070056716840504
0.7379562353735252,-0.7917552912077968,0.2201226085154314
0.7756572923242887,-0.7840619915583429,0.1895380128379927
-0.5924892093568275,-0.7036717049820208,0.1959722227577246
-0.5919770288465701,-0.6508062514404005,0.1862299674520155
-0.6293714898871079,-0.643741613544739,0.1300886288715976
0.7351998481455193,-0.6508062514404005,0.1862299674520155
0.7357120286557767,-0.7036717049820208,0.1959722227577246
0.7731374473193761,-0.6963704041656432,0.1472945608932237
-0.5919545753122313,-0.5968651120149504,0.178906272239878
-0.5923050236441257,-0.5433606892106332,0.1747933958314357
-0.6297697119935389,-0.5368333285874625,0.1091189486694328
0.7355278429430749,-0.5433606892106332,0.1747933958314357
0.7351773946111806,-0.5968651120149504,0.178906272239878
0.7725670481020159,-0.5900702046476062,0.1168057898428347
-0.592656689946803,-0.4894107962006553,0.1743484891739804
-0.5930009598526569,-0.4347965744065248,0.1776957157865829
-0.6306146558309668,-0.4288120843336267,0.1155972265679083
