0.31067327 -1.44684196 -1.18359852 20.0
-1.12772632 1.12340641 -1.35955775 20.0
1.32284677 -1.30710959 0.16408330 20.0
1.40991354 -0.52535588 -0.38017595 20.0
1.39142215 -0.94378448 0.12557176 20.0
1.14905858 0.65516931 -1.20605206 20.0
1.39580667 -0.26001900 0.33954501 20.0
0.81676990 0.89199078 1.49486172 20.0
-0.37422565 1.19629908 -1.12006044 20.0
1.34917235 1.00484085 -0.82252783 20.0
-0.99390781 -0.40304381 1.18880594 20.0
0.80110133 0.33274665 -1.15640604 20.0
-1.43454230 0.00611666 0.12069460 20.0
0.58906400 -1.44862163 -1.16135168 20.0
0.76444489 0.99413484 1.37895191 20.0
-1.31494164 -1.37150180 0.20740072 20.0
-0.41194129 -1.23282838 0.62603956 20.0
-0.52619433 -1.45659530 -1.16429698 20.0
1.24823809 -1.41443729 -0.82173812 20.0
0.80916250 1.53620231 0.76900810 20.0
1.34912896 -0.07749591 -0.73351896 20.0
-0.68016446 0.12283114 1.73303270 20.0
-1.43402100 0.08894625 0.16545893 20.0
1.40666080 -0.82468957 0.16640230 20.0
-0.14448640 0.90682954 -1.19153535 20.0
-1.33683372 1.08558941 -0.89638591 20.0
1.31336093 -0.16198955 0.66916615 20.0
0.79280132 -1.05904758 -1.27571106 20.0
-0.33404297 -0.78575921 0.81069732 20.0
1.25023448 0.66215384 0.83402932 20.0
-0.67363054 -1.28765774 -1.16719997 20.0
-0.82286668 -0.91626734 0.75281662 20.0
-0.75769567 0.55737978 1.71502995 20.0
-0.14252035 0.61232179 -1.20535684 20.0
-1.21880519 -0.54051781 0.86554146 20.0
0.74441940 -0.47865337 -1.19550192 20.0
-0.82582331 -0.16739193 -1.17699087 20.0
-0.72149378 1.45302045 0.97760963 20.0
0.40611413 -1.18797207 0.65191877 20.0
1.39729285 0.40693620 0.03158101 20.0
1.30715716 0.33306953 0.68790555 20.0
1.35852849 0.83306092 -0.71095169 20.0
1.13794410 -1.32544219 -1.10112321 20.0
1.30809903 1.27573967 -0.84154510 20.0
-0.76649135 -0.47865337 -1.19550192 20.0
-1.39073384 -1.09837174 0.12557176 20.0
-0.53810394 -0.81682962 -1.18395138 20.0
1.18105996 1.08486545 0.96415168 20.0
-0.51266086 -1.40738046 -1.17689371 20.0
1.32388639 1.29331028 -0.54443854 20.0
-1.29497039 -1.33317626 -0.82260084 20.0
0.95002937 0.26185867 1.59278989 20.0
-0.62748092 0.53914410 -1.17141378 20.0
0.26860586 -1.51552892 0.12317952 20.0
1.14339924 0.47446099 1.13059163 20.0
-0.62547666 0.69824094 -1.16692507 20.0
1.34959722 0.52912956 0.52337223 20.0
1.39214039 -0.59567654 0.50590485 20.0
0.71974826 -1.18068767 -1.18142486 20.0
-0.84699088 -1.46453679 -1.14853597 20.0
-0.63096344 0.33890215 -1.17141378 20.0
-0.69666404 0.17468478 -1.16634095 20.0
-1.27592671 1.43671310 0.23520492 20.0
-0.74492019 -0.12498064 1.60731018 20.0
-1.25685191 -0.49776840 0.87479192 20.0
0.82335091 1.53190553 0.68066531 20.0
-1.31017780 1.04428172 -1.20160222 20.0
-1.19619524 1.29408705 0.78147840 20.0
0.45124856 0.44904587 1.75838459 20.0
0.25483334 -1.52056551 -0.73202246 20.0
-1.24950516 1.13517737 0.82782865 20.0
1.35235751 -1.19301295 0.22982740 20.0
-1.38757670 -0.16695592 -0.60384578 20.0
-1.34222686 -1.01795721 -0.90470028 20.0
1.40418661 -0.26002219 0.13933545 20.0
-1.39134705 -1.05681872 -0.36638355 20.0
-0.61831433 0.93905330 1.48247230 20.0
1.31661010 -1.31163502 -0.36638355 20.0
0.82209533 -1.31202734 0.54858583 20.0
-1.35214424 0.89738363 -0.90470028 20.0
-0.88271534 0.89738363 -1.52168989 20.0
0.94746321 -1.25975776 -1.16455281 20.0
1.36136055 -1.05564940 0.45307723 20.0
0.77737218 0.20261054 1.74089789 20.0
-0.37989542 -0.69798887 -1.19255686 20.0
1.40092003 0.89857411 0.23573360 20.0
1.24046564 0.93078816 0.88272578 20.0
0.67838651 -0.40371081 1.21646619 20.0
1.27890074 1.34262323 -0.86040205 20.0
-0.48796979 -0.36109138 1.32384765 20.0
0.77624047 1.53632379 0.68114692 20.0
1.20637417 0.52869719 0.96564257 20.0
1.40742898 -0.67388785 -0.56399763 20.0
-0.71666098 1.54141271 0.02980469 20.0
1.31935155 -1.18108547 0.48228201 20.0
0.82649177 1.52184391 0.12768039 20.0
0.35503200 0.82461047 -1.19229305 20.0
-0.79132372 -0.65039504 0.84266794 20.0
-0.12852654 0.45648196 1.77119327 20.0
-1.35401666 -1.14568031 -0.71095169 20.0
0.82157665 0.28217930 1.73118508 20.0
1.29067445 1.13591623 0.67576301 20.0
-1.34854519 -1.13926053 0.50295234 20.0
-0.75248200 1.26321006 1.01229072 20.0
-0.83626688 0.43376890 1.71899569 20.0
-0.53935838 1.23129368 -1.10257840 20.0
1.42304218 -0.67314243 0.03158101 20.0
-1.23387802 1.04418623 0.93580508 20.0
-0.98302317 0.75203818 -1.62985206 20.0
1.40473735 0.25538218 0.16640230 20.0
1.31591713 -1.34035099 0.21515244 20.0
-0.14523301 -0.80150038 -1.20909083 20.0
-1.15283132 0.79266787 -1.72834110 20.0
0.56065810 -1.50713480 -0.14519836 20.0
0.94229293 -0.98706365 0.72558105 20.0
1.09808433 -1.09707034 -1.68554986 20.0
0.86072028 -0.79494578 0.79329205 20.0
0.64424044 1.46058536 0.97865093 20.0
0.62981331 1.54896295 0.02831314 20.0
-1.42302036 0.33304462 0.12557176 20.0
0.86349577 -0.82721555 -1.44077814 20.0
1.33555067 1.00484085 -0.90470028 20.0
-1.18358183 -1.44185817 -0.82888752 20.0
0.87030262 0.42499772 1.68287921 20.0
0.81805497 -1.38392031 0.46440652 20.0
-0.38047582 -0.61932153 -1.19859672 20.0
0.51171517 1.18466043 -1.11584818 20.0
-0.36315256 1.57898355 0.68157351 20.0
-0.66495144 -0.49648672 1.00833106 20.0
1.38887846 0.47411740 -0.14427763 20.0
1.01270568 -0.47445059 -1.18182623 20.0
0.33673674 -0.54981428 0.93923521 20.0
1.39727235 0.40729383 0.12557176 20.0
-0.78701651 0.50340474 1.72379684 20.0
1.32855344 -0.67593110 -1.01382780 20.0
-0.77415824 1.52784038 -0.47162274 20.0
-1.16001606 -1.32544219 -1.10112321 20.0
0.82870382 -1.49164963 -1.08880627 20.0
1.41246891 0.00620610 0.16168551 20.0
0.79511344 -0.75660986 0.80812109 20.0
1.00482404 -0.07749591 -1.16126597 20.0
-0.71110803 1.54162562 0.88454515 20.0
-0.54803777 -1.50279939 -0.96145713 20.0
-1.33575392 -0.34105980 0.65750176 20.0
0.11100047 1.57871795 0.93348914 20.0
0.65475857 -0.84857470 0.78009641 20.0
-0.47205293 0.51856899 1.74376345 20.0
-0.90023774 0.27338147 1.69567847 20.0
-1.39729357 -1.05611444 0.03158101 20.0
-0.73093450 0.89634514 1.52121782 20.0
0.73884946 -0.87439185 -1.18667269 20.0
1.25450444 0.93045419 -1.57492864 20.0
1.38277125 0.66250449 0.36259270 20.0
0.34994644 0.74252462 -1.18868089 20.0
-1.37811482 0.66132081 -0.71095169 20.0
-1.27575064 1.43907392 0.12503463 20.0
1.11342430 1.48177326 -0.46797922 20.0
-0.96446562 0.41352621 1.58082891 20.0
0.65278971 0.96639961 1.43477941 20.0
-0.61277902 -1.25773489 0.60184622 20.0
-0.70710158 -1.45289218 0.27128994 20.0
-1.34557986 -0.86677390 -1.01030838 20.0
-1.19070017 0.83299989 1.08952427 20.0
-1.39336967 0.00501363 -0.57338721 20.0
1.36012459 1.00594163 0.53527957 20.0
1.40166652 0.73594826 0.12557176 20.0
-1.30524862 -1.27388179 0.44238064 20.0
-0.64887643 1.29329741 -1.06368589 20.0
0.78979242 -1.09955955 -1.25846314 20.0
-0.13224968 -0.36711207 1.33202302 20.0
-0.73565376 1.54363930 0.68120533 20.0
-1.40836847 -0.98076695 0.03158101 20.0
0.79199070 -1.02855074 0.71571767 20.0
-0.35387996 -0.60490948 0.88092041 20.0
1.29380500 -0.07749591 -1.01669824 20.0
0.63037622 1.54240847 0.16564122 20.0
-1.41596973 0.47458431 0.03158101 20.0
-1.42717457 -0.78561258 -0.36638355 20.0
1.33690345 0.86614424 -0.82252783 20.0
-0.88683277 -1.41950142 0.35412145 20.0
-1.39877594 -0.52539569 -0.72928685 20.0
-1.41455066 0.89856052 0.36275145 20.0
0.70223910 0.69200593 1.66727316 20.0
0.65056437 -0.88910091 0.76619035 20.0
1.24177718 1.43704867 -0.48683894 20.0
0.12228454 0.00497803 -1.21165776 20.0
1.13062096 1.08495927 1.03566647 20.0
-0.37047002 0.60822868 -1.19212997 20.0
-1.39932346 -0.47411013 0.50826913 20.0
-0.62934858 -1.00280237 -1.20983720 20.0
1.39725697 0.40738314 0.23573360 20.0
0.40502250 -1.51124585 -0.96353048 20.0
-1.21302283 1.00330591 1.00019240 20.0
-0.92977792 -1.37199998 0.46268302 20.0
1.25535107 1.08606195 0.80054080 20.0
0.26463810 -1.52897537 -0.36704955 20.0
0.68435776 -0.68061364 -1.16660583 20.0
-1.38247919 0.58616400 -0.56399763 20.0
-1.15023780 0.96664131 -1.80595875 20.0
-0.51690638 -1.30748653 -1.18027580 20.0
-1.32491612 -1.37194085 -0.36638680 20.0
-0.56256688 0.94494849 1.48514068 20.0
0.61272788 -0.88559705 -1.18935382 20.0
0.12316112 -0.80150038 -1.20909083 20.0
0.77660650 -1.19895995 0.62636071 20.0
0.31722620 -0.13001792 1.62271571 20.0
-0.70214850 1.01986766 -1.12843716 20.0
-1.21302283 1.00330591 1.00019240 20.0
0.65692729 1.52108467 0.96470684 20.0
-0.80377626 -0.40015480 1.21378744 20.0
-0.56198317 1.17356920 1.16652906 20.0
0.65182763 0.36498114 1.75966740 20.0
-0.27690530 -1.52056551 -0.73202246 20.0
-0.99832714 1.42012453 0.93774611 20.0
-1.39877594 -0.52539569 -0.72928685 20.0
0.51360285 1.10940135 -1.13299906 20.0
1.32647026 0.96664131 -1.01143003 20.0
0.96431059 -0.02886986 1.52574360 20.0
0.73126715 0.47789142 -1.16131163 20.0
-0.37679136 0.86481237 -1.18565774 20.0
0.70778638 0.92750752 1.47724593 20.0
1.26213408 -0.78885955 -1.41293740 20.0
1.12405849 1.48764849 0.03203239 20.0
-1.17968953 0.17323707 1.13244820 20.0
-0.81765169 -1.02041781 -1.28586173 20.0
-1.32848549 1.37603498 0.23529185 20.0
-1.23387802 1.04418623 0.93580508 20.0
-0.28982189 -1.48480427 0.26719341 20.0
-1.20301104 0.92970788 1.04227173 20.0
-0.63504905 0.00494198 -1.17732430 20.0
0.50020224 -1.26565850 0.60179234 20.0
-0.86320764 -1.10997880 0.67706883 20.0
0.38986933 -1.23282838 0.62603956 20.0
-0.11332896 -1.03445625 0.73075175 20.0
1.28208280 0.40619111 -1.00039387 20.0
-1.40551400 1.00484085 -0.56399763 20.0
-0.79944408 0.20261054 1.74089789 20.0
1.31476188 1.08558941 -0.89638591 20.0
-0.12998469 0.12738441 1.75435066 20.0
-1.36990309 0.17221369 -0.71095169 20.0
1.33362222 -1.01795721 -0.82252783 20.0
-1.34145546 -1.32294941 0.16335903 20.0
0.34956425 0.49286357 -1.19228876 20.0
1.32947063 -1.28271365 0.16485649 20.0
1.31661010 -1.31163502 -0.36638355 20.0
0.78120822 -1.15532792 0.65196192 20.0
-0.69666404 0.17468478 -1.16634095 20.0
-0.98209816 0.93045419 -1.81215441 20.0
0.69508547 1.53657103 0.12520432 20.0
-0.66631240 1.46058536 0.97865093 20.0
0.87912512 -0.52542180 -1.17519295 20.0
1.36284983 -0.78565735 -0.82253069 20.0
1.00605690 -1.46932685 -0.35586467 20.0
-0.70903891 1.51124954 -0.65041399 20.0
1.37947738 -1.01767933 -0.14427763 20.0
-1.00115466 -0.15297435 1.44145310 20.0
1.27041972 0.08962099 0.82954466 20.0
-0.58378023 -1.46224499 0.26983222 20.0
0.95453304 0.71378714 -1.51547968 20.0
-1.36747456 1.13441408 -0.70245308 20.0
1.28787303 -1.40224171 -0.36641261 20.0
1.29306698 -1.09943807 -1.00931478 20.0
-1.24882078 -1.39442229 -0.99802190 20.0
-0.61323059 0.70059347 1.67230451 20.0
1.40474224 0.25529277 0.12557176 20.0
-1.36940145 0.58732229 0.52337223 20.0
1.06062651 0.09258208 1.35751081 20.0
1.30766153 0.86613804 -1.01181507 20.0
0.34402204 -1.21841657 -1.20874572 20.0
0.35377255 0.90077484 -1.17839289 20.0
-1.00782156 -1.46510518 -0.84301615 20.0
-0.48238999 -0.06389491 1.66686857 20.0
-0.13216619 -1.43523383 0.46704024 20.0
-0.03685763 -1.49180067 0.33840212 20.0
1.35222912 -1.19363952 0.03158101 20.0
-0.12961192 0.21200724 1.77332354 20.0
0.36070052 1.47920322 -0.88781464 20.0
0.86895841 -1.47403324 -0.71267200 20.0
0.98358017 -1.46794248 -0.93607050 20.0
0.69689530 1.35627365 0.98034304 20.0
-0.72484630 0.55874532 1.71708667 20.0
-1.03477764 -0.47445059 -1.18182623 20.0
0.12145336 -0.99026555 -1.23984694 20.0
1.42476285 -0.59451377 -0.14733745 20.0
-0.53378707 1.18466043 -1.11584818 20.0
-0.87591380 -0.95060742 0.74031472 20.0
-0.86914307 -1.48084056 -0.95366257 20.0
-1.31755924 1.29624140 0.50511050 20.0
1.33304513 -1.09571946 0.51986843 20.0
1.29707074 -0.42149422 -1.03845501 20.0
-1.43847048 -0.73856235 0.23573360 20.0
-0.14596820 -0.70265436 -1.20578635 20.0
0.75535035 1.52518725 0.36842415 20.0
-0.90442932 0.19161043 1.68659568 20.0
-1.31460655 1.36573231 -0.64088136 20.0
-1.36128533 -1.24322379 -0.14427763 20.0
-0.14430319 -0.90842438 -1.22374332 20.0
-0.85755789 -0.00613616 1.66219580 20.0
-0.75917822 1.11418521 -1.12549996 20.0
-1.43454230 0.00611666 0.12069460 20.0
1.35558724 -1.14564073 -0.36638355 20.0
-1.33016431 -1.31254292 -0.56399763 20.0
-1.36571062 0.89738363 -0.82252783 20.0
1.41011035 -0.07630336 0.22482944 20.0
-1.42020428 -0.16576114 0.34547648 20.0
1.39450669 1.08680642 0.23573360 20.0
0.51009929 0.34185660 -1.17941141 20.0
-1.32829463 -0.47445059 -1.03325820 20.0
0.62981331 1.54896295 0.02831314 20.0
-1.32574582 0.40730181 0.68801850 20.0
-0.87747818 0.58502519 -1.15663052 20.0
-1.13916409 -0.87760127 0.74773484 20.0
0.12260606 -0.44188926 -1.24302566 20.0
-1.33684707 -1.34588969 0.12557176 20.0
0.83548594 -0.00613616 1.66219580 20.0
0.88920242 1.42744815 0.96055806 20.0
1.39109492 0.66251254 0.16640230 20.0
-0.38564935 1.56068194 0.23272020 20.0
-0.64077783 -0.73792344 -1.17274129 20.0
0.14084733 -1.51356339 -1.16396010 20.0
-0.14389426 1.20435548 -1.12438738 20.0
0.77086514 0.36190337 1.74858689 20.0
1.30928779 -1.35799825 -0.14428180 20.0
-0.97617143 0.18006025 1.58493710 20.0
1.14148796 0.58663023 1.12303984 20.0
1.22791660 -0.21822685 0.89747018 20.0
-0.78651679 0.99413484 1.37895191 20.0
-0.36989847 0.71129233 -1.18775642 20.0
0.26684350 -1.53035986 -0.15071426 20.0
0.82170188 1.51794398 0.36908808 20.0
-1.25020766 1.00484467 0.91111267 20.0
-1.35762250 1.00484085 -0.90470028 20.0
-1.33807647 -0.97095019 0.62367386 20.0
0.50548685 0.70439887 -1.17490613 20.0
1.19095087 1.00330591 1.00019240 20.0
1.24631166 1.43642437 0.36043438 20.0
-0.14374979 -0.27395892 -1.23378778 20.0
1.40094829 0.33304462 0.12557176 20.0
-1.34088683 -1.32569611 0.03158101 20.0
-1.24998856 -0.21822685 0.89747018 20.0
0.83359492 -1.19540012 0.62596279 20.0
-1.21277106 1.26301622 -1.00734532 20.0
1.37725151 -0.47411013 0.50826913 20.0
0.31722620 -0.13001792 1.62271571 20.0
0.73710632 1.11418521 -1.12549996 20.0
-1.44683456 -0.59451377 -0.14733745 20.0
0.67577100 0.91078997 -1.14674842 20.0
-0.79828459 1.52688348 0.92634910 20.0
-0.14429159 0.78767598 -1.20609963 20.0
0.01239644 -1.53985536 -1.14139986 20.0
0.94149572 -1.05639935 -1.75255883 20.0
-1.09647822 -0.27988026 1.30998707 20.0
-0.97527260 1.10461915 -1.47525883 20.0
-0.83237559 1.00731921 -1.20953453 20.0
-1.26193881 1.41549933 -0.67453539 20.0
-0.90023774 0.27338147 1.69567847 20.0
0.12210465 -0.08147011 -1.21974742 20.0
1.16436887 -0.05137441 1.09544396 20.0
0.61279690 0.08946188 -1.17259586 20.0
0.98734862 1.49241436 0.87087369 20.0
0.96045852 -1.46807408 -1.12524807 20.0
1.41011381 -0.07675058 0.01870954 20.0
-0.03994872 -1.52638638 0.19233394 20.0
0.68696702 1.51124954 -0.65041399 20.0
-1.29253435 -0.06765815 0.81396413 20.0
0.46144274 -0.12871416 1.61718714 20.0
-1.28164196 0.73561299 0.83379143 20.0
-1.28565586 -0.80415922 0.73758447 20.0
-1.32960641 0.73586637 0.68827832 20.0
-0.27690530 -1.52056551 -0.73202246 20.0
1.23992693 -0.36422879 0.84728396 20.0
-0.76129597 0.00498463 -1.16715407 20.0
-1.04405499 1.18878198 0.99734390 20.0
0.62312341 1.49539971 -0.77148461 20.0
-1.29054201 -1.19391465 -1.01661122 20.0
0.31644484 -0.06456088 1.67262852 20.0
0.74745250 -0.53004193 -1.18307209 20.0
-0.88284200 -0.86677390 -1.48780429 20.0
-1.41578078 0.93162948 0.36338651 20.0
0.91143161 1.19228709 1.03912222 20.0
1.22791660 -0.21822685 0.89747018 20.0
1.29949391 -1.35281694 -0.56399763 20.0
0.81839579 0.81831664 1.57251537 20.0
-0.90434581 1.35593188 -0.96600878 20.0
0.67087597 -0.35324448 1.31817961 20.0
0.73227483 -0.99012804 -1.20803392 20.0
-0.80197394 -1.22389674 -1.17137969 20.0
0.61358535 0.88421923 -1.15765226 20.0
-1.37436223 -1.19328260 0.12557176 20.0
-0.47228169 1.23469925 1.09397316 20.0
-1.42206919 -0.86649585 -0.14427763 20.0
1.12159288 1.49174857 -0.13144703 20.0
-0.14652419 1.52014649 -0.80018538 20.0
-1.14706373 0.93045419 -1.83580649 20.0
1.12015164 -0.90669042 -1.80188215 20.0
1.23589790 -1.01790345 -1.56288934 20.0
-0.70045853 -0.40371081 1.21646619 20.0
1.22813594 1.00484467 0.91111267 20.0
0.70480335 -0.58607417 0.87761569 20.0
1.04270887 0.47526884 1.35896218 20.0
0.54842550 -0.00420601 1.69666350 20.0
0.66607225 -0.19087607 1.54556179 20.0
0.66385543 -1.32175648 0.55140799 20.0
-0.77525073 -0.44947785 1.10207772 20.0
0.96244383 -0.82721400 -1.65285385 20.0
0.78979242 -1.09955955 -1.25846314 20.0
1.30858362 -1.34937274 -0.36638355 20.0
0.81419504 0.43376890 1.71899569 20.0
1.40641367 0.96738511 0.03158101 20.0
1.04917932 0.33362401 1.37352896 20.0
0.53616339 0.56918913 1.72455227 20.0
-0.13165088 -0.68000436 0.84699428 20.0
-1.41735578 0.86732215 0.36259270 20.0
-0.81718540 -0.75660986 0.80812109 20.0
-0.76308215 -0.42523605 -1.19755602 20.0
1.31256974 -1.32998061 -0.36638355 20.0
-1.41086960 0.58735591 0.16640230 20.0
1.41871965 -0.47325772 0.15222797 20.0
-1.32156575 -1.35281694 -0.56399763 20.0
0.95191711 -0.87576890 0.76201159 20.0
-1.40860939 1.04453981 -0.36638355 20.0
-0.10364401 -1.53884172 -1.09609282 20.0
0.65118164 0.77008873 1.63712049 20.0
-0.46014830 -1.01753175 0.72985125 20.0
1.33493435 -0.42149422 -0.86413294 20.0
1.31949818 0.40619111 -0.82260084 20.0
0.74094802 -0.83448946 -1.17719913 20.0
0.69890356 1.54660749 0.81395531 20.0
-0.26977879 -1.52049136 -0.86928123 20.0
1.39038610 0.89742339 -0.36638355 20.0
-0.84364849 0.28217930 1.73118508 20.0
0.58285081 -0.49968448 1.00925422 20.0
-0.14390235 -0.17520051 -1.22754180 20.0
-0.75216818 0.53249073 -1.16131163 20.0
-0.91520315 -0.01497369 1.62585616 20.0
1.36927509 -1.05681872 -0.36638355 20.0
-0.98100835 0.89738363 -1.81960678 20.0
0.04748956 -1.37261569 0.54927438 20.0
-0.41363749 -1.51806569 -1.09256339 20.0
-1.03980362 -0.21872608 1.37906957 20.0
-0.96160650 0.48102257 1.56731451 20.0
0.80614978 -0.83794427 0.77951723 20.0
-0.64496303 1.50903714 -0.70709568 20.0
1.25057065 0.52888727 0.83350635 20.0
1.32530618 0.66242844 -0.90749711 20.0
1.39326560 0.73602802 0.36259270 20.0
0.86558145 0.54645795 1.65266585 20.0
1.00425935 -1.46928382 -0.14154176 20.0
0.57986081 -0.85400254 0.78039223 20.0
0.30666566 -0.87019855 0.78160918 20.0
-1.41787863 -0.26001900 0.33954501 20.0
-0.16291921 -1.51356339 -1.16396010 20.0
-0.68979001 0.53580314 -1.16634095 20.0
1.35558724 -1.14564073 -0.36638355 20.0
0.60112917 -1.12058187 -1.20078623 20.0
-1.28011692 0.96664131 -1.55599880 20.0
1.32653010 0.25418994 -0.82260084 20.0
-0.67683041 -0.84857470 0.78009641 20.0
0.68696702 1.50167739 -0.70301515 20.0
-0.14437400 1.12780619 -1.15276909 20.0
-0.47698733 1.02432334 1.39842367 20.0
-0.13885662 -1.39039099 -1.20422912 20.0
1.33501446 1.04449892 -0.82132775 20.0
-0.63486874 0.08946188 -1.17259586 20.0
1.20452893 0.58683521 0.96522039 20.0
0.31927341 -0.31504679 1.40988290 20.0
0.98734862 1.49241436 0.87087369 20.0
-1.40213490 -0.78565228 -0.71095169 20.0
-0.55023199 1.55271363 0.16380417 20.0
-1.11487663 -1.13703907 -1.58174634 20.0
1.24799562 -1.39805365 -0.89919895 20.0
1.40959442 0.79284000 0.03158101 20.0
-0.38127935 1.52882266 -0.72388786 20.0
0.79921204 -1.48139620 -0.54600555 20.0
-1.25021052 0.01308733 0.95155239 20.0
1.19864106 -0.33758926 0.96341562 20.0
-0.55218679 -1.42790031 0.40870017 20.0
-0.69792449 0.08895130 -1.16751611 20.0
-0.77324009 1.48080337 -0.76298279 20.0
0.87083441 0.67942142 1.60261226 20.0
-1.32178247 1.37849271 -0.34403807 20.0
-0.96446562 0.41352621 1.58082891 20.0
-1.20247054 -0.27253926 1.00292563 20.0
-1.38495421 -1.09943295 -0.36638355 20.0
1.14648533 0.40690479 1.13349700 20.0
1.31533301 -1.28512585 -0.56399763 20.0
-1.40608859 -0.52532488 0.50871569 20.0
1.12523067 1.48165607 0.16679445 20.0
1.15005875 0.33275491 1.13532245 20.0
0.91020042 0.94611245 1.37360024 20.0
0.31197101 -0.78575921 0.81069732 20.0
-0.70145780 0.98109198 -1.13425183 20.0
0.01232878 -1.54364955 -0.88504183 20.0
-0.33316797 0.37636554 1.77476835 20.0
0.68099058 -1.49609292 -0.35511181 20.0
-0.14539814 -0.78120226 -1.20838952 20.0
-0.71715736 1.53657103 0.12520432 20.0
1.32938194 -1.28306890 0.12557176 20.0
1.06544816 -0.04171149 1.31977618 20.0
1.29597461 0.00501363 -1.00728941 20.0
-1.18644071 -0.05137441 1.09544396 20.0
-0.13216619 -1.43523383 0.46704024 20.0
-1.19070017 0.83299989 1.08952427 20.0
0.12224604 0.09166786 -1.20674479 20.0
1.35572708 1.20774639 0.36093324 20.0
-1.43401265 0.08894623 0.23484471 20.0
0.75291425 0.05317899 1.70901382 20.0
-1.19070017 0.83299989 1.08952427 20.0
-1.40317178 -1.01676619 0.23573360 20.0
0.70857888 -0.71622843 0.82365364 20.0
-1.43219101 -0.07639283 0.11360602 20.0
0.73429656 0.33475876 -1.16131163 20.0
-1.10763574 -0.71185744 0.80456084 20.0
-1.31202996 -1.38580954 0.03166877 20.0
-0.88776606 0.79259449 -1.47003579 20.0
0.62851244 1.55345857 -0.13789202 20.0
-1.32514644 0.79314041 -1.21366262 20.0
1.24054193 -1.31426728 -1.00039065 20.0
1.30603755 1.37831473 0.03147055 20.0
1.39956582 0.25446814 -0.14427763 20.0
-0.67389947 0.36498114 1.75966740 20.0
0.35324007 0.78241491 -1.19286823 20.0
-1.42203259 -0.47441080 -0.39055514 20.0
-1.07874131 -0.53049541 0.91222686 20.0
1.00109434 0.25418994 -1.14796793 20.0
0.81865340 -0.58094436 0.87630719 20.0
0.96714538 1.50679994 0.16848457 20.0
-0.31551877 -1.38566709 0.51501346 20.0
-1.43480158 -0.42039084 0.10406096 20.0
0.77237034 -0.35012394 1.31518877 20.0
-1.34295976 -1.31018770 -0.14427763 20.0
1.12269986 -0.76498383 -1.47686183 20.0
-0.72571045 1.20093334 1.08329523 20.0
-0.88667548 0.96664131 -1.49555647 20.0
-0.97398901 -0.87576890 0.76201159 20.0
-0.37427881 -0.94393170 -1.21932638 20.0
-1.32996202 0.93138921 0.68656814 20.0
0.66530329 0.65467095 -1.16461527 20.0
-0.54413497 1.50546920 -0.77821535 20.0
1.12523067 1.48165607 0.16679445 20.0
1.39929163 -0.73894799 0.48709852 20.0
0.82157665 0.28217930 1.73118508 20.0
1.35233521 1.04449999 -0.71032304 20.0
-1.25836217 -1.41660464 -0.89843845 20.0
-1.26912081 -1.28600168 -1.00037193 20.0
-1.27842128 0.89799112 0.83406204 20.0
-0.93903339 1.25689101 0.97228473 20.0
-1.33516324 0.25418994 -0.90506524 20.0
0.55451632 -0.30911753 1.40277517 20.0
-1.07407498 0.66238248 1.32049549 20.0
-1.43044066 -0.78445399 0.35421097 20.0
-0.78195900 1.52562106 0.23880251 20.0
-0.55022949 1.55084014 0.23524867 20.0
-0.88373703 0.40619111 -1.15351868 20.0
-0.72006249 -1.40451074 -1.15973461 20.0
-0.37950116 -0.54709673 -1.21436644 20.0
-1.44605780 -0.52429223 0.11720884 20.0
1.25528336 1.00484085 -1.52241576 20.0
-0.80197394 -1.22389674 -1.17137969 20.0
-1.34480190 0.93045419 -1.01197100 20.0
-1.35062528 -0.67593110 -1.01382780 20.0
1.41639948 -0.73865199 0.12557176 20.0
1.00657833 -0.26116455 1.40375638 20.0
-0.31551877 -1.38566709 0.51501346 20.0
-0.66829282 0.69624627 1.66975749 20.0
0.35256553 1.56776202 0.53090930 20.0
-0.72178203 1.26642072 1.01369941 20.0
-0.28424525 -1.15550542 0.67791063 20.0
0.66771805 0.53580314 -1.16634095 20.0
0.46144274 -0.12871416 1.61718714 20.0
-1.31758213 0.08775385 -1.00177300 20.0
-1.26904130 1.29672182 0.63547039 20.0
0.10849302 -0.00440482 1.71242714 20.0
-0.66865075 0.56215918 1.71952689 20.0
-1.40353107 1.13534093 -0.14414172 20.0
1.32647336 -1.13926053 0.50295234 20.0
-1.34480190 0.93045419 -1.01197100 20.0
1.31949818 0.40619111 -0.82260084 20.0
-0.13165346 -0.26269937 1.48888099 20.0
-0.31551877 -1.38566709 0.51501346 20.0
-1.42625010 -0.26002213 0.21022941 20.0
-1.32627690 1.37937725 -0.13855872 20.0
0.76265615 0.55737978 1.70854735 20.0
-0.78472799 0.55737978 1.70854735 20.0
0.77990192 -1.22389674 -1.17137969 20.0
-0.14513753 1.05253208 -1.16691542 20.0
-0.12689601 -0.79101318 0.81164706 20.0
0.76881033 -0.58241010 0.87709236 20.0
-0.47427118 0.78664279 1.64637172 20.0
-0.88878340 1.50438714 -0.56860155 20.0
1.31591356 -1.26218867 0.40933701 20.0
1.30955553 0.33194181 -0.90506524 20.0
0.80125588 1.12870884 -1.15106308 20.0
-1.40541005 -0.26117513 -0.41254082 20.0
-0.80726159 -1.11276019 0.67754483 20.0
0.71120661 0.99658662 1.38616741 20.0
-1.30225229 -1.37559450 -0.71095181 20.0
1.42694402 -0.59359914 0.23355618 20.0
1.33194482 -1.14568031 -0.71095169 20.0
-1.31494164 -1.37150180 0.20740072 20.0
0.70616609 -0.53267574 0.93487835 20.0
-0.84226304 -0.64876074 0.84193987 20.0
0.68096638 1.21274960 -1.09595466 20.0
0.58737248 1.37212193 0.98325109 20.0
-0.98302317 0.75203818 -1.62985206 20.0
-0.28424525 -1.15550542 0.67791063 20.0
-1.27176452 -0.90669042 -1.55341208 20.0
1.34958327 -0.97841156 0.54864544 20.0
0.12332626 -0.78120226 -1.20838952 20.0
1.38333809 -0.26117513 -0.41254082 20.0
-1.35462201 -0.52295285 0.65672660 20.0
0.51660717 1.03535724 -1.14127493 20.0
-1.37385762 0.73509425 -0.82313865 20.0
-0.84670073 -1.36336613 -1.15352476 20.0
-1.36648118 -0.47445059 -0.85466987 20.0
1.24054193 -1.31426728 -1.00039065 20.0
1.33007228 0.89738363 -0.90470028 20.0
-0.94331676 -1.19201362 0.62341088 20.0
0.92015564 1.05918539 1.22932732 20.0
-1.29056764 -0.15072706 0.80168396 20.0
1.33760870 1.20333314 -0.69360435 20.0
0.94239384 0.41352621 1.58082891 20.0
-0.72829616 -1.37770414 -1.16061914 20.0
-0.11484009 -1.53250754 -1.13823104 20.0
0.33395076 1.58195817 0.81625921 20.0
0.62925124 1.38315248 -0.98192972 20.0
-0.12207933 -0.91784871 0.76821858 20.0
-1.15296495 -1.38525438 -1.10108459 20.0
-0.11936042 -0.95787692 0.75506115 20.0
-1.40603387 0.25422969 -0.36638355 20.0
-1.21277106 1.26301622 -1.00734532 20.0
0.61520654 0.84892184 -1.16484678 20.0
0.68141979 -0.75671339 -1.16916192 20.0
0.12197293 1.57274890 0.53014201 20.0
1.19788408 -0.46275786 0.96042305 20.0
1.10554349 -0.98889524 0.71155918 20.0
-0.33778796 -0.00439013 1.70631278 20.0
0.10505925 -1.45576894 -1.19378877 20.0
0.61708003 -0.78134942 -1.17493165 20.0
-0.61277902 -1.25773489 0.60184622 20.0
1.00231802 -0.34878859 -1.17971587 20.0
0.24770683 -1.52049136 -0.86928123 20.0
-1.10763574 -0.71185744 0.80456084 20.0
-0.89592457 1.43210685 -0.85341591 20.0
-1.34547806 0.86614424 -0.90470028 20.0
0.51718503 -0.48922437 -1.21393466 20.0
-1.05541861 1.42607975 0.90214163 20.0
-1.02716732 -1.46558392 -0.55092025 20.0
-1.31608129 -1.13059938 0.56476456 20.0
1.40665495 1.00558460 0.03158101 20.0
-0.93932879 1.01892507 1.28474891 20.0
-1.41421235 -0.59567654 0.50590485 20.0
-1.42302036 0.33304462 0.12557176 20.0
-0.85785466 -1.48827493 -1.03043258 20.0
0.80125588 1.12870884 -1.15106308 20.0
-0.76195556 0.87324047 -1.15654254 20.0
1.25293708 1.44225109 0.03149561 20.0
1.34536815 -0.52540004 -0.92481047 20.0
-0.97780961 -0.90669042 -1.78638816 20.0
1.06349230 0.02087352 1.34123898 20.0
-0.65217233 -1.50405610 -1.09085560 20.0
-0.93932879 1.01892507 1.28474891 20.0
-0.66282934 -0.72080731 0.82405078 20.0
0.10904551 -0.13087496 1.62839484 20.0
0.12600118 1.56568003 0.23012294 20.0
-1.17581868 0.25510561 1.13524115 20.0
0.80300862 -0.90896630 -1.27254713 20.0
1.38920915 -0.07745615 -0.38611788 20.0
1.31591713 -1.34035099 0.21515244 20.0
0.52816004 1.55271363 0.16380417 20.0
-1.28314388 0.86676937 0.83288652 20.0
0.52270597 1.55312836 -0.48344794 20.0
-1.38328850 -1.14449036 0.23283637 20.0
-1.13811588 1.43831003 -0.74736547 20.0
1.40158856 1.04568934 0.23573360 20.0
0.96010083 1.51531827 -0.31576088 20.0
1.12633741 0.75120306 -1.64310002 20.0
0.73002297 -1.02679861 -1.20902956 20.0
0.75955939 1.26265955 1.00834596 20.0
-0.13078728 -1.53789055 0.02254000 20.0
-0.90308875 -0.59507936 -1.15974462 20.0
1.24560833 -0.99627161 0.67380106 20.0
-1.40860939 1.04453981 -0.36638355 20.0
-1.43479657 -0.42030135 0.21613112 20.0
0.71935254 -0.00397229 1.68972647 20.0
-1.41349411 -0.94378448 0.12557176 20.0
0.24015382 -1.52163088 -1.13514614 20.0
1.01994991 -0.59680265 -1.15436769 20.0
-1.37867713 0.40619111 -0.56399763 20.0
0.82940155 0.11965176 1.70306337 20.0
-1.15056729 -0.37519324 1.16941476 20.0
1.33155966 -0.07749591 -0.84305531 20.0
1.18075049 0.40619111 -1.10108459 20.0
-0.48796979 -0.36109138 1.32384765 20.0
-0.63655406 -0.43073973 -1.20794702 20.0
-0.68041056 -1.18820167 -1.18259978 20.0
1.19673324 -0.54051781 0.86554146 20.0
0.86707169 0.49247074 1.66803229 20.0
1.16862810 0.83299989 1.08952427 20.0
-1.06412804 0.52929944 1.35007191 20.0
0.85050714 0.68376899 -1.26643491 20.0
-1.38757670 -0.16695592 -0.60384578 20.0
-0.53381890 -0.17231546 -1.20067084 20.0
0.64627230 -1.49442554 -0.95940167 20.0
1.40475416 0.25493512 0.03158101 20.0
0.11341102 1.58178568 0.88930172 20.0
0.62303346 1.53083873 -0.58125526 20.0
-0.56526822 0.83794141 1.60744095 20.0
-1.41359615 -0.67388785 -0.71095169 20.0
0.87030262 0.42499772 1.68287921 20.0
0.81458950 1.14748931 1.13829935 20.0
-1.13591349 0.68834764 -1.37448704 20.0
-0.11632206 -0.99625969 0.74285555 20.0
-0.93570668 0.98090142 1.33252859 20.0
1.36599159 0.83419347 0.52337223 20.0
-0.97660488 0.71378714 -1.51547968 20.0
-1.03023922 1.49643242 0.83275467 20.0
-0.83769792 0.95574087 1.40765131 20.0
1.37035155 0.00620791 0.51973271 20.0
1.00509548 -1.46558392 -0.55092025 20.0
0.80882472 0.83326900 -1.24185359 20.0
-0.82128400 -1.48139620 -0.54600555 20.0
0.35220686 -0.94393170 -1.21932638 20.0
0.60006291 0.20553997 1.75435758 20.0
0.80760902 0.68814391 1.63969541 20.0
0.51596254 -1.50475657 -1.13201499 20.0
0.64770693 -1.34713459 -1.16604102 20.0
0.81562597 0.95574087 1.40765131 20.0
-0.07895286 -1.33776450 0.57660311 20.0
0.64627230 -1.49442554 -0.95940167 20.0
0.96385282 0.83122230 -1.77000105 20.0
1.38006294 -0.78565228 -0.71095169 20.0
1.37103856 -0.98151129 -0.56399763 20.0
-0.11095240 -1.07522833 0.71710265 20.0
1.38145912 1.13534093 -0.14414172 20.0
-0.53535062 0.77482849 -1.17998731 20.0
1.38879788 0.58735591 0.16640230 20.0
-0.82873642 0.61323768 1.66863561 20.0
-0.79328638 1.34993160 0.97531396 20.0
-0.72687525 -0.58607417 0.87761569 20.0
-0.76715660 0.28436387 1.75718701 20.0
1.16971934 0.59309274 -1.11658454 20.0
1.37286520 0.52800715 -0.36638355 20.0
-0.14417654 -0.08147011 -1.21974742 20.0
1.31881487 -1.32569611 0.03158101 20.0
-1.24481773 0.83335316 0.95776755 20.0
-0.14494714 0.83015448 -1.20552087 20.0
-1.14730251 1.48165607 0.16679445 20.0
-0.12595761 -0.83316755 0.79714328 20.0
0.29344687 -1.38566709 0.51501346 20.0
-1.33464158 -1.32998061 -0.36638355 20.0
-0.50554633 1.56970322 0.84828436 20.0
0.48067299 -0.46231648 1.10734069 20.0
0.65182763 0.36498114 1.75966740 20.0
0.79933697 0.40718064 -1.15640604 20.0
-1.35062528 -0.67593110 -1.01382780 20.0
0.52596581 -1.50279939 -0.96145713 20.0
-0.60728085 -0.53954333 0.93629915 20.0
1.41010725 -0.73971516 -0.36638355 20.0
-0.45965290 -1.47160625 0.26869801 20.0
-1.01147115 0.83912063 1.41165388 20.0
-0.63375294 -0.30711931 1.40104795 20.0
-1.42624342 -0.26046944 0.00147555 20.0
0.51421738 0.95869309 -1.15361655 20.0
0.72608346 -0.88346517 0.76593000 20.0
0.69799060 -1.40451074 -1.15973461 20.0
-0.88467866 1.04271400 -1.42285776 20.0
1.26847005 -1.19391465 -1.01661122 20.0
1.39153719 0.00505338 -0.37442714 20.0
-0.83409208 -0.47565135 -1.19050610 20.0
-0.76480651 -0.79929370 -1.17128360 20.0
-0.09301866 -1.48860228 -1.18409824 20.0
-0.55972058 1.22375560 1.09026098 20.0
0.80055112 -0.94725716 -1.28307927 20.0
-1.41933703 0.40738323 0.16640230 20.0
-1.15347457 -0.79161739 -1.57341981 20.0
0.79295558 -0.12464987 1.59936595 20.0
-1.27500904 1.44225109 0.03149561 20.0
-0.53784502 -1.22186840 0.62615120 20.0
-1.32786036 0.96664131 -1.22795773 20.0
-1.42848539 0.96738511 0.03158101 20.0
-0.88961327 1.19437301 -1.10058367 20.0
-0.70752388 -0.60388720 -1.17257285 20.0
0.77237034 -0.35012394 1.31518877 20.0
-0.10660671 -1.53850198 -1.04169905 20.0
1.42695236 -0.59359926 0.16409144 20.0
1.27518892 -0.39165497 0.76342392 20.0
1.31336093 -0.16198955 0.66916615 20.0
-0.67767340 1.04105747 1.34021223 20.0
1.39475083 0.73488581 -0.36638355 20.0
-0.82989806 -0.82929397 -1.23819661 20.0
0.86349577 -0.82721555 -1.44077814 20.0
0.26953650 -1.50142419 0.19791451 20.0
-0.65132314 1.38315248 -0.98192972 20.0
-0.87988341 0.52826583 -1.15354836 20.0
-0.89393926 1.51354885 0.36908290 20.0
1.39087069 1.08589494 -0.14427763 20.0
-0.89624399 0.35093781 1.69330931 20.0
-1.00748789 1.19202626 -1.10605061 20.0
-0.70045853 -0.40371081 1.21646619 20.0
-0.93227232 0.94611245 1.37360024 20.0
-0.79021460 0.86122668 1.55427396 20.0
-0.97809875 1.07669461 -1.57623470 20.0
0.31225637 1.11425221 1.30395257 20.0
1.20548856 1.29663813 0.72459573 20.0
-0.78710836 -0.49022412 1.00652289 20.0
-1.17213058 0.33275491 1.13532245 20.0
0.55776942 -1.50566149 -0.35842887 20.0
0.95501429 -0.83584458 0.77578169 20.0
1.38545334 0.58644211 -0.14427763 20.0
-1.29194713 -0.32156363 0.77467352 20.0
-0.75093091 0.58970368 -1.16122937 20.0
0.54756963 -1.44487655 0.34547457 20.0
-0.83785725 0.92302930 1.45154643 20.0
-1.41658723 1.08680665 0.16640230 20.0
0.97625524 1.42012453 0.93774611 20.0
-0.46014830 -1.01753175 0.72985125 20.0
-1.24525213 0.79246354 0.95983005 20.0
-1.28565586 -0.80415922 0.73758447 20.0
0.53190321 -1.39106107 0.48243016 20.0
-1.24552155 -1.15848684 0.59802204 20.0
-0.63870519 1.02627468 -1.13341951 20.0
-1.37848580 0.96664131 -0.82252783 20.0
-1.42641044 -0.42033160 0.34449542 20.0
-0.83920032 1.02951550 1.31493843 20.0
0.73445809 -0.95318431 -1.20340776 20.0
-1.34402907 -0.73037678 0.69943535 20.0
-1.29859769 -1.39262307 -0.71095246 20.0
1.23215401 1.08572531 0.85913432 20.0
1.35660517 0.40619111 -0.56399763 20.0
0.67932338 -0.80439752 -1.17085314 20.0
1.35192931 0.79214507 -0.82265002 20.0
-0.38141516 1.51515627 -0.78905302 20.0
0.70750725 0.76539314 1.63461292 20.0
-1.38243616 -1.05685842 -0.56399763 20.0
1.17774141 0.47423667 -1.10112202 20.0
-0.97460842 1.12577152 -1.34591138 20.0
0.93644249 -1.21896076 -1.22818887 20.0
0.61520654 0.84892184 -1.16484678 20.0
1.36860561 -1.09872878 0.03158101 20.0
-0.66865075 0.56215918 1.71952689 20.0
1.39956582 0.25446814 -0.14427763 20.0
-0.98302317 0.75203818 -1.62985206 20.0
0.44807115 0.63400090 1.70792866 20.0
-0.29096252 -1.51123989 0.15749760 20.0
-1.42245984 -0.82584184 -0.36638355 20.0
-0.90611768 -1.48106885 -0.35133669 20.0
-1.41813362 1.00488055 -0.36638355 20.0
-1.17067873 -1.44505942 -0.98287904 20.0
-0.61354506 0.56565899 1.72202873 20.0
0.08453474 -1.53850198 -1.04169905 20.0
0.77121443 1.34993160 0.97531396 20.0
-0.70752388 -0.60388720 -1.17257285 20.0
-1.32418060 0.93045419 -1.23390889 20.0
-0.46972719 1.30170047 1.02250755 20.0
0.80375135 -0.16739193 -1.17699087 20.0
0.12101486 0.74751824 -1.20188642 20.0
1.41476595 -0.73947674 -0.14427763 20.0
0.31160441 0.99689400 1.45117533 20.0
-0.57658827 -0.30911753 1.40277517 20.0
-0.54722941 1.30461335 -1.06977785 20.0
0.61081380 1.17424631 -1.11323214 20.0
1.30594361 1.00571704 0.69986033 20.0
-1.28192365 0.33297387 0.83230025 20.0
0.35840386 -0.61932153 -1.19859672 20.0
-1.42206025 0.86642212 -0.14427763 20.0
1.07897902 -1.19232547 -1.34623551 20.0
-1.41360915 0.00505338 -0.37442714 20.0
-0.11752651 -1.46290791 0.40863329 20.0
0.47447988 -0.66887122 0.84469467 20.0
0.12323827 1.25192380 -1.11580777 20.0
-0.90006948 1.52364087 0.84214145 20.0
-0.78710836 -0.49022412 1.00652289 20.0
1.40418530 -0.26011166 0.09758469 20.0
-0.91093779 -1.47512722 0.03357477 20.0
-0.83376485 -1.46977270 0.16284952 20.0
1.30641341 1.37603498 0.23529185 20.0
0.63667899 1.55178905 0.84711105 20.0
1.32284677 -1.30710959 0.16408330 20.0
-1.23088551 -1.27160287 0.49681360 20.0
1.39361370 -0.90549350 0.35160297 20.0
1.19584560 1.13430393 0.89008623 20.0
-1.38975823 0.17221369 -0.56399763 20.0
0.54492706 -1.49780393 -0.72193736 20.0
1.36282444 0.25536940 0.52337223 20.0
-1.39729357 -1.05611444 0.03158101 20.0
-1.08466089 -1.30535448 0.51038301 20.0
-0.98124897 -0.86677390 -1.72992170 20.0
-1.43453252 0.00620610 0.23128913 20.0
0.86585277 0.25418994 -1.15351868 20.0
-0.77742231 1.52518725 0.36842415 20.0
0.66551119 0.69389856 -1.16186321 20.0
0.94537234 -1.01786542 -1.80231178 20.0
1.39028454 -0.90665066 -0.36638355 20.0
-0.61833668 0.36723486 1.76211917 20.0
-1.03791046 1.25738609 0.93381780 20.0
0.95679462 0.68409747 -1.35720623 20.0
-0.37989542 -0.69798887 -1.19255686 20.0
-0.38565102 1.56257379 0.16084631 20.0
0.48551491 1.57206130 0.81530142 20.0
-0.59688699 -0.89478546 0.76645297 20.0
-0.13053524 -1.49945092 0.26485696 20.0
0.81355566 -0.72402674 -1.16999400 20.0
0.31146535 1.15384424 1.24471951 20.0
-0.67736095 -1.34676802 0.52680641 20.0
-0.88961327 1.19437301 -1.10058367 20.0
1.33362222 -1.01795721 -0.82252783 20.0
-0.89641565 1.52660728 -0.13126008 20.0
0.99844569 0.33194181 -1.14796793 20.0
-0.69651705 1.54007447 0.53241450 20.0
-1.36320090 0.83306092 -0.82252783 20.0
1.32373154 -1.28486919 -0.36638355 20.0
0.88101685 -0.59507936 -1.15974462 20.0
1.29400933 -1.13059938 0.56476456 20.0
-0.45597842 -1.51531291 -0.36177462 20.0
0.96281958 0.96664131 -1.78278840 20.0
-0.63718414 1.06496215 -1.12909138 20.0
-1.05365562 0.96791404 1.26502037 20.0
1.31722426 0.47384119 -0.82259977 20.0
0.57844698 -1.29652321 0.57756913 20.0
1.00387406 0.17221369 -1.14796793 20.0
-1.40678942 -0.98123342 -0.14427763 20.0
0.57278293 -0.72542590 0.82445121 20.0
-0.14435643 0.00497803 -1.21165776 20.0
1.41272950 -0.42039084 0.10406096 20.0
-0.85077566 -1.49164963 -1.08880627 20.0
-0.55717671 0.62846506 1.70391858 20.0
1.21276653 1.11017430 -1.36574984 20.0
-0.71727753 1.53305423 0.23781505 20.0
0.45403418 0.29282197 1.77040684 20.0
-1.39581358 0.47387901 -0.36638355 20.0
-0.33360806 0.93029642 1.53998470 20.0
1.10565436 1.12340641 -1.35955775 20.0
-0.88174838 0.47389895 -1.15352464 20.0
0.38986933 -1.23282838 0.62603956 20.0
1.19155335 -0.07749591 -1.11518013 20.0
0.44896105 0.57419658 1.72853076 20.0
-1.40842950 -0.98032027 0.16640230 20.0
-1.38920093 -1.09919488 -0.14427763 20.0
-0.83089668 0.83326900 -1.24185359 20.0
0.34314403 -1.24468350 -1.20253658 20.0
-1.40603352 1.13616323 0.12557176 20.0
1.41871130 -0.47325757 0.22237760 20.0
-0.55451107 1.38021386 0.98473585 20.0
1.23127675 -1.36584187 -1.00039387 20.0
-0.64887643 1.29329741 -1.06368589 20.0
-0.87920070 1.14957023 -1.16335547 20.0
1.41246891 0.00620610 0.16168551 20.0
-0.63802099 -0.80954558 -1.17593658 20.0
-1.28011692 0.96664131 -1.55599880 20.0
1.15814376 -1.44296682 -0.91130418 20.0
1.25863850 -0.88498074 0.70979565 20.0
-0.67885321 -1.48952448 -0.85835385 20.0
-0.53489786 -0.08011654 -1.19320691 20.0
0.85486108 1.12590671 -1.24641049 20.0
-0.53386343 -0.93469769 -1.20628750 20.0
0.45487320 0.84534478 1.61156321 20.0
0.44807115 0.63400090 1.70792866 20.0
0.66551119 0.69389856 -1.16186321 20.0
1.31963348 -0.41326433 0.65654910 20.0
0.54324651 1.01533842 1.39416277 20.0
0.67838651 -0.40371081 1.21646619 20.0
-1.31765950 -1.24349296 -0.82257396 20.0
-0.91551310 -0.48898718 1.00159037 20.0
0.64770693 -1.34713459 -1.16604102 20.0
1.39478898 -0.52539569 -0.58070821 20.0
-1.08752000 -0.04171149 1.31977618 20.0
1.23589790 -1.01790345 -1.56288934 20.0
-1.31202996 -1.38580954 0.03166877 20.0
1.31963348 -0.41326433 0.65654910 20.0
1.38145912 1.13534093 -0.14414172 20.0
-1.02876031 -0.45146871 1.07628191 20.0
0.77990192 -1.22389674 -1.17137969 20.0
-0.58728379 -1.42152321 -1.16751695 20.0
0.45491543 1.02432334 1.39842367 20.0
0.77861708 -0.71176195 0.82326645 20.0
-1.38341117 1.13490117 -0.56120020 20.0
-0.63939255 -0.48483518 -1.20578980 20.0
-1.13916409 -0.87760127 0.74773484 20.0
-1.40317178 -1.01676619 0.23573360 20.0
-0.87713408 -0.94488639 -1.54398346 20.0
1.36284983 -0.78565735 -0.82253069 20.0
-1.38151872 -0.59484023 -0.91067398 20.0
-1.41235638 -0.90665066 -0.36638355 20.0
-1.43605959 -0.47417226 -0.16304608 20.0
1.16673923 -0.35587150 1.09054577 20.0
-0.77999151 -1.34052324 0.52545530 20.0
0.80638117 0.08795135 -1.15756798 20.0
1.07653320 0.79276371 1.27857983 20.0
1.38878965 0.58735585 0.23573360 20.0
1.40642810 -0.34759581 0.13925749 20.0
1.39999747 -0.86649585 -0.14427763 20.0
-1.27266717 1.44514036 -0.13409045 20.0
-0.88284200 -0.86677390 -1.48780429 20.0
-1.25776124 1.04462194 0.87536627 20.0
-0.63939255 -0.48483518 -1.20578980 20.0
0.75195730 -1.37323177 0.48669234 20.0
1.12405849 1.48764849 0.03203239 20.0
0.45219919 0.78664279 1.64637172 20.0
1.42691505 -0.59404659 0.02901073 20.0
0.77866602 -1.48071671 -0.85539216 20.0
-0.70621759 -1.49760258 -0.14307597 20.0
1.03158379 0.96791404 1.26502037 20.0
0.73361707 1.19794929 1.08168495 20.0
-1.36610556 0.25418994 -0.71095169 20.0
0.70857888 -0.71622843 0.82365364 20.0
1.34076524 -1.24213183 0.16513166 20.0
0.08888052 -1.07522833 0.71710265 20.0
-0.61323059 0.70059347 1.67230451 20.0
0.64657891 0.56215918 1.71952689 20.0
-0.54477787 1.55312836 -0.48344794 20.0
-0.53378707 1.18466043 -1.11584818 20.0
1.29971075 1.37849271 -0.34403807 20.0
-0.94167340 1.09930515 1.17100441 20.0
0.73579693 -0.26356143 -1.18783247 20.0
-0.78196245 1.52745485 0.16796160 20.0
-1.42370260 -0.86558193 0.23573360 20.0
-0.59485483 -0.72542590 0.82445121 20.0
-0.37452060 1.14937556 -1.13591576 20.0
-0.58439249 -1.49979377 0.03016505 20.0
0.94746321 -1.25975776 -1.16455281 20.0
-0.37163615 0.49286357 -1.19228876 20.0
-1.37594974 -0.73979139 -0.90479785 20.0
0.49577716 1.56908023 0.68142039 20.0
-0.97398901 -0.87576890 0.76201159 20.0
-1.38258290 -0.94488639 -0.71095169 20.0
-1.22676373 -1.30931675 0.45919105 20.0
1.30045307 0.47493431 0.68812299 20.0
1.22813594 1.00484467 0.91111267 20.0
-1.27593422 1.43796623 0.16577649 20.0
-0.37635991 -0.86121809 -1.20171928 20.0
1.23700011 -0.76069158 -1.36523604 20.0
-1.40760493 -0.34874880 -0.41267377 20.0
0.49742410 -1.25846505 -1.18373322 20.0
1.39488673 -0.90641242 -0.14427763 20.0
-0.96011794 1.51197398 0.53052002 20.0
-0.89103031 -1.47403324 -0.71267200 20.0
1.36867392 -1.09828246 0.16628641 20.0
-0.61237943 0.62456185 1.70137525 20.0
-0.78291512 0.69030970 1.65892601 20.0
-1.32467282 0.66981846 -1.01875436 20.0
0.54250181 1.09374869 1.29274094 20.0
1.32928061 -1.28358722 0.03158101 20.0
-0.89592457 1.43210685 -0.85341591 20.0
0.31722620 -0.13001792 1.62271571 20.0
0.95421112 -0.79494578 0.79013616 20.0
-1.23007739 -1.24092007 0.52237922 20.0
0.10547209 1.50451374 0.98803502 20.0
-0.87920070 1.14957023 -1.16335547 20.0
0.08157213 -1.53884172 -1.09609282 20.0
1.31409669 0.89738363 -1.01209772 20.0
1.41398776 -0.47417226 -0.16304608 20.0
1.35080492 -1.19410539 -0.14427763 20.0
0.36357749 1.56068194 0.23272020 20.0
1.39142215 -0.94378448 0.12557176 20.0
0.23045337 -1.48024547 -1.17641783 20.0
-0.51266086 -1.40738046 -1.17689371 20.0
0.26953650 -1.50142419 0.19791451 20.0
1.41194081 0.08894623 0.23484471 20.0
0.70887053 0.96049398 1.43218291 20.0
-0.58625728 -1.47867179 0.20070866 20.0
1.06110704 -0.36412922 1.24395132 20.0
-1.34922945 -0.74164844 -1.01713765 20.0
-1.34158027 1.00484085 -1.01047051 20.0
-0.37722492 -0.82490391 -1.19685602 20.0
0.61151874 1.54759312 0.53212023 20.0
-0.74961632 -1.06566811 -1.20505059 20.0
-1.38061869 -1.14418364 0.34039420 20.0
-0.82404399 1.52534914 0.53299081 20.0
-0.39237961 -1.27698493 0.60160828 20.0
0.72624063 -0.25111198 1.47071731 20.0
-0.03253268 -1.54445243 -0.97746903 20.0
0.86372584 0.33194181 -1.15351868 20.0
-0.11150355 -1.53600180 -0.97206259 20.0
0.86657238 1.49239028 -0.64082259 20.0
-1.33616865 0.89738363 -1.01209772 20.0
1.31637359 -0.07413363 0.67694783 20.0
0.82209533 -1.31202734 0.54858583 20.0
1.36537850 -0.34878859 -0.61796039 20.0
0.68502969 -1.45289218 0.27128994 20.0
-1.07892489 0.17417344 1.36944509 20.0
-1.42446709 0.93164444 0.23573360 20.0
0.67694652 0.94435924 -1.14070332 20.0
0.71364319 1.51374078 0.96393454 20.0
0.17578973 -1.36348796 0.54992497 20.0
1.36550307 -0.90669042 -0.71095169 20.0
-0.62052405 1.08691680 1.29001629 20.0
-1.24128366 0.25518373 0.96489203 20.0
1.40501893 -0.82560343 -0.14427763 20.0
0.12461568 1.56803524 -0.50050342 20.0
1.11844683 1.47956169 0.36399150 20.0
1.40417135 -0.26046944 0.00147555 20.0
-0.74311137 -0.06193052 1.65657806 20.0
0.26774999 -1.48480427 0.26719341 20.0
0.78170443 -0.40015480 1.21378744 20.0
-0.53322053 -1.51103067 -1.09170592 20.0
1.07522225 -0.17597060 1.24775922 20.0
0.57278293 -0.72542590 0.82445121 20.0
-1.31980634 0.66236806 0.68833780 20.0
1.39028454 -0.90665066 -0.36638355 20.0
0.86707169 0.49247074 1.66803229 20.0
-0.58462459 -0.40894133 1.21926045 20.0
-0.69578272 -0.16959938 -1.18721700 20.0
-1.33065557 -1.34937274 -0.36638355 20.0
-0.82435709 1.15251207 -1.12294340 20.0
1.28658736 -1.36028039 0.28559709 20.0
1.08593726 -1.15214765 0.63539606 20.0
1.36399376 1.20767951 0.12557176 20.0
1.39727235 0.40729383 0.12557176 20.0
-1.08097613 -1.35071743 0.45451561 20.0
-0.52740008 0.66457099 -1.17767525 20.0
-1.22676373 -1.30931675 0.45919105 20.0
-1.33575392 -0.34105980 0.65750176 20.0
-0.41871002 -1.51622188 -1.03686047 20.0
-0.62748092 0.53914410 -1.17141378 20.0
1.11377633 1.44931221 -0.69375718 20.0
-1.39074588 -1.09828246 0.16628641 20.0
0.76363200 -1.40782189 0.42034706 20.0
1.36284983 -0.78565735 -0.82253069 20.0
0.70778638 0.92750752 1.47724593 20.0
1.38109720 -1.01685584 0.12557176 20.0
-0.14430210 0.93994552 -1.18556345 20.0
-1.38528764 -0.26121488 -0.61751467 20.0
-1.39427769 0.66132081 -0.56399763 20.0
-1.18770766 -0.72797006 -1.22116423 20.0
0.84991640 -0.40015480 1.20911396 20.0
-1.37124431 1.00484085 -0.82252783 20.0
-0.83562762 -0.72402674 -1.16999400 20.0
1.22813594 1.00484467 0.91111267 20.0
0.73592108 0.25633004 -1.16131163 20.0
0.84258449 -1.09681118 -1.46207368 20.0
1.21597075 0.73531693 0.96207362 20.0
1.31533301 -1.28512585 -0.56399763 20.0
1.36040735 0.58616400 -0.56399763 20.0
0.61365706 -0.35552946 1.31975448 20.0
1.26719856 1.37816715 0.50479048 20.0
-1.33162737 0.33194181 -0.90506524 20.0
-0.33447707 0.89603961 1.58084607 20.0
-0.83167124 0.79454541 -1.23897338 20.0
-0.50274485 -0.46231648 1.10734069 20.0
-1.36031282 -1.19438279 -0.56399763 20.0
-0.96436483 -0.98706365 0.72558105 20.0
1.19673324 -0.54051781 0.86554146 20.0
1.30858362 -1.34937274 -0.36638355 20.0
0.82269663 1.26964617 -1.05225456 20.0
-1.32178247 1.37849271 -0.34403807 20.0
1.32715762 -0.74164844 -1.01713765 20.0
0.11393293 -0.47001857 1.11331272 20.0
1.40368998 0.86733508 0.16640230 20.0
-0.75248200 1.26321006 1.01229072 20.0
-1.15592575 -0.46406108 1.02156746 20.0
0.01568841 -1.54872489 -0.58657795 20.0
0.23045337 -1.48024547 -1.17641783 20.0
-1.36610556 0.25418994 -0.71095169 20.0
1.31457937 -0.34878859 -0.94882089 20.0
-1.21034348 0.96525669 1.01827180 20.0
0.47044063 -0.81953192 0.79544359 20.0
1.00067055 -0.26121488 -1.17405844 20.0
-0.03949472 -1.50949037 0.26245692 20.0
0.71087396 0.86334795 1.56220472 20.0
1.41840887 -0.59475231 -0.37032422 20.0
0.35920745 1.52882266 -0.72388786 20.0
1.30943477 -0.66935384 0.71687555 20.0
-1.26269138 -1.03518403 0.66068852 20.0
-0.83190066 -0.79431516 -1.22107160 20.0
-0.63375294 -0.30711931 1.40104795 20.0
1.39814472 -0.67474002 0.49698675 20.0
0.81622052 0.99150252 1.36298048 20.0
-1.41060901 0.86618394 -0.36638355 20.0
-0.67033827 1.20839334 1.08557224 20.0
1.36768615 0.17221369 -0.56399763 20.0
-0.70919573 1.52337945 -0.57756037 20.0
0.54842550 -0.00420601 1.69666350 20.0
0.50412244 -1.45659530 -1.16429698 20.0
-0.55218679 -1.42790031 0.40870017 20.0
-1.21277106 1.26301622 -1.00734532 20.0
1.32592928 -0.26121488 -0.86844093 20.0
-0.98338759 1.50456262 0.36745822 20.0
-1.11347663 1.26958942 0.88132477 20.0
-1.04119635 -0.52557838 -1.16954887 20.0
1.31536555 -1.14567375 -0.82253069 20.0
0.84991640 -0.40015480 1.20911396 20.0
1.31949818 0.40619111 -0.82260084 20.0
-0.61745930 -1.22156191 -1.18156219 20.0
-1.43198538 -0.52535588 -0.38017595 20.0
1.39450669 1.08680642 0.23573360 20.0
-0.34464234 1.57375216 0.93179625 20.0
0.86989278 0.08775385 -1.15467691 20.0
0.81712842 1.02951550 1.31493843 20.0
-0.56345737 0.97856086 1.44012630 20.0
-0.37722492 -0.82490391 -1.19685602 20.0
-0.78353703 1.10893559 1.21903467 20.0
-0.12887056 0.96911800 1.50308061 20.0
-1.41421509 0.40646929 -0.14427763 20.0
-0.75929320 1.53262031 0.53270626 20.0
-0.72006249 -1.40451074 -1.15973461 20.0
-0.13984360 1.58398449 0.68173087 20.0
1.11751390 0.92907304 1.17535603 20.0
-0.45860192 -1.51674950 -0.14733912 20.0
-0.47228169 1.23469925 1.09397316 20.0
-0.70290554 -0.48173091 -1.20062363 20.0
-1.31000090 -1.39470339 -0.14427985 20.0
0.66385543 -1.32175648 0.55140799 20.0
-0.66631240 1.46058536 0.97865093 20.0
1.31484127 0.79309094 0.68819994 20.0
0.68083358 -0.48173091 -1.20062363 20.0
-0.72884935 -1.07700396 0.69925302 20.0
0.87501782 -0.19135308 1.51666415 20.0
1.29307020 -0.94488639 -1.23348427 20.0
-0.97884911 1.50717437 -0.46551082 20.0
-1.34158027 1.00484085 -1.01047051 20.0
-0.38356507 1.31717825 -1.07958651 20.0
1.38653743 1.04453981 -0.36638355 20.0
1.41871548 -0.47334722 0.11091553 20.0
-0.63372397 0.17573839 -1.17141378 20.0
