-0.50416815 0.92345142 1.29214513 45.0
1.35545790 -0.29420325 0.25544390 45.0
0.74450892 0.87134939 -0.99756521 45.0
-1.30590224 0.82639766 -1.33017564 45.0
0.31246835 -0.84985036 -0.98143405 45.0
1.32945061 -0.37001172 -0.56975430 45.0
-0.21421427 -1.68389022 -0.13469282 45.0
1.27547002 -1.41754055 -0.68086928 45.0
-1.35451615 -1.31343329 0.03402564 45.0
-1.38689744 -1.05113220 -0.32344428 45.0
0.04904214 0.94615084 1.31588531 45.0
-1.37125599 -0.05806132 -0.57074773 45.0
-0.89064229 -0.29810342 -0.97726542 45.0
1.39574921 0.47930869 -0.29187813 45.0
-1.24669480 0.47010514 1.65424931 45.0
-0.35774297 -1.69230294 -0.26968452 45.0
0.63091612 0.78128594 1.54066229 45.0
0.17943978 0.98336816 1.22455013 45.0
-0.07559562 1.24914002 0.41280946 45.0
-0.74185538 1.38776863 -0.32476240 45.0
1.37612832 1.16471827 -0.77749521 45.0
0.97412831 -1.63321984 -0.34617198 45.0
0.53232646 -1.09613931 -0.99222338 45.0
-0.98939109 -1.28392386 0.72342372 45.0
-1.35467744 -0.68024415 0.68927878 45.0
1.34704340 0.86806685 0.88007623 45.0
-1.25375998 1.29186237 -0.20038758 45.0
-0.09651677 -1.38761866 -0.95226115 45.0
0.05883078 0.28860006 2.21054339 45.0
0.58164555 1.37944460 -0.87922972 45.0
-1.27351451 -1.16749203 -1.16092038 45.0
-1.44616771 1.02096772 0.16484648 45.0
1.29527915 0.92248774 0.93441260 45.0
1.14074254 -0.27391911 1.70995951 45.0
1.38661397 0.35414466 0.42523843 45.0
-0.50231570 -1.48835039 0.39636672 45.0
0.68766111 -1.45617211 -0.94149327 45.0
-1.02514088 0.92225033 -1.36758733 45.0
-1.19061923 -0.62957370 -0.95487899 45.0
-1.42493987 0.40381485 0.26514524 45.0
1.41382909 0.73814148 0.58228761 45.0
0.83624774 1.37904847 -0.64584076 45.0
-0.78115153 -1.25417936 -0.96978217 45.0
1.31640542 -0.90215909 0.74388307 45.0
-1.06259537 -1.47190726 0.26274726 45.0
0.47112131 0.87945998 1.38198411 45.0
-1.25333536 -0.29086661 1.37779295 45.0
-0.98252058 -0.55782783 1.57781208 45.0
-0.64306152 -1.67056417 -0.65171486 45.0
-1.12462485 0.85526288 -1.13327551 45.0
0.42645708 0.78831208 -0.99368161 45.0
-1.39538538 -0.89800197 -0.54241335 45.0
1.28599536 0.11588216 -0.84007084 45.0
0.16843803 1.24169385 0.41246825 45.0
0.97935736 -1.10082996 0.93283784 45.0
0.29827514 1.42531323 -0.37556833 45.0
0.70859975 -1.01398468 0.97259158 45.0
1.15433931 -0.80278927 1.00227571 45.0
-0.56627476 -0.46987772 1.82049406 45.0
1.42120445 0.60882741 0.42585203 45.0
1.30914211 -1.35857153 -0.30788273 45.0
-1.20868134 0.45912731 -0.95974964 45.0
1.39146078 -0.82594645 0.41632822 45.0
0.31377780 1.05371368 1.05346727 45.0
0.17997028 0.89564115 1.40026486 45.0
0.92893547 0.72371393 1.55682600 45.0
-0.13111109 1.15671742 -0.95729989 45.0
1.14931870 -0.83779407 -1.22212827 45.0
0.06010216 -0.75659412 1.35341072 45.0
-1.36576617 0.56338084 -0.82717252 45.0
1.13007092 -0.67067987 1.23730528 45.0
0.95554227 1.05185688 0.88488901 45.0
1.03900313 -1.54182231 -0.81822234 45.0
1.00368702 0.48989162 -0.97693276 45.0
-1.10015917 -1.33961987 0.55538434 45.0
0.19434077 -1.65108800 -0.75003964 45.0
-0.74660289 1.35539556 -0.12001625 45.0
1.37450600 -0.93681842 0.55366659 45.0
1.02650404 0.44289351 -0.97843504 45.0
-1.02201545 -1.54448020 0.07833119 45.0
-0.23433943 -0.31183547 2.03967357 45.0
1.00000322 -0.22129804 -0.97762018 45.0
1.33264983 -1.26879656 0.21335098 45.0
1.00042343 0.03165849 -0.97792858 45.0
-1.42363870 0.55956078 -0.55456245 45.0
0.43001902 1.10992515 -0.96632779 45.0
0.38326505 -0.05422222 -0.97790658 45.0
-1.25244200 0.03213768 1.50401580 45.0
0.74648052 -1.04906356 -1.02016604 45.0
1.33397198 1.21559632 -0.02058549 45.0
-1.37684834 -1.17334902 0.01101462 45.0
0.17284611 1.18812311 0.60414279 45.0
1.16595268 0.73649418 1.38444376 45.0
0.53838861 0.10216742 2.22023320 45.0
0.71294898 1.38967252 -0.43127719 45.0
1.35893571 -0.14144762 -0.09882215 45.0
-0.76645285 -1.66383445 -0.58223706 45.0
0.05826673 -1.27143681 0.81106597 45.0
-1.38941634 0.28324980 -0.57273811 45.0
0.18433288 0.71333212 1.73552227 45.0
0.67985046 -1.51796186 -0.90161186 45.0
1.38383007 -0.89800197 0.42436689 45.0
0.79567045 0.94846898 1.16218805 45.0
0.73336279 0.67594159 -0.97822732 45.0
0.04452781 1.44585919 -0.37556833 45.0
1.00011981 -0.05671624 -0.97790658 45.0
1.11440432 -1.09795165 -1.33857083 45.0
1.14931870 -0.83779407 -1.22212827 45.0
0.47357267 0.78862840 1.55831063 45.0
-0.09130637 -0.87721270 1.03825235 45.0
0.09110197 -0.81078100 -0.97435260 45.0
-1.37920427 0.02872569 0.62126410 45.0
-0.37692526 0.60823143 1.88277578 45.0
-1.39771104 0.28243506 0.61684817 45.0
-0.74775904 1.34610605 -0.91391397 45.0
-0.76228303 0.37075537 -0.98102808 45.0
-1.44870543 0.86484849 0.08603418 45.0
0.23220754 -1.38089120 -0.95226115 45.0
1.13708639 0.70389855 -1.28203905 45.0
1.39262879 1.06194532 -0.62630135 45.0
-0.70736748 -0.23299566 2.06982827 45.0
1.21909273 -1.35570037 0.38730273 45.0
0.37203416 0.36889306 2.15438461 45.0
-0.98289251 0.93920481 1.12788403 45.0
-0.60128230 1.35164249 -0.05134086 45.0
-0.88501650 -1.62564456 -0.14589661 45.0
-0.08948759 -0.57752222 1.68365824 45.0
-1.39501655 0.11528169 0.42299277 45.0
-1.14694202 1.05220294 -1.04483938 45.0
0.72342116 0.21071018 -0.97831970 45.0
-0.21038370 0.84958965 1.49008155 45.0
-0.93619543 -0.81752133 -1.01406384 45.0
-0.83373195 0.63640440 1.75507617 45.0
-1.06122077 1.02653456 -0.99403071 45.0
0.31377780 1.05371368 1.05346727 45.0
1.38989115 0.65205860 0.84548885 45.0
-1.39967954 0.19981013 -0.09433217 45.0
-1.39952040 -0.86036682 -0.54065013 45.0
1.13512933 -0.90500331 -1.34265149 45.0
-1.17994261 -0.83779407 -1.22212827 45.0
0.38244972 -0.79200351 1.23818767 45.0
0.16280331 1.36777282 0.02830083 45.0
-1.42115152 0.86456126 0.72863269 45.0
0.17284611 1.18812311 0.60414279 45.0
0.09377835 0.64421558 -0.97457057 45.0
-0.08065581 -1.71278071 -0.26968452 45.0
-0.28241044 0.59661716 -0.97517413 45.0
1.41921031 0.82410401 0.08600416 45.0
1.35446060 -1.12908304 0.35865009 45.0
0.85919344 -1.34247375 -0.95226115 45.0
1.22271144 -0.29086661 1.37779295 45.0
0.47409180 -1.63269818 -0.02180365 45.0
1.41976213 0.73821944 0.26443675 45.0
0.55483234 -0.78669590 1.22829747 45.0
-1.20898080 -0.92723113 0.86346143 45.0
-1.42481649 0.98227406 -0.52488112 45.0
-1.43410623 0.47928309 0.08580763 45.0
1.38581026 -0.75301373 0.36719784 45.0
1.14013731 -0.36967450 -0.95879471 45.0
1.10829532 1.33069754 -0.73378414 45.0
0.04958326 -1.66472769 -0.02113844 45.0
-0.53218210 -1.62732732 -0.75003964 45.0
0.21209155 -1.11754251 0.93512976 45.0
0.12962115 0.79330784 -0.99368161 45.0
-1.01153815 -0.94168222 0.95245773 45.0
1.01948178 0.96996582 -1.22797048 45.0
-0.81666672 0.77407485 1.51348519 45.0
1.24289072 -1.16749203 -1.16092038 45.0
1.34103346 0.02881571 -0.57079089 45.0
-1.22880507 -1.09354961 0.83120340 45.0
-1.15905476 1.07243991 -1.05423641 45.0
1.38789988 -0.86036682 0.42540401 45.0
1.29721117 -1.12972188 0.64788967 45.0
-0.20638399 1.32762575 -0.94479245 45.0
0.04785845 1.14843571 0.80861330 45.0
0.09377835 0.64421558 -0.97457057 45.0
1.31678116 -1.35857153 0.09085530 45.0
0.67618912 0.56170666 1.90804434 45.0
-0.12177189 -0.90735024 -0.98639578 45.0
1.38581026 -0.75301373 0.36719784 45.0
1.11463356 -1.13593912 -1.28076756 45.0
0.74849403 -1.00942922 -1.02128255 45.0
-0.72841561 0.49925223 -0.97693276 45.0
1.02999687 0.68204772 -1.14051557 45.0
1.26054001 -1.01593566 0.78843987 45.0
-1.40611947 0.35334423 0.61426151 45.0
-1.32844818 -1.16954625 -1.02382660 45.0
0.05018640 0.71792275 1.74098134 45.0
0.85919344 -1.34247375 -0.95226115 45.0
-0.97214901 0.26965314 2.10469699 45.0
-0.88692904 -0.44273412 -0.97595692 45.0
1.35115683 -0.79390639 0.65003228 45.0
1.37959075 0.55732477 0.89123780 45.0
1.36008584 -0.93670994 -0.54443401 45.0
-0.96194059 0.67982197 1.63513529 45.0
-0.49121010 1.30466950 -0.94479245 45.0
-1.30016875 1.22800553 0.05950046 45.0
1.33605039 -1.22068226 0.37209597 45.0
0.62634271 1.03471518 1.02526927 45.0
-1.44344890 0.55847055 -0.09380087 45.0
-0.22496466 -1.65108800 -0.75003964 45.0
1.13340807 -1.27721596 -0.94494522 45.0
0.18249448 -1.65651083 -0.02113844 45.0
0.70875853 1.38058650 -0.82571614 45.0
1.36008584 -0.93670994 -0.54443401 45.0
0.61959434 -1.62094676 -0.02446468 45.0
0.69104135 0.01059072 2.18995523 45.0
0.94926757 -0.84942156 -1.15402043 45.0
1.03187716 1.07159281 -1.07408786 45.0
-1.05544579 0.98728877 -0.99737757 45.0
0.83666241 1.37531042 -0.32476240 45.0
-0.95993859 -1.38778508 0.52200818 45.0
0.71529698 -0.85590655 1.02619028 45.0
-0.09136106 -0.22513220 -0.97762018 45.0
0.71958852 1.34014738 -0.05169661 45.0
-1.44594693 0.94334078 0.08609784 45.0
1.32405353 -0.68024415 0.68927878 45.0
-1.20902812 0.40897429 -0.96212935 45.0
-0.41017684 -0.98859948 0.95841837 45.0
-1.37143934 -0.82608724 -1.02863085 45.0
1.22181809 0.03213768 1.50401580 45.0
-1.04691899 0.86319745 -1.02470505 45.0
-0.87783247 -1.65276158 -0.58223706 45.0
0.53232646 -1.09613931 -0.99222338 45.0
-0.07411694 1.34753811 0.12862912 45.0
-0.86284959 0.35692358 2.09900951 45.0
0.74261367 -1.65943956 -0.31405553 45.0
1.15999532 -0.62957370 -0.95487899 45.0
0.04976887 -1.72047734 -0.41480064 45.0
-0.45773178 0.74414635 -0.98810756 45.0
-0.50154215 0.96581119 1.20626926 45.0
-1.12843549 0.93807620 -1.10889781 45.0
-1.38033330 -0.48022500 0.39035729 45.0
1.33567762 -0.29420325 -0.56981558 45.0
0.04976887 -1.72047734 -0.41480064 45.0
-1.39886260 1.21249402 -0.57449079 45.0
1.37288475 -0.69516796 0.34511104 45.0
-0.35487923 0.75217599 1.64948165 45.0
1.23590040 -1.50299692 -0.23364955 45.0
-0.24518092 -0.75325865 1.34795129 45.0
1.29520762 -0.37349182 0.90766543 45.0
-1.28975630 0.62705356 1.44460130 45.0
0.53671187 0.43731079 2.09015441 45.0
0.18248038 -1.71248555 -0.49717376 45.0
1.35492468 -0.29420325 0.07075991 45.0
-1.37052739 0.65543437 1.15635216 45.0
-0.88366628 -1.64489114 -0.27152932 45.0
0.13270073 1.08737540 -0.97296500 45.0
1.28065050 0.84237212 1.05668437 45.0
1.34904981 -0.60419393 0.49356386 45.0
-0.90430117 0.46825537 -0.97758687 45.0
-0.94200009 -0.30490193 1.93928695 45.0
0.05018640 0.71792275 1.74098134 45.0
-0.53669745 0.60220850 1.87222612 45.0
1.39977884 0.51186156 0.60330772 45.0
1.35119808 0.90741396 0.83994764 45.0
0.06219439 0.38575748 -0.98102808 45.0
0.05346973 -1.65927577 -0.75003964 45.0
0.93007940 -0.95645803 -1.27251482 45.0
0.20074634 -1.60528231 -0.82279795 45.0
-0.36827800 1.14976823 -0.95729989 45.0
-1.32297516 0.20061252 -0.84046149 45.0
0.05920403 0.55365235 -0.97617143 45.0
-0.64438558 1.29322970 -0.94479245 45.0
-1.38989508 -1.08934128 0.05382098 45.0
1.30812967 1.25036728 -0.69830638 45.0
0.86714655 -1.59969199 -0.04283819 45.0
1.41193974 1.06221128 -0.27515361 45.0
1.03756928 0.51465315 1.83654428 45.0
-0.90332234 1.30864370 0.02794503 45.0
1.41189218 0.98187482 0.50440192 45.0
1.41448784 0.60868269 0.59802866 45.0
-1.42363870 0.55956078 -0.55456245 45.0
-0.46100777 1.00518811 -0.97432172 45.0
-1.02347374 0.88210398 -1.39763880 45.0
-1.13012552 0.72346157 -1.08296990 45.0
0.05654535 -0.31278527 2.04513311 45.0
1.37129271 0.19979240 0.26410487 45.0
-0.91553497 0.44712040 -0.97843504 45.0
0.04607164 1.36990237 -0.93450838 45.0
1.32886469 1.11209404 -0.86626732 45.0
-1.03470814 -0.91113693 -1.33102119 45.0
0.82713521 -1.44624043 -0.94146073 45.0
0.82463491 0.00943776 2.16277838 45.0
-0.23090675 0.57849890 1.94397378 45.0
1.40694284 0.98227406 -0.29230726 45.0
1.31794953 -1.31343329 -0.26799697 45.0
1.37546027 -0.89800197 -0.31380406 45.0
1.01282990 0.67598188 -1.19716692 45.0
-0.45725936 0.87911946 -0.99756521 45.0
-0.97086549 0.50246477 1.91554797 45.0
-1.36029530 -1.26881146 -0.07212357 45.0
0.04410896 1.44315612 -0.29206982 45.0
1.30992603 -1.26758564 -0.61521262 45.0
1.12605929 0.95325971 -1.33248889 45.0
-1.42117417 0.82371074 0.74988246 45.0
-1.20674348 -1.26647556 0.61786789 45.0
-1.32590306 0.92248774 0.93441260 45.0
0.06078436 -0.83721417 1.14567006 45.0
0.48208088 1.17687845 -0.95454818 45.0
-1.01411712 -1.02219093 0.96163046 45.0
0.80761337 -0.23223387 2.04265118 45.0
1.16198683 1.28842175 -0.89561176 45.0
-1.35213315 -1.31343329 -0.11532751 45.0
-0.50032419 -1.57543695 0.16519803 45.0
-1.44972456 0.73821759 0.08594521 45.0
0.04594329 1.42430317 -0.87922972 45.0
0.70875853 1.38058650 -0.82571614 45.0
1.06078339 1.17306626 0.42097333 45.0
-1.20032716 1.12346971 -0.94884455 45.0
-1.37389135 -0.93670994 -0.81716770 45.0
-1.04479647 -0.61996543 -0.97327566 45.0
0.67618912 0.56170666 1.90804434 45.0
-0.96586710 0.09641460 2.13812709 45.0
0.36284870 -0.15665579 2.15007973 45.0
0.84720844 -1.65276158 -0.58223706 45.0
0.87526584 -1.22281671 -1.02610552 45.0
-1.29150975 -1.35799718 0.31773338 45.0
-1.31375790 0.74030614 -1.27672863 45.0
0.85338616 0.49446172 -0.97693276 45.0
0.30322990 -1.14380324 -0.98827130 45.0
1.37473679 0.94334078 -0.79892975 45.0
0.95835102 1.35268748 -0.82681137 45.0
1.28313398 0.74030614 -1.27672863 45.0
1.16362572 1.24796951 0.10624176 45.0
-0.84891307 -0.07593305 2.13502264 45.0
-1.33918285 -0.79740709 -1.00884950 45.0
-1.38149834 -0.97526270 0.64200127 45.0
0.20661420 0.51454151 -0.97693276 45.0
0.87834883 1.28134763 0.12943316 45.0
-1.44913709 0.65250713 -0.09362660 45.0
0.85596794 -0.37126592 -0.97671926 45.0
-1.33755744 0.35599765 -0.84317070 45.0
1.36869943 0.51099169 0.90935820 45.0
-0.74160290 1.38587284 -0.29210445 45.0
0.29571158 1.28549170 0.25516450 45.0
-0.11741660 -1.30336201 -0.95792878 45.0
0.21719329 0.12968411 -0.97792858 45.0
1.41878963 0.86485070 0.26644599 45.0
-1.25375998 1.29186237 -0.20038758 45.0
-1.18954265 0.20289671 -0.96047151 45.0
0.44840115 1.40454292 -0.82558066 45.0
1.37283945 -0.78824109 -0.54597539 45.0
-0.55930322 -0.38595489 1.93586278 45.0
-0.20324744 1.43666148 -0.74722236 45.0
-0.09281830 0.38575748 -0.98102808 45.0
-0.23433943 -0.31183547 2.03967357 45.0
-1.40871453 0.82410401 -0.80891836 45.0
1.33567762 -0.29420325 -0.56981558 45.0
-0.40033725 0.44198853 2.10070372 45.0
1.03187716 1.07159281 -1.07408786 45.0
-1.31127441 0.84237212 1.05668437 45.0
-1.44760752 0.73821759 -0.09343246 45.0
-0.33631682 1.40403700 -0.87922972 45.0
-0.57006532 -0.93549162 -0.99229580 45.0
0.68491119 0.53475738 1.94889021 45.0
0.07700621 -1.34221673 -0.95441002 45.0
0.27399504 1.18700480 -0.95454818 45.0
-1.31375790 0.74030614 -1.27672863 45.0
-1.44710481 0.90431440 0.08606528 45.0
-1.18859422 0.21962774 1.84537375 45.0
-1.40175998 0.19973923 0.42300782 45.0
-1.24929214 -1.50080109 -0.02866850 45.0
1.30693364 0.35599765 -0.84317070 45.0
-0.36688998 0.65515924 1.81045127 45.0
1.00834441 1.31541622 -0.06088919 45.0
-0.11741660 -1.30336201 -0.95792878 45.0
-0.07688858 1.43754935 -0.82558066 45.0
0.38860470 0.30388290 -0.97988439 45.0
-0.34440172 1.05371368 1.05346727 45.0
-0.58455861 -0.30064094 -0.97726542 45.0
0.43737626 1.41267860 -0.37556833 45.0
0.85205376 -1.63826191 -0.21605326 45.0
-0.56288987 0.51826465 1.99765420 45.0
1.37411332 -0.97526270 0.05936990 45.0
-0.12001179 -1.22484982 -0.97487539 45.0
-1.42940271 0.82410401 -0.51914757 45.0
1.14074254 -0.27391911 1.70995951 45.0
0.53527409 0.01176467 2.20760369 45.0
0.71791822 0.03416687 -0.97792858 45.0
-0.56503999 0.48784202 2.03676867 45.0
-1.18954265 0.20289671 -0.96047151 45.0
-1.24560201 1.10154581 0.57989013 45.0
0.43459353 1.41003215 -0.29206982 45.0
-1.34819508 0.51514035 -0.83432925 45.0
0.96891838 -1.62762177 -0.26307660 45.0
-0.58139873 -0.82857901 -0.97871083 45.0
-1.34819508 0.51514035 -0.83432925 45.0
-0.98831981 0.97858971 1.05120301 45.0
-1.38382387 -0.29420325 -0.10775978 45.0
0.98536777 -1.17854452 -1.20790017 45.0
-0.91855723 1.23994100 0.25918466 45.0
1.23305166 1.29100549 -0.29416555 45.0
-1.30914497 1.21547103 -0.90385950 45.0
-0.55741000 -0.15648933 2.13953018 45.0
0.18097539 0.80336225 1.57659161 45.0
-0.24091451 0.19738346 2.23171496 45.0
1.25747383 0.35496110 1.42878222 45.0
-1.04691899 0.86319745 -1.02470505 45.0
-1.43756688 0.98227406 -0.29230726 45.0
0.31377780 1.05371368 1.05346727 45.0
-1.26080227 1.25249279 -0.90180886 45.0
1.24474025 -1.05330169 -1.30071247 45.0
-0.07473287 1.44315612 -0.29206982 45.0
1.38978434 0.73778576 0.79579008 45.0
-1.43004739 0.51294678 -0.29091769 45.0
0.69779170 0.49925223 -0.97693276 45.0
-0.87285352 -0.56146145 1.61509275 45.0
1.31807375 1.05915117 -0.98968148 45.0
-0.90229821 -1.12012255 -1.10117042 45.0
0.80429822 -1.30754244 -0.95599979 45.0
0.44270736 1.22008550 0.41132569 45.0
-1.43936348 1.11172974 -0.40128019 45.0
-0.50174516 0.87945998 1.38198411 45.0
0.18097539 0.80336225 1.57659161 45.0
-0.64438558 1.29322970 -0.94479245 45.0
0.05929331 -1.12284672 0.93512976 45.0
0.16808216 1.43862438 -0.43127719 45.0
-1.43317175 1.11146367 -0.54647785 45.0
-1.42325270 1.06194532 -0.62630135 45.0
1.34063220 -0.05806132 -0.57074773 45.0
0.58237046 1.26279211 0.25516450 45.0
-0.33407438 -1.18325973 -0.98153389 45.0
-1.03850806 -1.58036721 -0.75395781 45.0
1.21909273 -1.35570037 0.38730273 45.0
1.19230890 -1.49825442 0.02608082 45.0
0.69704455 0.36082959 2.12618613 45.0
0.20371550 -0.31183547 2.03967357 45.0
-1.30260491 -0.45317370 -0.83821046 45.0
-0.89777046 -1.59969199 -0.04283819 45.0
1.33348608 -1.01334655 -0.82047296 45.0
0.94370276 0.61612236 -0.99366683 45.0
-0.88218910 -1.01159334 0.98156142 45.0
-1.38989508 -1.08934128 0.05382098 45.0
-0.07970881 0.80843937 1.58205104 45.0
1.13708639 0.70389855 -1.28203905 45.0
-1.43928969 1.11168981 0.05875082 45.0
0.96738756 -1.37964642 -0.95025533 45.0
-1.01823831 -1.20731628 -1.13951230 45.0
-1.32488477 1.24987793 -0.81156033 45.0
1.13007092 -0.67067987 1.23730528 45.0
1.30058837 0.02836559 0.99854386 45.0
-1.38941634 0.28324980 -0.57273811 45.0
-1.33313119 -1.08998549 0.67923999 45.0
-1.06026757 0.46406206 1.90618134 45.0
-1.44608319 0.55841815 0.26440772 45.0
0.97412831 -1.63321984 -0.34617198 45.0
-1.39932323 0.51099169 0.90935820 45.0
1.03763044 1.06171370 -0.98733866 45.0
1.32405353 -0.68024415 0.68927878 45.0
0.21181941 0.54994476 -0.97617143 45.0
-0.40765780 -1.06818748 0.95195556 45.0
-1.40175486 1.21249402 -0.33818722 45.0
-0.39479333 -0.38799331 1.94641244 45.0
-1.31272006 -0.22005399 -0.83921456 45.0
-0.62206918 1.20931709 0.41022265 45.0
-1.25412536 0.49629971 1.62343836 45.0
-1.38554859 -0.29420325 0.07075991 45.0
-1.44297457 1.02056861 0.39836717 45.0
-0.99352825 -1.60819733 -0.14200634 45.0
-0.56491995 -1.24045110 -0.96917111 45.0
0.55598748 -0.22326449 -0.97762018 45.0
0.55396008 -0.90194649 0.97254157 45.0
-1.32973719 -0.29465336 0.93989456 45.0
-0.11741660 -1.30336201 -0.95792878 45.0
1.09400105 0.85526288 -1.13327551 45.0
-1.05010569 0.96996582 -1.22797048 45.0
-0.77448982 -1.64918756 -0.21232329 45.0
-0.56805313 -1.24762309 0.81385601 45.0
1.19552040 0.86629325 1.12121582 45.0
-0.74152792 1.38016701 -0.24814381 45.0
1.39751816 1.16604865 -0.09484831 45.0
-1.13918734 1.01730311 -1.06992209 45.0
0.37703386 -1.06818748 0.95195556 45.0
1.42141974 0.60886669 0.26464170 45.0
1.19818115 -1.09354961 0.83120340 45.0
-0.35255617 0.93209499 1.30269480 45.0
-0.50471568 -1.63269818 -0.02180365 45.0
1.28378952 -1.22106171 0.54467100 45.0
-0.19342722 1.36777282 0.02830083 45.0
-0.35278019 0.79617208 1.56886029 45.0
-0.08065581 -1.71278071 -0.26968452 45.0
1.41561937 1.02096772 0.29505250 45.0
-0.77482611 0.78123713 -0.99368161 45.0
1.12545407 1.22485459 -0.94313258 45.0
0.04626466 1.43754935 -0.82558066 45.0
1.29188943 1.02172589 -1.14311504 45.0
-0.96036965 0.00819472 2.12549758 45.0
1.35446060 -1.12908304 0.35865009 45.0
0.36876985 0.01297081 2.21815324 45.0
1.06953526 -1.33961987 0.55538434 45.0
-0.08901836 0.10727173 2.24397349 45.0
-1.38931620 0.45098829 0.92822707 45.0
-1.44626737 0.98227406 0.38661492 45.0
0.16428535 1.42863369 -0.24797063 45.0
0.18343256 -1.71038508 -0.35569364 45.0
-0.41247886 -0.90819430 0.97232908 45.0
0.92251325 -0.07644687 2.09774184 45.0
-1.40981460 0.35482499 -0.29532251 45.0
-0.52167052 1.26740050 -0.94897336 45.0
-0.42242965 0.46108687 -0.97843504 45.0
-1.45082176 0.78180349 0.26512626 45.0
1.18918180 -1.17501569 0.75460315 45.0
1.23327851 1.29111826 -0.33350238 45.0
-0.10164273 -0.63332576 -0.97327566 45.0
-0.12019003 -1.25498307 -0.96917111 45.0
1.29960465 0.28425151 -0.84202367 45.0
1.41953421 0.69447023 0.26449439 45.0
-0.74775904 1.34610605 -0.91391397 45.0
-1.16575325 -0.90500331 -1.34265149 45.0
-0.75117016 0.47284681 -0.97758687 45.0
-1.43317175 1.11146367 -0.54647785 45.0
-0.73686332 -1.05330372 0.96590686 45.0
0.85591263 -0.89311248 0.97327048 45.0
0.18248038 -1.71248555 -0.49717376 45.0
-1.03896844 1.31541622 -0.06088919 45.0
0.66710991 0.65783119 -0.97545582 45.0
1.31500399 -0.93712336 0.73734528 45.0
0.77914566 -0.61903089 -0.97327566 45.0
-0.96364290 -0.46181798 1.73838806 45.0
-0.24711639 -0.22465354 -0.97762018 45.0
-1.02268720 -0.44373742 -0.97595692 45.0
-0.88689482 -0.66136485 1.43152189 45.0
-1.38375449 -0.05806132 -0.29258466 45.0
1.14346778 -0.86812395 -1.28574789 45.0
0.05967722 -1.43560100 -0.95025533 45.0
-0.21146899 0.94033343 1.31042588 45.0
-0.41307360 -0.79200351 1.23818767 45.0
0.30435452 -1.02334464 -0.99447447 45.0
-1.15668321 0.95325971 -1.33248889 45.0
0.36876985 0.01297081 2.21815324 45.0
-1.32480359 -0.64253193 -0.83118093 45.0
-0.22564320 0.61397201 1.89050710 45.0
0.99684769 1.13689554 -0.96156979 45.0
-1.40711176 -0.75497961 0.48858133 45.0
-1.37810886 -0.46429065 -0.11209948 45.0
1.36948526 -1.01334655 0.06107504 45.0
-0.33580354 -1.27199447 -0.96330822 45.0
0.79091185 -1.38641036 0.56997257 45.0
0.06076862 0.03920618 -0.97792858 45.0
1.31703556 1.25049472 -0.37224716 45.0
-1.37052739 0.65543437 1.15635216 45.0
1.24716735 -1.01544213 -1.32195389 45.0
-1.34215677 0.99530208 0.80732346 45.0
-1.06062090 0.68204772 -1.14051557 45.0
1.40792048 0.55795228 0.60129458 45.0
-0.09196354 0.22097506 -0.97831970 45.0
0.95835102 1.35268748 -0.82681137 45.0
1.25865030 -0.97526318 0.79627234 45.0
0.33542964 1.27884996 -0.94897336 45.0
0.84461498 1.19816697 -0.95157212 45.0
0.83222568 0.35692358 2.09900951 45.0
-1.40936637 0.78180081 -0.80833173 45.0
-1.11975932 -1.57660103 -0.13835558 45.0
1.34907269 -0.37457913 0.41585153 45.0
-0.08716927 -0.31278527 2.04513311 45.0
-0.08051495 -1.71889341 -0.35569364 45.0
1.36484742 1.11497509 0.27616832 45.0
-0.94956148 -0.37992156 1.85375679 45.0
1.36614847 -0.73210859 -0.55940032 45.0
0.33765411 1.14976823 -0.95729989 45.0
-0.33580354 -1.27199447 -0.96330822 45.0
1.01945865 0.36328796 -0.98102808 45.0
-1.28918219 -1.09315372 0.76015192 45.0
0.06073714 -0.22513220 -0.97762018 45.0
0.22210543 -0.53062201 -0.97487175 45.0
-1.30679154 -1.26887012 0.47403291 45.0
1.07638609 -0.87012810 0.94959819 45.0
0.36125240 -0.31049031 2.03194213 45.0
0.94288284 -1.49837232 -0.90047169 45.0
0.05870246 0.19918567 2.23717451 45.0
0.68111736 1.16625416 -0.95500541 45.0
0.20761879 0.49778336 2.05504966 45.0
-1.35997045 -1.22056866 -0.37033352 45.0
0.74626595 -1.16683626 -1.00085270 45.0
1.20404088 -1.41377199 0.26664692 45.0
-1.44342542 0.65260792 -0.28312224 45.0
1.23344576 -1.50314760 -0.34198859 45.0
1.01784503 0.90560073 -1.01761425 45.0
0.85270953 -1.65225649 -0.41480064 45.0
-1.17222047 -0.34693325 1.63625813 45.0
-1.43660617 1.06215811 -0.43607974 45.0
-0.74697167 -0.73875546 1.31202197 45.0
-1.44274354 0.90425426 0.56855530 45.0
0.04903146 -1.51730311 0.39717230 45.0
-0.84451538 -1.32543683 0.68965203 45.0
-1.39677238 -0.73210859 -0.55940032 45.0
0.93644124 -0.91679531 -1.24068797 45.0
-0.09030113 -1.43560100 -0.95025533 45.0
1.41282499 0.55847055 -0.09380087 45.0
-0.45408386 1.37891388 -0.11963797 45.0
0.33230412 -1.67563868 -0.70305377 45.0
0.21277049 -0.67812699 1.49464703 45.0
-1.22547114 0.41985905 1.71351647 45.0
0.42015237 0.68220443 -0.97822732 45.0
0.97040915 -1.19265890 0.84889925 45.0
-0.61226946 1.37944460 -0.87922972 45.0
0.58481205 1.35724080 -0.91393667 45.0
-0.97434121 1.34412122 -0.88024074 45.0
1.38829505 -0.82594645 -0.12023327 45.0
0.05980173 -1.03996992 0.95864046 45.0
-1.44626737 0.98227406 0.38661492 45.0
-1.24642944 1.28849804 -0.81470257 45.0
0.97306979 -0.85768235 0.99107605 45.0
-1.28809774 0.35496110 1.42878222 45.0
-0.74823868 -0.22257225 -0.97762018 45.0
0.04545845 1.44913650 -0.53057355 45.0
-1.12956846 -1.00206459 0.90991765 45.0
1.37288475 -0.69516796 0.34511104 45.0
0.04958326 -1.66472769 -0.02113844 45.0
1.38410795 0.40231502 0.60963947 45.0
-1.37528992 -1.12920141 -0.33113560 45.0
0.70875853 1.38058650 -0.82571614 45.0
0.43285155 1.04505920 -0.97505975 45.0
0.43959722 1.41392732 -0.43127719 45.0
1.39947128 0.43289286 0.26406583 45.0
-1.32297516 0.20061252 -0.84046149 45.0
0.83731788 1.37720048 -0.43127719 45.0
1.30992603 -1.26758564 -0.61521262 45.0
-0.74865615 -0.14162165 -0.97781867 45.0
-0.90226763 -1.08080924 -1.11824059 45.0
-0.07411694 1.34753811 0.12862912 45.0
-1.40711176 -0.75497961 0.48858133 45.0
-1.12439227 0.92688280 1.08759737 45.0
-0.09088641 -0.95933372 0.95704532 45.0
1.37768507 -0.73396593 -0.30610085 45.0
-0.41241115 -0.30198336 -0.97726542 45.0
-1.40936637 0.78180081 -0.80833173 45.0
0.99240088 -0.30703562 1.88522422 45.0
-1.34349442 -1.35857153 -0.16494340 45.0
-0.77720684 -1.63631463 -0.13905348 45.0
-0.36688998 0.65515924 1.81045127 45.0
-1.06122077 1.02653456 -0.99403071 45.0
0.89757943 -0.79138464 -0.98925686 45.0
1.37901866 0.73821759 -0.80553895 45.0
-1.40451658 0.40401131 -0.57288009 45.0
1.20828271 0.44909659 1.67910254 45.0
0.61712748 -1.66745317 -0.26968452 45.0
-1.34562790 -0.93712336 0.73734528 45.0
-0.08825304 -1.49524558 -0.94149327 45.0
0.30315211 1.42854798 -0.53057355 45.0
0.05980173 -1.03996992 0.95864046 45.0
0.53427660 -1.01655388 -0.99447447 45.0
1.16644502 1.08693361 -0.98911327 45.0
-1.44939268 0.60887980 -0.09370928 45.0
1.32934666 -1.22056866 -0.37033352 45.0
0.29571158 1.28549170 0.25516450 45.0
-1.22547114 0.41985905 1.71351647 45.0
0.04441095 1.44554925 -0.34890351 45.0
-1.40144026 0.19981013 0.08573996 45.0
-1.44769633 0.82410401 -0.09321582 45.0
-0.58458400 -0.90194649 0.97254157 45.0
0.79091185 -1.38641036 0.56997257 45.0
-0.95258427 -1.03498495 -1.28828692 45.0
1.41910064 0.73821759 0.08594521 45.0
1.06259739 1.32835495 -0.16248858 45.0
1.01903713 0.46387520 -0.97758687 45.0
-0.96364290 -0.46181798 1.73838806 45.0
-1.22357857 -1.01493442 0.85037184 45.0
0.71463615 1.39160204 -0.53057355 45.0
-0.92798412 1.14617491 -0.95961070 45.0
0.32711905 -1.69230294 -0.26968452 45.0
0.84461498 1.19816697 -0.95157212 45.0
1.34904981 -0.60419393 0.49356386 45.0
1.19295466 -1.01493442 0.85037184 45.0
1.40866578 1.11168981 0.05875082 45.0
-1.30507600 0.86723948 -1.32431161 45.0
1.08769858 0.16074303 2.01616931 45.0
-0.74362141 1.38780093 -0.74724948 45.0
1.27569902 0.90679973 -1.29950380 45.0
1.28209615 -0.22005399 -0.83921456 45.0
1.42118073 0.65250725 0.26467633 45.0
1.31691730 0.48087063 -0.83863419 45.0
1.25855827 -1.09315372 0.76015192 45.0
1.29527915 0.92248774 0.93441260 45.0
-1.37392807 0.78474879 0.98897892 45.0
1.30383205 -1.08919346 -1.07616258 45.0
1.30812967 1.25036728 -0.69830638 45.0
0.44270736 1.22008550 0.41132569 45.0
-1.09558392 -0.73494881 1.18946719 45.0
-0.20705205 1.02437055 1.14273655 45.0
0.54689848 -1.40834415 -0.95025533 45.0
-0.65165925 1.11150801 0.78015864 45.0
0.75947207 -1.55449915 0.14876972 45.0
-1.44760752 0.73821759 -0.09343246 45.0
-1.37734520 1.21222794 -0.81032443 45.0
0.36125240 -0.31049031 2.03194213 45.0
-1.39270556 -1.05114806 -0.13194869 45.0
1.37281883 -0.68335170 0.22142088 45.0
1.30914211 -1.35857153 -0.30788273 45.0
-0.47902510 1.40454292 -0.82558066 45.0
-1.17613161 -0.29565620 -0.95932227 45.0
0.99284983 0.88210398 -1.39763880 45.0
0.08938787 -1.22484982 -0.97487539 45.0
1.24716735 -1.01544213 -1.32195389 45.0
1.38789988 -0.86036682 0.42540401 45.0
-0.85238856 1.12960148 -0.95958596 45.0
1.35927129 -1.08934128 0.05382098 45.0
-0.94986725 0.65140688 -0.98061883 45.0
-1.12462485 0.85526288 -1.13327551 45.0
-0.08809601 -1.31891203 0.75119299 45.0
-0.09140436 -0.14178553 -0.97781867 45.0
-1.38506782 0.73821759 -1.08296525 45.0
0.05749633 0.51805776 -0.97693276 45.0
0.30569288 1.40403700 -0.87922972 45.0
1.17835677 -0.92723113 0.86346143 45.0
0.17997028 0.89564115 1.40026486 45.0
0.09114797 -0.90735024 -0.98639578 45.0
-1.39501655 0.11528169 0.42299277 45.0
0.19501929 0.61397201 1.89050710 45.0
1.40153420 0.47928309 -0.09393868 45.0
0.54807138 -0.66962588 1.47636628 45.0
1.32493889 0.56059921 1.26037896 45.0
0.55598748 -0.22326449 -0.97762018 45.0
-0.83373195 0.63640440 1.75507617 45.0
-1.05622089 0.41516811 1.95935845 45.0
-1.04698002 -0.46262792 1.68252325 45.0
1.41716969 0.90431553 0.26525396 45.0
1.02964354 0.46406206 1.90618134 45.0
-0.38572320 -1.35093832 0.68267196 45.0
-0.40627688 -1.11003089 0.93512976 45.0
-1.08556712 -1.39654219 0.43702951 45.0
1.33991098 -1.22072792 0.13527066 45.0
0.98241007 -1.06093872 0.95336175 45.0
-0.45905057 0.70813632 -0.98259711 45.0
-0.19735269 1.43704736 -0.34890351 45.0
1.36049104 0.02881571 0.08578765 45.0
0.32467791 -1.69546413 -0.65171486 45.0
-0.08241545 -1.43047130 0.57768089 45.0
-0.46721038 1.41237497 -0.34890351 45.0
1.41489542 0.98227406 0.06937739 45.0
-0.38572320 -1.35093832 0.68267196 45.0
-1.00218105 1.35865688 -0.34658062 45.0
0.75280362 -1.63958383 -0.70313907 45.0
-1.28902948 -0.93862247 -1.30387235 45.0
-0.83373195 0.63640440 1.75507617 45.0
0.96505523 1.35858130 -0.74577105 45.0
1.36011398 -0.86581933 0.66381407 45.0
1.08055758 -1.48938417 -0.89018548 45.0
-1.44548213 1.02096772 0.00239382 45.0
0.89667791 -1.59361434 -0.75022161 45.0
-0.74275577 -0.66538942 1.45871770 45.0
-1.30587626 0.40365270 1.39392638 45.0
0.16580831 1.43466711 -0.29206982 45.0
0.99139154 -1.54448020 0.07833119 45.0
-0.64852536 -1.66065896 -0.21112581 45.0
-0.95505089 -1.21472466 -1.09433854 45.0
-0.69861734 -1.57075715 -0.82279795 45.0
1.39047396 -0.82594645 0.06387519 45.0
-1.40735769 0.28324980 -0.09561184 45.0
1.06861520 -0.82790107 1.01560581 45.0
-0.08010936 0.76386434 1.66267216 45.0
-1.44084787 0.86484849 -0.28041035 45.0
1.41095889 1.11172974 -0.25437218 45.0
0.05346973 -1.65927577 -0.75003964 45.0
1.35909808 1.06253505 -0.83058935 45.0
0.04431912 1.44515967 -0.32476240 45.0
-0.24632284 -0.91414928 0.97281229 45.0
-0.49435273 1.04408598 1.04291773 45.0
0.04594329 1.42430317 -0.87922972 45.0
1.22677100 -1.31201839 0.47142234 45.0
-1.38989508 -1.08934128 0.05382098 45.0
-0.97432667 0.61612236 -0.99366683 45.0
0.47091818 0.96581119 1.20626926 45.0
1.33718705 0.61160719 1.20766938 45.0
-0.96699870 -0.71969944 -0.97889364 45.0
-1.39588904 -1.05111754 0.40017948 45.0
-0.77843791 0.95550662 -0.97956902 45.0
1.31757104 0.51514035 -0.83432925 45.0
-1.28927410 -0.97526318 0.79627234 45.0
0.57496625 1.39775562 -0.29206982 45.0
-0.77688986 -1.16683626 -1.00085270 45.0
0.30435452 -1.02334464 -0.99447447 45.0
1.38978434 0.73778576 0.79579008 45.0
0.05967722 -1.43560100 -0.95025533 45.0
-0.08164526 -1.69589686 -0.70305377 45.0
1.11450183 -1.05952418 -1.38323998 45.0
1.34908056 0.90431440 -1.09153748 45.0
-0.85914046 0.42828640 2.04532909 45.0
-0.77567953 1.19874144 0.41041449 45.0
-1.37606847 -1.05111921 -0.55146909 45.0
1.23715305 -0.82405561 0.88048983 45.0
1.10424185 -1.58170426 -0.18933153 45.0
-1.26406968 -1.50314760 -0.34198859 45.0
1.22698629 -0.45204353 1.23315203 45.0
-0.45725936 0.87911946 -0.99756521 45.0
0.92306834 1.13588214 0.58787006 45.0
0.92075783 -1.07368588 -1.26947701 45.0
0.44751307 1.41581786 -0.64584076 45.0
-0.41407016 -0.14171149 -0.97781867 45.0
-0.07547887 1.44713473 -0.43127719 45.0
1.34842443 -0.21994391 0.61309123 45.0
1.28087902 -0.54627568 -0.83694625 45.0
1.41315746 0.94334078 -0.09287210 45.0
-0.89064229 -0.29810342 -0.97726542 45.0
-0.23603609 -0.38993615 1.95414376 45.0
0.25178653 0.59661716 -0.97517413 45.0
-0.56733578 0.43731079 2.09015441 45.0
-0.86794180 1.37720048 -0.43127719 45.0
-0.16054057 0.92791790 -0.99047434 45.0
0.06010216 -0.75659412 1.35341072 45.0
-1.40960872 0.28316116 0.26518485 45.0
0.77730662 0.57939917 -0.97639346 45.0
0.06078045 -0.14178553 -0.97781867 45.0
0.85061216 -1.65276158 -0.49717376 45.0
0.04545845 1.44913650 -0.53057355 45.0
-1.05586445 1.00863016 -1.18372333 45.0
1.16288185 0.69448829 1.46330118 45.0
0.33634025 -1.41365993 0.57768089 45.0
0.31951618 0.97480023 1.21681881 45.0
-1.12305868 -0.95892078 0.90708065 45.0
0.05710198 -0.39130810 1.95960283 45.0
-1.21017373 0.60926145 -0.99848825 45.0
0.30623430 1.42847812 -0.64584076 45.0
-1.37457037 -0.29429328 0.60918975 45.0
1.35545790 -0.29420325 0.25544390 45.0
0.63171220 0.95706171 1.18862057 45.0
-0.77120507 -1.66332531 -0.41480064 45.0
1.07803237 -0.01284903 2.00602388 45.0
-0.92357534 -1.29870093 -0.95797026 45.0
-0.57057738 0.36480683 2.14383483 45.0
1.31879902 -1.12882173 -0.81148845 45.0
-1.05586445 1.00863016 -1.18372333 45.0
-0.54783696 -1.58223999 -0.82279795 45.0
-1.07756436 1.10045826 -0.98864985 45.0
-1.39158428 0.02881571 0.26412949 45.0
0.29608017 1.42264521 -0.29206982 45.0
1.06791544 -0.17479560 1.92924869 45.0
0.97799593 1.33345520 -0.13011743 45.0
0.74189878 -1.66179860 -0.35569364 45.0
-1.19221008 -1.35010707 0.46367800 45.0
1.34916115 -0.37339747 0.25262931 45.0
0.05782592 0.50120902 2.06050920 45.0
1.09513259 0.89732957 -1.12618470 45.0
-0.19643222 1.43466711 -0.29206982 45.0
1.41600049 0.94334108 0.26288956 45.0
-1.12845993 1.07757568 0.74722683 45.0
0.95416349 1.23574257 -0.94897336 45.0
-0.19106406 1.40305305 -0.11963797 45.0
1.36714733 0.61304802 -0.81288862 45.0
-1.34598994 -0.86945605 0.74938107 45.0
-1.38608086 -1.08919346 0.49547967 45.0
1.35427010 -1.12918603 0.21596734 45.0
0.17975977 0.84958965 1.49008155 45.0
1.10856342 1.01730311 -1.06992209 45.0
-0.07704179 1.19527972 0.60584885 45.0
0.95932662 1.01558971 0.97531146 45.0
1.39011514 0.43144950 0.60590851 45.0
0.69742924 -1.18909991 0.87996203 45.0
0.71148312 1.38814425 -0.34890351 45.0
1.39716542 0.43308145 -0.09459534 45.0
0.31715441 1.09118152 0.95311314 45.0
-1.36743081 -1.08919346 0.58909613 45.0
1.42019796 0.78180349 0.26512626 45.0
-1.42284715 -0.79242212 0.39573398 45.0
1.39405751 1.02096772 -0.55832595 45.0
-1.40344274 -0.68335170 0.22142088 45.0
-1.38761497 -0.82557410 -0.80235291 45.0
-1.41630769 -0.74710560 0.23174402 45.0
0.05541917 0.58236080 1.94943321 45.0
1.37809062 0.82410401 -0.80891836 45.0
0.04858110 0.98941815 1.23000944 45.0
1.11615276 -1.58588302 -0.28214893 45.0
0.74505562 1.19874144 0.41041449 45.0
-1.25270152 -0.13812205 1.46387982 45.0
1.30983567 -1.26879561 0.39433789 45.0
1.39862406 0.69457024 -0.52238882 45.0
0.04282220 1.42562878 -0.18765421 45.0
0.84622246 -1.09134674 0.95699441 45.0
0.53838861 0.10216742 2.22023320 45.0
1.30659699 1.16793668 -0.89137971 45.0
-1.25333536 -0.29086661 1.37779295 45.0
-1.37389135 -0.93670994 -0.81716770 45.0
0.93774766 0.42346564 2.00804806 45.0
1.29247701 -1.35836005 -0.65873736 45.0
-1.20855415 0.56647205 -0.96076614 45.0
-0.84891307 -0.07593305 2.13502264 45.0
1.09431672 0.81158686 -1.12695134 45.0
-1.38152850 -1.08927560 -0.32591915 45.0
-0.69773382 0.65783119 -0.97545582 45.0
-0.24073227 -1.21444058 0.86601084 45.0
0.97155720 1.35865688 -0.34658062 45.0
0.98600030 -1.10562444 -1.32699668 45.0
-1.05010569 0.96996582 -1.22797048 45.0
0.98595792 -1.06689048 -1.37030625 45.0
-1.19261086 1.28842175 -0.89561176 45.0
-0.49823746 1.08125055 0.94322270 45.0
0.56051344 0.21348587 -0.97831970 45.0
-1.42420614 0.94231707 0.67402375 45.0
1.10870135 -1.58732629 -0.53614551 45.0
-1.13782454 -1.58347189 -0.62094992 45.0
1.00042343 0.03165849 -0.97792858 45.0
0.20541219 -0.38993615 1.95414376 45.0
-0.67818224 1.25625646 -0.94897336 45.0
-0.75741905 1.29355955 0.12878992 45.0
-0.60352159 1.39186394 -0.24797063 45.0
-1.03678620 1.10114014 -0.99240768 45.0
-1.15090656 -0.98297405 -1.41047823 45.0
0.20935176 0.10596359 2.23851395 45.0
0.05826673 -1.27143681 0.81106597 45.0
0.05883078 0.28860006 2.21054339 45.0
0.09110197 -0.81078100 -0.97435260 45.0
0.83666241 1.37531042 -0.32476240 45.0
0.43709984 -0.62686765 -0.97327566 45.0
-0.57505804 0.53918535 -0.97617143 45.0
-0.99784702 -1.63515389 -0.57626969 45.0
0.92396903 -1.55039680 -0.82166153 45.0
-1.30507600 0.86723948 -1.32431161 45.0
1.14931870 -0.83779407 -1.22212827 45.0
1.31287038 -1.35857153 -0.16494340 45.0
-0.84891307 -0.07593305 2.13502264 45.0
0.21662450 -0.14175490 -0.97781867 45.0
0.06219439 0.38575748 -0.98102808 45.0
-0.31895822 1.37578392 -0.05134086 45.0
1.08403611 1.26137900 -0.93912154 45.0
-0.86745238 1.37597990 -0.37556833 45.0
0.92239457 -1.18569124 -1.14625978 45.0
-1.38976693 0.19957517 0.61823595 45.0
-0.39755580 -1.47759306 -0.94149327 45.0
1.24180579 1.26239932 -0.04967607 45.0
1.42086256 0.60887980 0.08586998 45.0
-1.26284206 1.29086363 -0.25247368 45.0
-1.14274871 1.32983053 -0.26285714 45.0
0.56853181 0.45625466 -0.97843504 45.0
-0.82153577 -1.38641036 0.56997257 45.0
0.28685093 1.39127314 -0.11963797 45.0
1.02522027 1.09038329 -0.97614056 45.0
1.33403969 -1.12897110 -0.55552846 45.0
-1.31272006 -0.22005399 -0.83921456 45.0
1.31593323 -0.73009557 -0.82384139 45.0
0.18687786 -1.68751252 -0.70305377 45.0
0.83203733 1.37546563 -0.74735796 45.0
-0.91545165 0.41733325 -0.97997552 45.0
1.41716969 0.90431553 0.26525396 45.0
0.74658293 -1.63631463 -0.13905348 45.0
-0.08065581 -1.71278071 -0.26968452 45.0
1.18610716 -0.97178161 0.85333645 45.0
0.71713507 1.34610605 -0.91391397 45.0
-0.08747388 -0.15692648 2.16327024 45.0
1.37959301 -0.86036682 -0.31063542 45.0
1.30009341 -0.05851143 0.99345422 45.0
0.21459076 -0.37858912 -0.97671926 45.0
-0.19621782 1.29645574 0.25516450 45.0
-1.43215823 0.47928309 -0.09393868 45.0
0.07700621 -1.34221673 -0.95441002 45.0
0.53995347 0.36480683 2.14383483 45.0
-1.20873260 -0.78294784 -1.01405025 45.0
-1.13486576 -1.58170426 -0.18933153 45.0
-0.33122528 1.23114896 0.41198507 45.0
1.29000449 0.69770938 -1.22064459 45.0
1.02502847 0.41332221 -0.97997552 45.0
-1.25602496 1.29094505 -0.71014506 45.0
-1.15607798 1.22485459 -0.94313258 45.0
0.04441095 1.44554925 -0.34890351 45.0
0.20640661 -0.07399746 2.19812894 45.0
-1.38875663 -0.21985388 -0.10445761 45.0
0.18023391 -1.59833312 0.16625106 45.0
-0.56805313 -1.24762309 0.81385601 45.0
1.37450600 -0.93681842 0.55366659 45.0
0.08956242 -1.02813971 -0.99447447 45.0
1.41648090 0.90431440 0.08606528 45.0
1.41456234 0.65241832 0.59359103 45.0
1.16933835 -1.30771971 0.54536933 45.0
-0.41504803 0.12765002 -0.97792858 45.0
1.37288475 -0.69516796 0.34511104 45.0
-0.85038412 0.55622160 1.88086772 45.0
-1.03850806 -1.58036721 -0.75395781 45.0
1.27631235 -1.41843402 0.13639291 45.0
-1.14628148 -1.58696544 -0.35147476 45.0
1.29437160 -1.35857153 0.24899009 45.0
-0.98939109 -1.28392386 0.72342372 45.0
-0.56490052 -1.01655388 -0.99447447 45.0
1.29721117 -1.12972188 0.64788967 45.0
-1.16539752 -1.23862803 -0.99324918 45.0
0.53263932 -1.46673787 -0.94149327 45.0
0.75947207 -1.55449915 0.14876972 45.0
-1.25333536 -0.29086661 1.37779295 45.0
0.97161752 1.35894287 -0.37376463 45.0
1.21497810 1.10154581 0.57989013 45.0
-0.90332234 1.30864370 0.02794503 45.0
0.55486143 0.47772056 -0.97758687 45.0
-0.24140589 -0.57514936 1.67819905 45.0
0.92661953 0.81070399 1.38969445 45.0
-1.18159664 0.13549243 1.86647713 45.0
-0.57087725 -1.19752812 0.86880088 45.0
0.43737626 1.41267860 -0.37556833 45.0
-1.33022869 0.28425151 -0.84202367 45.0
-1.04701936 0.77381426 -1.01673734 45.0
0.85919344 -1.34247375 -0.95226115 45.0
-1.39116895 -0.05806132 0.26375332 45.0
-0.78332686 -1.61000776 -0.03080066 45.0
1.35327673 -1.12935555 0.03888700 45.0
0.85443711 -0.85295528 1.01540101 45.0
0.98632073 -1.14370108 -1.27117300 45.0
1.26867938 0.75644261 1.22462487 45.0
-0.33631682 1.40403700 -0.87922972 45.0
-1.34054995 -1.26758564 -0.61521262 45.0
1.03900313 -1.54182231 -0.81822234 45.0
1.41976213 0.73821944 0.26443675 45.0
-0.35250020 -1.49936402 0.39717230 45.0
0.99322879 -1.22875440 -1.06258833 45.0
-1.25147855 -0.05473863 1.49093986 45.0
-0.45725936 0.87911946 -0.99756521 45.0
-1.43018413 0.60960615 -0.53988713 45.0
1.35024834 0.94334078 -1.07121682 45.0
1.40740800 0.94334078 -0.27978197 45.0
-0.65784270 0.99710071 1.10680711 45.0
0.08938787 -1.22484982 -0.97487539 45.0
-0.67902505 -1.61548638 -0.75003964 45.0
-0.86004043 0.09841770 2.17540789 45.0
1.37883782 0.43308145 -0.57140648 45.0
-0.79911512 -0.83865601 -0.99293923 45.0
0.84917349 -1.05061746 0.97455984 45.0
-1.13336694 0.96596426 1.01802635 45.0
1.32092130 0.28162229 0.97939223 45.0
0.21459076 -0.37858912 -0.97671926 45.0
0.93131673 0.67982197 1.63513529 45.0
-1.01153815 -0.94168222 0.95245773 45.0
-0.20868997 1.10064685 0.96036118 45.0
-0.86004043 0.09841770 2.17540789 45.0
0.87523007 -1.00249469 -1.12852550 45.0
-1.09140730 1.17306626 0.42097333 45.0
0.20074634 -1.60528231 -0.82279795 45.0
0.53113014 -0.07497121 2.17984796 45.0
-0.88366628 -1.64489114 -0.27152932 45.0
-0.27845585 -0.63065290 -0.97327566 45.0
0.89597392 -0.85486990 -1.06060350 45.0
-1.07924104 0.61992723 1.67170012 45.0
1.12331128 1.30436850 -0.09257248 45.0
-0.95138174 -1.07368588 -1.26947701 45.0
-0.87783247 -1.65276158 -0.58223706 45.0
0.85338616 0.49446172 -0.97693276 45.0
1.29721117 -1.12972188 0.64788967 45.0
-1.38871837 0.69501185 -1.05587053 45.0
0.06073714 -0.22513220 -0.97762018 45.0
1.37546027 -0.89800197 -0.31380406 45.0
1.29795408 -0.47298816 0.84335452 45.0
0.30382246 -1.21899736 -0.97487539 45.0
-0.59910131 1.36688435 -0.11963797 45.0
-1.14595711 1.33340371 -0.51770109 45.0
0.99366242 0.52395362 -0.97617143 45.0
0.16280331 1.36777282 0.02830083 45.0
-0.45701122 1.39287233 -0.18765421 45.0
-1.40912819 0.28324980 0.08554921 45.0
-1.37904847 -0.21994391 0.61309123 45.0
-0.23418996 -0.23532778 2.10575747 45.0
0.04403862 1.30419779 0.25516450 45.0
1.09069312 -0.47647125 1.58974111 45.0
-1.17409182 -0.86812395 -1.28574789 45.0
-1.29150975 -1.35799718 0.31773338 45.0
1.12192690 0.91387480 -1.38129306 45.0
-1.20088947 -0.88494265 0.89149874 45.0
-0.64945692 -1.64758933 -0.13601771 45.0
-0.33880386 1.17798817 0.60172683 45.0
1.02408028 0.26265737 2.05542564 45.0
1.02249670 -0.82271630 -1.15339601 45.0
0.56831872 -0.52443427 -0.97487175 45.0
1.42118073 0.65250725 0.26467633 45.0
1.20727217 0.90717083 1.04575193 45.0
0.69104135 0.01059072 2.18995523 45.0
-1.10701001 -0.87012810 0.94959819 45.0
0.71463615 1.39160204 -0.53057355 45.0
-1.27698004 -1.31527472 -0.84310490 45.0
-0.23418996 -0.23532778 2.10575747 45.0
1.40741026 0.51276779 0.08582291 45.0
-0.56230438 -1.29410267 0.75379276 45.0
-1.04398966 1.08244681 -1.04544806 45.0
-0.33798251 -0.94165713 -0.99229580 45.0
-0.96837157 0.42346564 2.00804806 45.0
-1.32488477 1.24987793 -0.81156033 45.0
0.61712748 -1.66745317 -0.26968452 45.0
-0.90327084 -1.04181433 -1.12740898 45.0
0.17723709 1.14153099 0.80486012 45.0
-0.65633863 -0.62289631 -0.97327566 45.0
1.32092130 0.28162229 0.97939223 45.0
-1.36630154 -0.29420325 -0.56981558 45.0
-0.32828665 1.42500722 -0.34890351 45.0
-1.20032716 1.12346971 -0.94884455 45.0
0.71803224 -0.14162165 -0.97781867 45.0
0.62721878 0.99710071 1.10680711 45.0
1.39405751 1.02096772 -0.55832595 45.0
1.30250728 -1.08998549 0.67923999 45.0
0.38010269 -0.44925338 -0.97595692 45.0
-1.21310830 -0.60145891 1.25854266 45.0
-0.39755580 -1.47759306 -0.94149327 45.0
-1.04702425 -0.84413689 -1.21572530 45.0
-0.24714303 -0.05359085 -0.97790658 45.0
0.18394396 -1.69733286 -0.21086083 45.0
-1.16589165 0.52183920 1.74122703 45.0
-1.36810315 -1.17310393 -0.34564608 45.0
-0.59113735 0.21348587 -0.97831970 45.0
0.73913378 -1.35163915 -0.95226115 45.0
-1.25942934 1.01857257 0.84606880 45.0
1.38315177 -0.82594645 -0.30713513 45.0
1.33514225 0.56338084 -0.82717252 45.0
-1.40611947 0.35334423 0.61426151 45.0
-0.23703052 -0.07399746 2.19812894 45.0
-1.03410566 1.00042868 -1.25944328 45.0
0.95876724 -1.28392386 0.72342372 45.0
1.36905563 0.19981013 -0.09433217 45.0
-0.23723812 0.51454151 -0.97693276 45.0
0.33542964 1.27884996 -0.94897336 45.0
0.92442697 -1.21472466 -1.09433854 45.0
-1.36410999 -1.01334655 -0.82047296 45.0
0.05005880 -1.70577037 -0.21086083 45.0
1.32111156 -0.93670994 -1.09684420 45.0
1.32493889 0.56059921 1.26037896 45.0
1.38236558 -0.86145735 0.56356722 45.0
0.21651912 -0.05359085 -0.97790658 45.0
1.41180480 1.06201184 0.23524465 45.0
1.33181405 0.35211548 0.96430850 45.0
-0.15051855 1.13705897 -0.96054643 45.0
0.09114797 -0.90735024 -0.98639578 45.0
-1.06465769 0.49349895 1.86727655 45.0
0.37255663 0.19483124 2.22398376 45.0
-1.02735543 -0.95051217 -1.37334418 45.0
-0.22564320 0.61397201 1.89050710 45.0
-0.72841561 0.49925223 -0.97693276 45.0
1.30733347 -0.83447248 0.76166087 45.0
-0.09299956 0.46894494 -0.97843504 45.0
0.05018640 0.71792275 1.74098134 45.0
0.80154651 1.24575794 -0.94897336 45.0
-0.76520717 0.45155129 -0.97843504 45.0
0.95189667 -0.55782783 1.57781208 45.0
1.34690142 -0.37139222 -0.10885156 45.0
1.25403428 -1.13234580 0.72931492 45.0
-0.21006371 0.98336816 1.22455013 45.0
-0.98285931 1.11035526 -0.96616668 45.0
-0.20241466 1.36180723 -0.93450838 45.0
-1.34466982 1.03398752 0.69331384 45.0
0.57597202 1.39970160 -0.32476240 45.0
-0.42242965 0.46108687 -0.97843504 45.0
-1.26362646 1.29231095 -0.49424404 45.0
1.40038705 1.16604865 -0.16522986 45.0
-0.75359726 1.32092965 0.02822968 45.0
0.61063105 -1.67544127 -0.58223706 45.0
1.37612832 1.16471827 -0.77749521 45.0
-0.89416260 0.03288313 -0.97792858 45.0
-1.42240191 0.43308145 -0.29290190 45.0
1.06726933 0.84330422 1.25498819 45.0
0.17179073 1.36180723 -0.93450838 45.0
-1.02747154 1.13689554 -0.96156979 45.0
-0.64710414 -1.67101347 -0.31398174 45.0
0.22122696 1.24065614 -0.95157212 45.0
0.29827514 1.42531323 -0.37556833 45.0
-0.08982795 0.55365235 -0.97617143 45.0
1.34126580 -0.14144762 -0.57057512 45.0
0.17179073 1.36180723 -0.93450838 45.0
-1.44513857 0.78173089 0.58129120 45.0
1.02999687 0.68204772 -1.14051557 45.0
1.15891874 0.20289671 -0.96047151 45.0
1.22734761 -1.49454772 -0.70230985 45.0
-0.69861734 -1.57075715 -0.82279795 45.0
-1.40208423 0.28324980 -0.29416358 45.0
1.36869943 0.51099169 0.90935820 45.0
-1.37978506 -0.37339747 0.25262931 45.0
0.99996829 -0.52372438 -0.97487175 45.0
0.04976887 -1.72047734 -0.41480064 45.0
1.23076355 1.29228520 -0.60497707 45.0
1.25913239 0.62705356 1.44460130 45.0
0.74648052 -1.04906356 -1.02016604 45.0
-0.81498951 0.86347693 1.33715880 45.0
-1.30980122 0.94591928 -1.25995302 45.0
0.82463491 0.00943776 2.16277838 45.0
-1.42444909 0.40401131 0.08552745 45.0
-1.10821533 -1.56611764 -0.07227118 45.0
-1.42799532 1.16604865 -0.51374894 45.0
-0.96914071 0.47277674 1.95466268 45.0
0.93131673 0.67982197 1.63513529 45.0
-1.20873260 -0.78294784 -1.01405025 45.0
0.06026249 -0.95933372 0.95704532 45.0
0.71761477 -0.22257225 -0.97762018 45.0
-1.38872898 -0.90071422 0.66241723 45.0
-1.13825619 1.00267124 0.94974279 45.0
-0.42242965 0.46108687 -0.97843504 45.0
-0.49823746 1.08125055 0.94322270 45.0
0.97306979 -0.85768235 0.99107605 45.0
1.05494332 -1.39654219 0.43702951 45.0
0.54286641 -1.14797246 0.91023999 45.0
-1.22880507 -1.09354961 0.83120340 45.0
-1.42191350 -0.82594645 0.24975277 45.0
-0.20241466 1.36180723 -0.93450838 45.0
-1.33755744 0.35599765 -0.84317070 45.0
0.73845971 -1.66383445 -0.49717376 45.0
-0.77513283 0.87134939 -0.99756521 45.0
0.38338426 0.03692954 -0.97792858 45.0
1.34916115 -0.37339747 0.25262931 45.0
0.70742297 1.36797810 -0.87935537 45.0
0.20935176 0.10596359 2.23851395 45.0
-1.05877686 0.65692770 -1.08502948 45.0
0.29346183 1.41665792 -0.24797063 45.0
-1.44983423 0.82410401 0.08600416 45.0
1.30696690 -1.05189168 0.70046014 45.0
-1.14567137 1.33047223 -0.30152807 45.0
0.08679269 -1.30336201 -0.95792878 45.0
-0.72385478 1.12052357 -0.96054643 45.0
1.29721117 -1.12972188 0.64788967 45.0
-1.33875370 1.25036728 -0.69830638 45.0
0.25178653 0.59661716 -0.97517413 45.0
1.21909273 -1.35570037 0.38730273 45.0
-0.96944040 0.58438176 1.79012012 45.0
-0.55741000 -0.15648933 2.13953018 45.0
-0.58693677 -0.14166597 -0.97781867 45.0
0.07960225 1.19415545 -0.95454818 45.0
-0.44086140 -1.37136388 -0.95226115 45.0
-0.09088641 -0.95933372 0.95704532 45.0
-1.15668321 0.95325971 -1.33248889 45.0
-0.86733663 1.37568319 -0.34890351 45.0
0.05955682 -1.08045268 0.95195556 45.0
1.28337693 -0.83052140 -1.16868961 45.0
0.47357267 0.78862840 1.55831063 45.0
1.14327252 -0.80424505 -1.09518790 45.0
-0.34496227 1.01548898 1.13500524 45.0
-0.86832070 1.37911618 -0.53057355 45.0
1.34756660 -1.17319334 0.18141909 45.0
