-0.74577355 0.71033645 1.44524384 20.0
1.37837493 -1.11881304 -0.71527517 20.0
-0.84572959 1.21138847 -0.99600261 20.0
-1.31068087 -0.71021014 0.66812068 20.0
1.29022467 1.27815771 -0.74871933 20.0
0.35600784 1.34124684 -0.82033259 20.0
-1.03696883 1.11622727 -1.03980756 20.0
1.17736232 1.39418995 0.65774381 20.0
0.66998774 0.26502410 1.92659211 20.0
1.32540655 0.48556340 -0.71527517 20.0
0.51591825 -0.26579598 1.86491883 20.0
-1.31184578 0.48556340 -0.71527517 20.0
-0.55131716 -1.05382895 0.97266257 20.0
-0.11292470 1.49106073 0.59693611 20.0
1.31994259 1.00800037 -1.46123409 20.0
-1.34262073 -0.71109366 0.48421037 20.0
-0.84262609 1.04192650 -1.09230888 20.0
1.25357568 -0.63288343 0.68871254 20.0
0.98119015 0.90540475 1.09077120 20.0
-1.31055200 0.36389452 0.11401176 20.0
0.29870638 -0.94751382 1.00961769 20.0
-1.32980669 1.05798018 -0.37139040 20.0
1.34854698 -1.11732960 -1.53155267 20.0
-1.32385707 1.01388514 0.37259308 20.0
-0.34490135 1.48661339 0.74316806 20.0
1.27722943 0.07591725 0.59350157 20.0
-0.44242105 -1.35883462 0.41715381 20.0
0.25543171 -0.14774081 1.99991488 20.0
0.72289407 0.90160048 -1.05307341 20.0
-1.34173417 0.97287452 -1.08866131 20.0
0.07659417 -1.56148648 -0.16620979 20.0
1.33046341 0.59810269 0.08416203 20.0
1.20541441 1.06914449 -1.17942142 20.0
-0.83521712 1.47644794 0.72680664 20.0
-0.94035935 -1.17676795 -1.28103924 20.0
0.96163672 -1.09750247 -1.39846408 20.0
1.29600084 0.86294341 0.62353116 20.0
-0.98267382 1.41872931 0.85997778 20.0
1.24070048 -1.31657577 0.10207362 20.0
0.11902687 1.43883514 0.88419038 20.0
0.85618675 1.04192650 -1.09230888 20.0
-0.68649840 -1.39374793 -1.05994225 20.0
0.86846375 -1.22894847 -1.11337507 20.0
0.34647375 -1.39993262 -1.07154405 20.0
1.29069245 0.23067230 0.59344703 20.0
1.14384413 -1.17023313 0.65471864 20.0
1.18777382 1.03146601 -1.42584515 20.0
0.11134851 -0.70942694 1.20992136 20.0
0.37445173 -0.83009064 -1.07509971 20.0
-0.49917790 -0.02322080 1.99392402 20.0
-1.37716937 -1.03930736 -1.09347999 20.0
-1.02521729 1.30871260 1.00503874 20.0
-1.33078361 1.11212611 -0.37225112 20.0
-0.40647307 0.74274319 1.54060960 20.0
-0.71218044 -1.32866418 -1.06114352 20.0
0.62638283 -0.71049547 1.17224169 20.0
0.92470109 1.44457293 -0.02947674 20.0
1.02904177 -1.40533507 -1.04015648 20.0
0.64866978 0.73350430 1.49983275 20.0
-1.34105742 0.82938802 -0.96782798 20.0
0.27017424 0.65986449 1.65253019 20.0
-0.74118376 1.12776184 1.08784926 20.0
-1.03272903 0.86620051 -1.69610298 20.0
-1.29030573 0.07466397 -0.55458069 20.0
-0.79447860 1.46151102 0.79423749 20.0
-0.76825851 -1.19061005 0.77401626 20.0
-0.70385426 0.11270335 1.98092377 20.0
0.12964715 -0.74110448 -1.07631981 20.0
1.02567303 1.42779529 0.69512779 20.0
-0.64513314 1.30608177 0.97352535 20.0
-1.37138319 -1.07726431 -0.96782798 20.0
1.35070014 0.67574370 -0.85750896 20.0
0.92008543 0.70234108 1.26697457 20.0
0.20953052 -1.57305014 -0.29229328 20.0
0.47251543 -0.90727949 1.02264309 20.0
-1.32385707 1.01388514 0.37259308 20.0
-0.48664871 -0.82766581 1.02777994 20.0
-0.59172839 -0.94503361 1.03150439 20.0
-1.40257370 -0.85188442 -0.71527517 20.0
1.05274808 -1.21844697 -1.19834375 20.0
0.07693820 -1.59708452 -0.59885436 20.0
0.59122628 -0.98235017 1.02057958 20.0
0.12936689 -1.24936140 -1.09264421 20.0
-0.95591348 -1.49953592 -0.57722753 20.0
0.84721243 1.35861969 -0.72559756 20.0
1.28647971 -1.41288757 -0.84197187 20.0
0.36347178 -0.73929888 -1.07181239 20.0
-1.17740738 0.48638168 0.74556649 20.0
0.12800765 0.80907297 -1.06936276 20.0
1.40390456 -0.80961484 0.61852592 20.0
1.34835958 1.01405990 -0.15622398 20.0
1.30168962 1.20987666 0.63246137 20.0
0.71634203 1.48585367 0.14376740 20.0
-1.09069741 -0.55080253 1.02143312 20.0
1.32923543 -1.34262323 -0.25706613 20.0
1.33827960 1.25606871 -0.17814776 20.0
-1.32373452 1.23074460 -0.80683815 20.0
0.98496556 0.08225445 1.36625564 20.0
0.71871328 1.33885765 -0.81902838 20.0
-0.11550362 -1.27531564 -1.08638310 20.0
0.08788192 -1.27418637 0.63890719 20.0
-0.08436316 -1.10104561 0.90432942 20.0
-1.28250599 1.29271400 0.68904918 20.0
-1.38241446 -1.00355828 -0.55346668 20.0
0.35855994 1.29249966 -0.91582942 20.0
1.17445815 1.39461064 0.63100171 20.0
1.34396768 0.59788686 -0.96993816 20.0
0.90094602 -0.52232701 -1.04176486 20.0
-0.54715967 -1.52333951 -0.11328482 20.0
-0.11290285 1.39014852 -0.61321414 20.0
-0.70809609 -0.25768164 1.87009335 20.0
0.35653204 1.08701360 -1.03429627 20.0
0.98180115 -0.18885873 1.31578350 20.0
-0.59640825 0.11757097 1.97279835 20.0
-0.19670457 -1.53271699 -0.05138836 20.0
1.08620107 -0.62349015 1.03889918 20.0
0.79999864 -0.02639408 1.92145383 20.0
-1.16946375 -0.68708688 0.95397073 20.0
-0.53037691 -0.54420418 1.48871696 20.0
0.98536104 -0.80722123 -1.19962490 20.0
0.96087444 0.76800406 1.13315868 20.0
1.17120576 -0.78426385 0.94794333 20.0
1.29606664 1.29271400 0.68904918 20.0
-0.96859097 0.93771303 1.10819411 20.0
-1.40726995 -0.81267500 -0.96783793 20.0
1.26293457 1.02105892 0.69625205 20.0
0.96038163 -1.17479849 0.74483490 20.0
-1.34623277 0.89695907 -0.96782798 20.0
0.07684377 -1.59155428 -0.44450572 20.0
-0.34221107 1.10884476 -1.03583264 20.0
-1.36177373 -0.93075317 -1.61133456 20.0
-0.88065666 -0.77716672 -1.05998456 20.0
-0.71099293 0.80053240 -1.07044411 20.0
-0.71159166 1.22128916 -1.00224078 20.0
1.07998013 0.89797795 1.00764918 20.0
0.35951218 0.98466384 -1.03314459 20.0
0.92470109 1.44457293 -0.02947674 20.0
1.07678735 -0.34202039 0.90055662 20.0
1.15304291 -0.36466441 0.78563839 20.0
1.14168429 -0.47537625 0.88605744 20.0
1.03672254 -0.42396981 1.11162639 20.0
0.12446738 0.38524595 -1.07604945 20.0
-1.40220594 -0.76903802 -0.96792418 20.0
1.28515851 1.34460151 0.55220705 20.0
-0.09778775 -0.70942694 1.20992136 20.0
1.27707314 1.26510453 -0.87367207 20.0
-0.79734915 -0.09446366 -1.05946910 20.0
0.33813268 -0.09487358 -1.08675230 20.0
0.31731567 0.99145812 1.18246436 20.0
1.38509226 -1.07624090 -0.08214409 20.0
-1.40220594 -0.76903802 -0.96792418 20.0
0.35465595 1.45422709 -0.23089880 20.0
0.81587440 -0.36416289 1.67357039 20.0
1.40101862 -0.96782523 -0.55346668 20.0
0.72365969 1.48732650 0.71582443 20.0
0.09243140 -0.14791352 2.02206397 20.0
1.16990209 1.29094088 -0.78147578 20.0
-1.38649178 -0.96682632 0.48778173 20.0
1.38224733 -0.70826483 -0.09621665 20.0
-1.31564498 0.36282703 -0.96816689 20.0
1.02291322 -0.51545751 -1.06056607 20.0
-0.10672370 -0.26714993 -1.10767519 20.0
0.71795762 -0.14357683 1.95855522 20.0
0.94414246 0.23698445 1.60213041 20.0
-1.15765572 1.38561821 -0.10505116 20.0
1.35993111 0.93483645 -0.37117520 20.0
-0.86513197 0.77035004 1.21803927 20.0
0.35422969 1.39075589 -0.61411196 20.0
-1.40256691 -0.85194391 -1.08822930 20.0
-1.03373086 0.69125658 -1.49606752 20.0
-1.31890666 1.05852079 0.37147266 20.0
-1.37010670 -1.03628528 0.57624876 20.0
0.70386499 -0.53290159 1.50680256 20.0
-1.34976864 -1.20376360 0.15569465 20.0
-1.31305110 -1.35382187 -0.96627331 20.0
0.13218674 -0.97814345 -1.10331368 20.0
-1.34623277 0.89695907 -0.96782798 20.0
-1.27650321 1.12804461 0.61900008 20.0
0.53818107 0.38246295 -1.06636691 20.0
-1.27656126 0.72840506 0.56212467 20.0
0.07716829 -1.48757017 0.09430449 20.0
-0.08903018 -1.02432573 0.96840906 20.0
-0.63274813 -0.55761379 1.45528245 20.0
1.32937551 -1.21746421 0.30525646 20.0
0.98085463 -0.86941552 -1.33052111 20.0
1.20541441 1.06914449 -1.17942142 20.0
-0.52117038 0.24291769 -1.06636691 20.0
-0.11090664 0.38524595 -1.07604945 20.0
1.02860725 1.42662299 0.71898901 20.0
-0.94731373 0.76800406 1.13315868 20.0
0.57934999 -0.80792278 -1.06920028 20.0
-1.37508762 -1.00072265 0.60009432 20.0
0.71712250 1.48454809 0.71300566 20.0
1.26749480 -0.74761647 0.88454753 20.0
-1.03510869 -0.67615050 1.09288871 20.0
-0.89094919 1.44965756 0.81651425 20.0
1.37837076 -1.11884010 -0.85707849 20.0
-0.73352474 -1.00844121 -1.11079180 20.0
-0.25661346 0.65986449 1.65253019 20.0
0.55994171 -1.44812238 0.14187492 20.0
-0.10001533 0.95932782 1.26081502 20.0
-1.32082164 0.49248651 -1.07122183 20.0
0.83499771 0.59907079 -1.05542314 20.0
-0.47784191 1.02492559 1.12875938 20.0
-1.36482227 -1.11876881 -1.08881164 20.0
-1.29632771 0.86194563 0.56539041 20.0
1.31814790 0.36325416 -1.06068623 20.0
-0.41561744 -1.55888355 -0.27654332 20.0
0.93821043 -1.31489682 0.40865403 20.0
-1.29010773 0.07447007 -0.97035754 20.0
0.57627428 -0.89161497 -1.07572448 20.0
-1.16220200 -0.90237236 0.93048459 20.0
0.66288483 0.11506840 1.99015272 20.0
-0.10040298 1.10840392 1.14380217 20.0
-1.34785140 0.76663166 -0.96782798 20.0
0.92470109 1.44457293 -0.02947674 20.0
1.38503647 -1.07665586 -0.36059237 20.0
0.32858595 -1.43601847 0.20607205 20.0
-0.25781614 -1.09846532 0.91458786 20.0
-1.39249682 -0.93075317 -1.09305167 20.0
0.73775691 -1.36753535 0.33834583 20.0
1.21158600 0.68697047 -1.58659899 20.0
0.12190495 -0.53773415 -1.09661901 20.0
-0.88290888 -0.84684753 -1.12687361 20.0
-1.34262073 -0.71109366 0.48421037 20.0
0.80637038 -0.26373273 -1.07477880 20.0
-1.35744572 -1.16368413 -1.08482051 20.0
-1.36484563 -1.11757505 0.19640771 20.0
1.22270656 -1.22820377 -1.16981804 20.0
-0.97180027 -0.80722123 -1.19962490 20.0
-0.10343283 1.31815755 1.03007257 20.0
-0.63274813 -0.55761379 1.45528245 20.0
0.25666875 -1.18296921 0.80898273 20.0
-0.11826022 -1.01742303 -1.11045647 20.0
-0.31046066 -0.82636452 1.02506125 20.0
-0.34080464 1.43029869 -0.38931161 20.0
1.41116333 -0.89161491 -0.55346668 20.0
0.21367925 -1.44515336 0.19315207 20.0
0.31863567 1.06588864 1.13291550 20.0
1.35520709 -1.06697404 0.63282925 20.0
0.84502572 0.70577157 1.35027826 20.0
0.84764564 1.44643784 -0.23133804 20.0
-0.85771400 0.87763965 1.18401527 20.0
1.38494635 -1.07724929 -1.09171283 20.0
-1.03725648 -1.33204126 -1.03915560 20.0
-0.47621876 0.98935115 1.16313982 20.0
-0.83310634 1.48458469 0.56191939 20.0
1.31695795 0.23071842 0.12169497 20.0
1.32317519 0.93461084 0.51895636 20.0
-1.37140036 -1.07715929 -1.30578256 20.0
1.25357568 -0.63288343 0.68871254 20.0
0.71558475 1.36644697 -0.73807991 20.0
1.37470412 -0.92043656 0.72267157 20.0
-0.77100319 -0.57205772 1.38865817 20.0
-0.08395676 -0.54868919 1.53741992 20.0
0.13320179 -0.86053234 -1.08065498 20.0
-1.40738106 -0.81163776 -0.09058753 20.0
0.71449029 0.68109661 -1.06558621 20.0
1.22388279 0.96123469 0.83146083 20.0
-1.32991862 1.05719995 -0.96649486 20.0
0.87845778 0.91210145 1.17470086 20.0
0.11370216 1.14752460 1.13696671 20.0
-1.34162426 0.97352976 -0.37117520 20.0
-1.32289195 -1.18762100 0.38683060 20.0
-0.33470359 0.50999659 -1.07122624 20.0
-1.39249682 -0.93075317 -0.96782798 20.0
1.03957868 1.07922590 -1.10856223 20.0
1.33177960 0.76550722 -1.59914279 20.0
-1.28708529 -0.51189697 -0.12825648 20.0
-1.27195346 -0.25601625 -0.56488538 20.0
1.10193062 0.36354801 0.91023421 20.0
1.22383738 0.92408264 0.83715189 20.0
1.28763676 -1.09675968 0.68248403 20.0
0.49777859 -1.55039620 -1.03431416 20.0
1.35528636 0.97292131 -0.85707849 20.0
1.18742537 -0.63373131 0.86451066 20.0
0.25933412 0.27482554 1.96270025 20.0
1.40099180 -0.96801895 -0.96782798 20.0
1.32639825 0.86165327 -1.63088238 20.0
-1.28637266 -0.51289463 -0.72512621 20.0
1.16778052 -1.45724344 -0.49113560 20.0
-0.59753561 -1.47739661 -1.05994225 20.0
0.59259450 -1.32304454 0.51348484 20.0
-0.59753561 -1.47739661 -1.05994225 20.0
-0.83795947 1.11408603 -1.04680073 20.0
-1.29032373 0.07507943 -0.36959314 20.0
-1.02316189 -0.42396981 1.11162639 20.0
-0.34435728 0.90837753 -1.04557121 20.0
0.98432648 -1.01436818 0.95784658 20.0
0.98196566 -0.76612073 -1.06589735 20.0
-0.59761059 -0.26415953 1.86141801 20.0
1.36059582 -1.02901196 0.66718686 20.0
-0.07929676 -1.18658102 0.79846954 20.0
1.34445810 1.11072123 -0.96092302 20.0
-1.31072497 1.26815867 0.48088402 20.0
0.39275590 -0.02302925 2.01462340 20.0
0.49140266 1.02492559 1.12875938 20.0
0.53791636 0.50810874 -1.06605184 20.0
1.33007193 0.89695907 -1.61352110 20.0
-1.02986264 0.58091545 -1.10226977 20.0
1.35603106 0.86165327 -0.85707814 20.0
1.32411277 0.36389452 0.11401176 20.0
0.99623460 1.41872931 0.85997778 20.0
-0.53937072 0.90522599 -1.04061782 20.0
0.09660053 -0.51930869 1.59430957 20.0
-1.34643722 0.93442190 -0.55346668 20.0
-1.11810768 -1.23394346 0.50247943 20.0
0.85475641 1.48218155 0.68464470 20.0
1.33699822 1.22657919 -0.89641881 20.0
-0.57903379 -1.32304454 0.51348484 20.0
1.37096477 -1.16392004 -0.85708010 20.0
-1.34247041 0.86165327 -0.85707814 20.0
0.09279185 -0.26758426 1.92890084 20.0
1.18777382 1.03146601 -1.42584515 20.0
-1.35740626 -1.16390729 -0.96783793 20.0
-0.56113267 -0.93205470 -1.08434236 20.0
-0.56271350 -0.89161497 -1.07572448 20.0
1.32410836 1.01359141 0.45802400 20.0
-1.22889447 0.48648345 0.67526180 20.0
0.94257897 -1.29922175 -1.03016078 20.0
0.83128864 0.51213014 1.63583112 20.0
0.70369285 0.38077131 -1.05994225 20.0
-0.74309415 1.08931816 1.08936334 20.0
0.95100671 -0.61102819 1.20270836 20.0
1.32633758 0.59806347 0.33077416 20.0
0.64683366 -0.57005984 1.43071461 20.0
0.48957193 1.14095926 1.08716834 20.0
-1.32383358 1.23608768 -0.68465918 20.0
0.98196566 -0.76612073 -1.06589735 20.0
-0.41552931 -1.53678036 -0.12623535 20.0
1.19069588 1.26880813 -0.86055952 20.0
0.11276392 -0.86600101 1.00283980 20.0
0.99943888 -0.90592724 1.01580536 20.0
-0.85054362 -1.27815235 -1.06121957 20.0
-0.83301258 1.37090909 -0.66816509 20.0
0.85104650 1.33050227 -0.80747545 20.0
0.88094372 -0.52561760 1.39828753 20.0
-0.62499154 0.95241320 1.19650328 20.0
1.30064595 -0.51189697 -0.12825648 20.0
-0.30438089 1.10545671 1.12043703 20.0
0.98436749 0.97303391 1.11891663 20.0
-0.95048368 -0.50810939 1.34681690 20.0
-1.03591931 0.93913954 -1.62272346 20.0
-1.34637046 0.93483645 -0.37117520 20.0
-0.11273880 0.68848032 -1.07233119 20.0
0.82312554 -0.69181275 1.19274461 20.0
0.41235182 -0.51674038 1.55799830 20.0
-1.32289195 -1.18762100 0.38683060 20.0
-0.83795947 1.11408603 -1.04680073 20.0
-1.29032373 0.07507943 -0.36959314 20.0
-1.33090186 1.11135936 -0.85237086 20.0
-0.90990156 0.63547939 -1.13281322 20.0
-1.34771168 0.76765519 -0.15622398 20.0
-1.31621575 1.16818571 -1.02562666 20.0
0.98085463 -0.86941552 -1.33052111 20.0
-0.85785478 -1.19420302 -1.14274991 20.0
-0.73297173 -1.53998375 -0.70833898 20.0
-1.34064746 0.97405344 0.05928103 20.0
-0.80300015 0.96139705 1.17469120 20.0
-1.15559089 1.39513803 0.57956868 20.0
-0.83306146 1.40064609 -0.50686496 20.0
1.28513777 1.06148565 0.60959125 20.0
-1.29985714 0.89721340 0.56425714 20.0
0.51962185 -0.37649792 1.74509227 20.0
1.35212255 -1.25440574 -0.71553463 20.0
0.88780898 -0.26376709 1.69057345 20.0
1.24250174 0.36374313 0.70288575 20.0
1.35985768 0.93525082 -0.15622398 20.0
0.97091794 0.69513607 1.19739938 20.0
-0.71254653 0.97736353 -1.03919077 20.0
0.79226410 1.42647803 0.86145633 20.0
1.37845671 -1.11834049 -1.28546000 20.0
-0.34019268 0.68635064 -1.06785357 20.0
1.23598862 0.23062253 0.71652979 20.0
-1.26233470 -0.75716925 -1.17616546 20.0
-1.37719762 -1.03911674 -0.55346668 20.0
0.35780305 0.84204805 -1.05763590 20.0
1.28908336 1.03630543 -1.38000226 20.0
-0.69456148 -1.01068842 1.01147449 20.0
1.26612628 1.13554811 0.70238841 20.0
1.19069588 1.26880813 -0.86055952 20.0
-0.10695846 -0.41185659 -1.11076057 20.0
1.02426982 1.31156290 -0.71378112 20.0
0.79999864 -0.02639408 1.92145383 20.0
-1.37153137 -1.07624090 -0.08214409 20.0
-0.74310875 -0.82494253 -1.07141066 20.0
0.54996037 1.34067941 -0.82068628 20.0
1.28313923 -0.51295596 -1.07768035 20.0
0.65007150 -1.16550708 0.84322244 20.0
-1.26989210 -0.25621018 -0.99020243 20.0
0.47251543 -0.90727949 1.02264309 20.0
1.20549011 -0.24357431 0.68886536 20.0
-1.15349114 -1.46113181 -0.64357102 20.0
1.33195114 0.59714705 -0.55346668 20.0
0.12051922 -0.41185659 -1.11076057 20.0
1.41956830 -0.81148988 0.22029534 20.0
-0.07432117 -1.27418637 0.63890719 20.0
-1.38955605 -0.76841652 0.47538596 20.0
-1.37725806 -1.03870189 -0.35991791 20.0
1.34396768 0.59788686 -0.96993816 20.0
0.11822766 1.38564467 0.95792532 20.0
-0.95591348 -1.49953592 -0.57722753 20.0
-0.53366411 1.40936315 -0.51713973 20.0
-1.15349114 -1.46113181 -0.64357102 20.0
1.39087224 -1.03828669 -0.07742289 20.0
0.55521148 -1.33263922 -1.06722975 20.0
-1.25006378 1.29500473 0.76651579 20.0
-1.26820791 -1.13806558 0.61084610 20.0
-0.52435559 0.50810874 -1.06605184 20.0
0.94047141 0.81547415 -1.40717959 20.0
-0.09778775 -0.70942694 1.20992136 20.0
0.27083859 -0.56488156 1.48651326 20.0
-1.32972395 1.05839407 -0.15773034 20.0
1.24879813 -0.96801895 -1.79769456 20.0
0.12190495 -0.53773415 -1.09661901 20.0
1.32536042 0.48614493 -0.37017077 20.0
0.71752268 1.49233389 0.63545060 20.0
1.40099180 -0.96801895 -1.09403563 20.0
-0.06303343 -1.56148648 -0.16620979 20.0
0.25620389 0.12030066 2.02577782 20.0
0.83962005 -0.64415389 -1.04974878 20.0
-0.11014259 0.24487022 -1.07604945 20.0
-1.19358432 -1.18760073 -1.40403354 20.0
1.17470276 -0.25621018 -1.11631846 20.0
1.35976434 0.89715266 -0.55346668 20.0
1.05826080 1.35584283 0.94696760 20.0
0.81656092 0.96139705 1.17469120 20.0
1.29241312 1.33248401 -0.16411777 20.0
0.13108106 -1.09247243 -1.11649704 20.0
1.38497388 -1.07707071 -0.55346668 20.0
1.37837493 -1.11881304 -0.71527517 20.0
-1.33337152 1.17398584 -0.70529538 20.0
-1.31839037 0.59714705 -0.55346668 20.0
1.30168962 1.20987666 0.63246137 20.0
1.13548374 0.73107457 0.87811852 20.0
-0.50823754 -1.17422664 0.83206183 20.0
1.05584323 -1.19378781 -1.32300365 20.0
-1.28593779 0.89821130 0.62235457 20.0
1.28577757 -0.25560069 -0.37705505 20.0
1.15515471 1.02321064 0.96134418 20.0
-1.34777260 0.76724029 -0.37117520 20.0
-1.15349114 -1.46113181 -0.64357102 20.0
1.37100637 -1.16368413 -1.08482051 20.0
-1.33502352 0.62664711 -1.23795617 20.0
1.33177960 0.76550722 -1.59914279 20.0
-1.31068087 -0.71021014 0.66812068 20.0
1.01767480 1.37298262 -0.37210295 20.0
1.29006386 1.12804461 0.61900008 20.0
0.92085707 0.49369165 -1.02731037 20.0
1.35724068 0.79893696 -0.71527517 20.0
0.85104650 1.33050227 -0.80747545 20.0
1.33277321 -0.62352365 -0.97174275 20.0
0.12823902 -1.33858871 -1.07692623 20.0
-1.20925140 1.34854937 0.79946291 20.0
0.87550783 -0.84369457 1.04440022 20.0
-0.10343283 1.31815755 1.03007257 20.0
1.30371273 0.07447007 -0.85897315 20.0
1.28726268 -1.40869403 -0.54831004 20.0
-1.34154785 0.97394407 -0.15622398 20.0
-1.06900084 0.92966223 1.03561640 20.0
-0.45208374 0.87039977 1.37128997 20.0
-1.40600753 -0.81148988 0.22029534 20.0
0.51273859 -0.02322080 1.99392402 20.0
-0.08876308 -0.63869661 1.35303628 20.0
-1.34173417 0.97287452 -1.08866131 20.0
-0.38440835 -0.37761816 1.76249754 20.0
1.34396768 0.59788686 -0.96993816 20.0
-0.73297173 -1.53998375 -0.70833898 20.0
1.30250621 1.12398601 0.56159437 20.0
1.08052099 -0.71062452 -1.05173612 20.0
0.13145676 -1.05508697 -1.11517394 20.0
0.93821043 -1.31489682 0.40865403 20.0
-0.11520918 -1.29889882 -1.08043361 20.0
1.02244294 -0.49508485 1.22989845 20.0
-1.27213132 -0.39349815 -0.87760943 20.0
-1.25413883 -0.25621018 -1.08672583 20.0
0.94047141 0.81547415 -1.40717959 20.0
1.33007193 0.89695907 -1.61352110 20.0
-0.31104723 -1.46923995 0.11849102 20.0
-1.01123738 0.68486935 1.08051395 20.0
-0.11314929 1.47402656 -0.03762239 20.0
0.93890572 0.84693003 -1.41254091 20.0
-0.11520918 -1.29889882 -1.08043361 20.0
1.31640613 -0.83071882 0.82473803 20.0
0.69918466 0.24174230 -1.05994225 20.0
1.33030152 0.93422842 -1.57969606 20.0
0.97784758 -0.90878457 -1.38029528 20.0
-1.32988262 1.05756593 -0.55334616 20.0
-0.07985450 -0.37935847 1.80452681 20.0
-1.12447917 -1.20441544 0.57836413 20.0
-1.31921244 -0.62352365 -0.97174275 20.0
-1.39250052 -0.93072551 -0.71527517 20.0
-1.06360471 1.07811570 1.06459773 20.0
0.80803937 1.46151102 0.79423749 20.0
1.21198523 0.89695907 -1.77374065 20.0
1.37104571 -1.16076875 0.29206094 20.0
-1.37716937 -1.03930736 -1.09347999 20.0
1.05587649 1.23498654 -0.91194767 20.0
0.13342935 -0.83214682 -1.07963169 20.0
0.80789834 -0.40593547 -1.07769489 20.0
1.35528672 0.97291917 -0.96782988 20.0
0.41832745 -1.09549999 0.92637640 20.0
0.93890572 0.84693003 -1.41254091 20.0
-1.32289195 -1.18762100 0.38683060 20.0
0.54785758 1.45516014 -0.23658216 20.0
-1.34091556 -1.24149191 0.05418364 20.0
1.36278546 -1.20791090 0.01239881 20.0
-0.34435728 0.90837753 -1.04557121 20.0
-0.30089778 -0.86645240 1.01116049 20.0
0.70386499 -0.53290159 1.50680256 20.0
1.33754349 1.24255228 -0.53911650 20.0
-0.72269046 -0.93814260 1.04204953 20.0
-0.69030422 -0.53290159 1.50680256 20.0
0.84672689 1.48225248 0.38174793 20.0
-0.93685687 0.36987200 1.51993430 20.0
-0.83481246 1.46738863 -0.05078671 20.0
0.71518862 1.49039721 0.37810200 20.0
-0.71709853 -1.26385975 -1.07429039 20.0
-0.36089101 -0.83009064 -1.07509971 20.0
-0.98202801 -0.39069483 1.27442157 20.0
-0.71040314 1.28622723 -0.92315894 20.0
1.36002851 0.93422842 -0.85707814 20.0
0.77157754 -0.52571225 1.49135005 20.0
-0.24472713 -0.37854871 1.78497028 20.0
-0.82471114 0.83242083 1.23170984 20.0
1.29069245 0.23067230 0.59344703 20.0
-1.17079151 0.23057869 0.79050952 20.0
0.55479354 1.22604775 -0.99666172 20.0
0.97736323 1.08545089 1.15744269 20.0
-0.64191258 -0.82765853 1.03110075 20.0
0.51528221 0.11892951 1.97794855 20.0
-1.31714547 0.97350621 0.45981583 20.0
-1.32383358 1.23608768 -0.68465918 20.0
1.29763174 0.36382174 0.58180088 20.0
-0.62462926 -0.51152825 1.54271603 20.0
-1.01409459 0.07507069 -1.04432797 20.0
0.75933427 0.71033645 1.44524384 20.0
-1.01211226 1.42779529 0.69512779 20.0
1.03588986 -0.58343065 1.11309433 20.0
0.79258853 -1.14939976 0.84811085 20.0
-0.80392802 -0.52963483 -1.06432939 20.0
1.34429932 0.79985273 0.38003370 20.0
0.84820694 0.67536169 -1.10620522 20.0
-1.17515385 -0.51311493 -1.10602880 20.0
-1.32988262 1.05756593 -0.55334616 20.0
-0.41561213 -1.05693936 0.96200824 20.0
1.30990958 -1.19259167 -1.36387527 20.0
-1.15834177 -0.93964630 0.91991150 20.0
1.32539368 0.48572960 -0.55346668 20.0
-1.34646773 0.93422842 -1.09136021 20.0
1.29600084 0.86294341 0.62353116 20.0
-1.19922090 -0.08631700 0.70010132 20.0
-1.28606641 0.93541223 0.61986971 20.0
1.17079604 1.39283001 0.09364027 20.0
-1.31055200 0.36389452 0.11401176 20.0
1.29938304 -0.51292348 -0.86927480 20.0
1.30379474 0.07449777 -0.71675283 20.0
1.30379474 0.07449777 -0.71675283 20.0
-1.33576226 0.67557633 -0.71527517 20.0
-0.56405938 -0.85594541 -1.07089877 20.0
0.74776822 0.90745366 1.23838496 20.0
1.14168429 -0.47537625 0.88605744 20.0
1.33308828 -0.62328941 -0.55532348 20.0
-0.74678820 -0.49769822 1.55057240 20.0
1.35230303 -1.25341141 -0.21250892 20.0
1.16800439 -0.97538799 0.90039372 20.0
-0.73234564 -0.70544261 1.17431748 20.0
-0.86753732 1.01765680 1.17811549 20.0
-1.32170463 0.48575944 -0.96837085 20.0
0.63708270 0.53423327 1.70799601 20.0
0.54094893 0.65417808 -1.06147575 20.0
1.35979342 0.89695907 -0.96782798 20.0
-1.38238668 -1.00375199 -0.85707814 20.0
-0.31104723 -1.46923995 0.11849102 20.0
0.99558878 -0.39069483 1.27442157 20.0
1.34920371 0.67657262 -0.15622398 20.0
1.13803983 -1.20441544 0.57836413 20.0
1.34347832 1.05733812 -0.85614622 20.0
0.35731936 0.87446243 -1.05169523 20.0
1.32718182 1.10844815 -1.06154287 20.0
-0.11084801 0.51163948 -1.07572925 20.0
0.49586913 1.24073231 1.04473615 20.0
1.36298692 0.72780687 -0.96825874 20.0
-1.27210414 1.34693766 0.58087313 20.0
0.72168887 0.86791801 -1.05909920 20.0
-1.12192309 0.73107457 0.87811852 20.0
1.31031096 1.28737140 0.62673962 20.0
-1.37647855 -1.03812230 0.46079624 20.0
1.38492119 -1.07609630 0.22703463 20.0
1.25775242 -0.89180869 -1.71670735 20.0
-0.57766557 -0.98235017 1.02057958 20.0
-0.33462256 1.48037541 0.74903750 20.0
-0.99559146 -0.78811973 1.02664220 20.0
-1.12447917 -1.20441544 0.57836413 20.0
1.14905465 1.10689771 0.96825898 20.0
-0.46527728 -1.29964399 0.58628350 20.0
1.36945343 0.68097961 -1.27240682 20.0
1.33791494 1.24998152 -0.36926463 20.0
-1.19039273 -1.20921373 -1.27955878 20.0
-0.35942331 -1.26425314 0.66232151 20.0
-0.75801682 -0.52571225 1.49135005 20.0
1.04710615 0.80278146 -1.68911171 20.0
-0.52491498 0.53886086 1.71392262 20.0
0.27017424 0.65986449 1.65253019 20.0
-0.34073237 1.49206936 0.58432722 20.0
-0.11273880 0.68848032 -1.07233119 20.0
0.10208572 0.81537443 1.52156389 20.0
-0.86194706 -0.84369457 1.04440022 20.0
-0.25042886 -1.14036000 0.86919105 20.0
-0.86886817 -0.75993299 1.08385694 20.0
-0.47621876 0.98935115 1.16313982 20.0
-0.86212826 1.09295070 1.21165371 20.0
-1.17108762 -1.43437648 -1.05336440 20.0
1.28345275 -0.25621018 -0.99020243 20.0
0.99437690 -0.94314754 1.00520098 20.0
0.98119015 0.90540475 1.09077120 20.0
-1.38252413 -1.00272810 -0.07424518 20.0
0.47883797 -1.29964399 0.58628350 20.0
-1.30594373 1.05901635 0.45698568 20.0
0.67987478 0.40049869 1.83690166 20.0
-0.74031389 0.62859184 1.57837856 20.0
0.85152018 1.11408603 -1.04680073 20.0
-1.32694781 0.67664826 0.30367106 20.0
0.69128585 0.52539736 1.72378492 20.0
1.15287042 0.79073679 0.87108594 20.0
0.35436538 1.43029869 -0.38931161 20.0
1.02495468 0.82341272 1.02617681 20.0
0.61564541 -0.37399969 1.74264503 20.0
0.98085463 -0.86941552 -1.33052111 20.0
-1.37081754 -1.07607889 0.43733504 20.0
1.35286474 -1.25032794 -0.07101434 20.0
0.70369285 0.38077131 -1.05994225 20.0
0.25620389 0.12030066 2.02577782 20.0
-0.24310797 -1.18296921 0.80898273 20.0
1.41113865 -0.89180869 -0.85707814 20.0
0.77625102 -0.54241407 1.45196664 20.0
0.51273859 -0.02322080 1.99392402 20.0
-0.34991106 -0.73929888 -1.07181239 20.0
0.97877926 -1.05229151 0.92258984 20.0
1.16339183 1.39078927 0.75239426 20.0
-1.36456859 -1.07424462 0.54545832 20.0
-0.63510901 0.73350430 1.49983275 20.0
-1.16953862 0.72683042 0.78429300 20.0
-1.32471895 1.25606871 -0.17814776 20.0
-1.13502991 1.30173290 0.91869414 20.0
0.22884324 -1.34515119 0.47703648 20.0
0.55760866 -1.29201162 -1.07068110 20.0
0.66288483 0.11506840 1.99015272 20.0
0.48977950 0.98935115 1.16313982 20.0
-0.87549609 -0.96242356 -1.18835163 20.0
-1.02521729 1.30871260 1.00503874 20.0
1.40005255 -0.96682632 0.48778173 20.0
0.51929355 -0.26607338 -1.09702814 20.0
-1.33885515 0.86272043 0.24254923 20.0
-1.27310264 -1.41159475 -0.70191061 20.0
0.79999864 -0.02639408 1.92145383 20.0
-0.53721493 1.08329558 -1.03033388 20.0
-0.34821919 -1.27203953 -1.08180094 20.0
-0.96113348 -0.94850999 -1.41489112 20.0
1.27342331 -0.39705423 0.39130986 20.0
-0.90639579 0.58939546 -1.05960941 20.0
0.75145113 -0.92888337 -1.09331882 20.0
0.56187898 -1.57087171 -0.73132277 20.0
-1.35112333 -0.78890634 -1.36906707 20.0
0.09750966 0.66192102 1.67613983 20.0
1.36278546 -1.20791090 0.01239881 20.0
-0.82158577 0.50158083 -1.04639351 20.0
1.39072943 -1.03931046 -0.96782798 20.0
-0.11023121 -1.40220261 -1.07604945 20.0
-0.90929812 1.34956110 -0.64514375 20.0
0.21367925 -1.44515336 0.19315207 20.0
-1.40257025 -0.85191268 -0.85707849 20.0
0.98025858 -0.06158543 1.35662854 20.0
-1.29848957 1.01333392 0.51388568 20.0
-1.38743114 -0.96801895 -0.96782798 20.0
-1.39769912 -0.89078426 -0.08123618 20.0
0.39352667 -0.14754234 1.97446311 20.0
-1.25922179 -1.41682661 -1.03413832 20.0
1.05461121 0.48611340 1.01030731 20.0
0.12446738 0.38524595 -1.07604945 20.0
1.37096477 -1.16392004 -0.85708010 20.0
0.53818107 0.38246295 -1.06636691 20.0
1.36127245 0.76765519 -0.15622398 20.0
-1.34629691 0.93525082 -0.15622398 20.0
1.36153817 0.72822058 -0.37117520 20.0
0.71871328 1.33885765 -0.81902838 20.0
-1.34247041 0.86165327 -1.09409666 20.0
1.34328461 1.05839407 -0.15773034 20.0
-0.11299035 1.36636651 -0.74308819 20.0
1.04729164 0.69125658 -1.49606752 20.0
1.34429932 0.79985273 0.38003370 20.0
-1.25980544 0.90523326 0.70830041 20.0
-1.17706656 0.36367390 0.77542788 20.0
-0.97045970 1.01023424 1.13166809 20.0
1.02495468 0.82341272 1.02617681 20.0
1.00640225 0.60077727 1.14287090 20.0
1.41615462 -0.85171831 -0.55346668 20.0
-0.77393019 -0.82170933 1.03869092 20.0
-1.00411403 1.37298262 -0.37210295 20.0
1.33827960 1.25606871 -0.17814776 20.0
1.03812909 0.62566274 -1.22533941 20.0
1.34040201 -1.29710090 -0.39321721 20.0
0.71712250 1.48454809 0.71300566 20.0
1.26940382 -0.39349815 -1.08923912 20.0
-0.72269046 -0.93814260 1.04204953 20.0
0.12647027 1.40800035 -0.51280481 20.0
0.07687330 -1.54100895 -0.06430850 20.0
-0.99284160 0.60077727 1.14287090 20.0
-0.54404789 -1.29201162 -1.07068110 20.0
-0.53745741 1.49172533 0.67542195 20.0
0.86625469 -1.25445366 -1.08471549 20.0
-1.33078361 1.11212611 -0.37225112 20.0
-1.39252269 -0.93055946 -0.55346668 20.0
-0.88373166 -0.55450743 1.31335294 20.0
0.57069314 0.80663592 1.43088198 20.0
1.27568817 -1.17641783 0.52351099 20.0
1.01655447 -0.09302934 -1.05594993 20.0
1.26904249 0.98102260 0.70017862 20.0
-0.34394735 1.05834317 -1.03043342 20.0
1.31618237 -0.62371886 -1.06487691 20.0
0.74527878 -0.62110072 1.32888675 20.0
-1.31072497 1.26815867 0.48088402 20.0
0.93894625 1.25666595 -0.89404315 20.0
0.92421728 1.33741951 -0.70267791 20.0
0.09285752 -1.18658102 0.79846954 20.0
0.35916039 0.94548869 -1.03903532 20.0
-1.33874238 -1.25341141 -0.21250892 20.0
-1.37716877 -1.03931046 -0.96782798 20.0
1.29509568 0.97403890 0.61637408 20.0
-0.60362989 0.26984116 1.90927553 20.0
-1.31445348 -1.34736514 -0.40268251 20.0
0.93710202 -1.37905979 0.20547327 20.0
-1.25986254 -0.39705423 0.39130986 20.0
0.97275376 -1.09289324 0.87774569 20.0
1.34925747 0.67615759 -0.37117520 20.0
0.33629113 -0.26664901 -1.10272110 20.0
-0.82640409 1.27539146 1.07265377 20.0
-0.90929812 1.34956110 -0.64514375 20.0
1.33158112 0.86233205 0.46246180 20.0
1.24070048 -1.31657577 0.10207362 20.0
0.32123089 1.24468255 1.06952488 20.0
1.17190254 -0.93964630 0.91991150 20.0
1.25777078 -0.77604026 -1.29082012 20.0
1.32171774 0.48665732 0.35750985 20.0
-1.08102024 0.23049897 0.92512316 20.0
-1.31802046 0.86233205 0.46246180 20.0
-1.04417717 -0.52063024 1.14504397 20.0
-1.34646773 0.93422842 -0.85707814 20.0
-0.79399949 -0.25804347 1.79298496 20.0
-0.92901820 -1.29922175 -1.03016078 20.0
-0.63327289 -0.57005984 1.43071461 20.0
-0.83457983 1.47772729 0.14892817 20.0
-1.32647693 -1.29885316 -0.96776646 20.0
-0.88073224 -0.88210857 -1.14973986 20.0
0.68362111 1.46980023 0.76989782 20.0
0.85758966 0.82878733 -1.15854061 20.0
1.22212672 1.22419822 -0.96746987 20.0
-1.38157666 -1.00256157 0.47828650 20.0
-0.99284160 0.60077727 1.14287090 20.0
1.07824910 0.74462056 0.98554528 20.0
-0.25727782 -0.56488156 1.48651326 20.0
0.95044422 -1.21098256 -1.20148683 20.0
1.18500686 1.04970908 -1.30233467 20.0
-1.38157666 -1.00256157 0.47828650 20.0
1.20866418 0.86165327 -1.79938054 20.0
-0.90785605 0.37134039 -1.02219903 20.0
0.88109809 1.01765680 1.17811549 20.0
-1.16774833 -0.09279137 -1.10157764 20.0
-0.08130500 -0.46592018 1.68431306 20.0
-1.21027672 0.92408264 0.83715189 20.0
1.41116333 -0.89161491 -0.55346668 20.0
1.35979342 0.89695907 -0.96782798 20.0
0.88093424 0.10117649 1.81007671 20.0
1.13691258 0.85040951 0.91327959 20.0
-0.54856837 -1.20732605 -1.08871663 20.0
-1.36456859 -1.07424462 0.54545832 20.0
1.32500088 0.36293307 -0.55346668 20.0
0.71634203 1.48585367 0.14376740 20.0
1.21219325 0.93422842 -1.72378588 20.0
-1.24846661 -0.85309577 -1.63593197 20.0
-0.50172150 0.11892951 1.97794855 20.0
-1.20206976 0.72723913 -1.68625450 20.0
-1.35748506 -1.16076875 0.29206094 20.0
-1.31184578 0.48556340 -0.71527517 20.0
1.34347308 1.05740023 -0.71479315 20.0
-1.27515996 -1.40199220 -0.39585856 20.0
-0.08876308 -0.63869661 1.35303628 20.0
-1.39533269 -0.77061445 -1.08170104 20.0
-0.10031667 1.19052780 1.12595618 20.0
-1.10632896 -0.22865403 0.79874921 20.0
-1.29030573 0.07466397 -0.55458069 20.0
0.89692289 0.38105401 1.65534067 20.0
1.31618237 -0.62371886 -1.06487691 20.0
-0.36257875 -1.55549586 -1.04031825 20.0
1.01870179 1.39627993 -0.21876928 20.0
-1.15379286 -1.46094763 -0.98200238 20.0
-1.33568037 -1.10765648 0.58191502 20.0
0.94316298 0.78108531 -1.38903058 20.0
0.80347860 -1.10823047 0.90771723 20.0
0.12091878 -0.09490035 -1.09147668 20.0
-1.36673462 -0.89180869 -1.57490301 20.0
-0.54123282 1.22604775 -0.99666172 20.0
-0.96824044 -0.18885873 1.31578350 20.0
0.74662554 -1.51849580 -0.25167000 20.0
0.94495797 -1.40600944 0.11691024 20.0
-0.08424612 -0.57887095 1.47636902 20.0
-0.84022152 -0.92195487 1.04624927 20.0
-1.18889666 0.82670164 0.81342602 20.0
0.75319088 -1.53739309 -0.92007071 20.0
1.22886920 0.58849496 -1.17751038 20.0
-1.21969235 0.49356839 -1.09987938 20.0
1.34336424 1.17913389 0.21861920 20.0
-1.28706563 -0.51231271 -0.37169331 20.0
1.08487630 -0.93519241 -1.67479789 20.0
1.39585459 -1.00258243 0.24996698 20.0
-0.11304966 1.45341504 -0.22595277 20.0
1.33729529 1.23074460 -0.80683815 20.0
-0.85054362 -1.27815235 -1.06121957 20.0
1.17957342 -0.86342055 0.93156433 20.0
-1.38743114 -0.96801895 -0.96782798 20.0
-1.04231584 1.23498654 -0.91194767 20.0
-0.68994689 0.72162491 1.48930669 20.0
0.56415498 -1.16721821 -1.09579730 20.0
0.88905680 -0.96242356 -1.18835163 20.0
-0.11899286 -0.93709457 -1.09431684 20.0
0.21040820 -1.59661770 -0.85966194 20.0
-0.68451214 0.63867766 1.60074663 20.0
-1.40230250 -0.76799190 -0.09113237 20.0
-1.25193846 -0.09010384 0.58262831 20.0
0.89173603 -0.92208493 -1.17138100 20.0
-0.53474677 1.47603941 -0.05257518 20.0
-1.33337152 1.17398584 -0.70529538 20.0
-0.95769954 -1.48441231 -0.27268907 20.0
0.27103707 -0.57751191 1.46100903 20.0
1.02106595 -0.56480622 1.16352773 20.0
0.57196307 -1.38119018 0.33275625 20.0
1.31468844 -1.25738978 0.19414224 20.0
1.21964383 0.99979037 0.82719773 20.0
0.70728463 0.65148133 -1.06036711 20.0
-0.08424612 -0.57887095 1.47636902 20.0
-1.27826512 1.33702767 0.03253972 20.0
1.29069245 0.23067230 0.59344703 20.0
-0.11151328 -0.65426964 -1.08119190 20.0
-0.40293163 -0.54594707 1.50273669 20.0
0.55392987 1.28981841 -0.92082030 20.0
0.41645685 0.65750122 1.62539959 20.0
0.20953052 -1.57305014 -0.29229328 20.0
-0.11789599 -1.05508697 -1.11517394 20.0
-1.31381917 0.48558047 -0.85718668 20.0
-0.92246687 -1.34677875 0.30948323 20.0
0.93710202 -1.37905979 0.20547327 20.0
-1.32881963 1.05849934 0.05624462 20.0
1.33316255 -0.62287378 -0.36559519 20.0
-1.30588198 0.86212099 0.52130890 20.0
-0.53901082 1.49079728 0.69417781 20.0
-0.70278132 1.48585367 0.14376740 20.0
1.36133325 0.76724029 -0.37117520 20.0
0.43066177 -1.51378787 -0.02327077 20.0
-0.96713138 1.04812300 1.14703190 20.0
-0.96380252 1.08545089 1.15744269 20.0
0.74590641 -0.70544261 1.17431748 20.0
-1.35652423 -0.95770806 0.71293622 20.0
-1.27563930 1.33723009 0.25247374 20.0
-0.55059421 -1.16721821 -1.09579730 20.0
-1.31445348 -1.34736514 -0.40268251 20.0
1.28046322 -0.25597864 0.37348354 20.0
1.26293457 1.02105892 0.69625205 20.0
-1.27492058 -0.09162211 0.38022268 20.0
-1.20206976 0.72723913 -1.68625450 20.0
0.93004119 1.30963802 -0.78556138 20.0
-1.34178543 0.97259247 -1.28440785 20.0
-1.21032214 0.96123469 0.83146083 20.0
0.33629113 -0.26664901 -1.10272110 20.0
1.36678565 -0.71096224 -1.07060492 20.0
1.26769960 -0.25621018 -1.08672583 20.0
-1.37711036 -1.03814161 0.24048746 20.0
0.77784204 1.29579461 0.99472654 20.0
-1.34804881 0.72763950 -0.71527517 20.0
1.23325300 0.49356839 -1.09987938 20.0
1.30388439 0.07507943 -0.36959314 20.0
0.69128585 0.52539736 1.72378492 20.0
1.24250174 0.36374313 0.70288575 20.0
-1.31054771 1.01359141 0.45802400 20.0
-1.38940561 -0.88876736 0.61841840 20.0
-1.23078585 -1.00375199 -1.80192828 20.0
-0.81991160 -1.38413048 -1.04488850 20.0
0.43095273 -1.58499002 -0.74296832 20.0
-0.22866344 -1.26956439 0.64980203 20.0
-1.24819934 -1.36288714 -0.06012270 20.0
-1.38730156 -0.96684873 0.25350809 20.0
-0.33265570 0.24396172 -1.07154405 20.0
0.50443399 1.31078005 0.98729259 20.0
-1.08836997 0.36354801 0.91023421 20.0
-1.28407109 0.36382174 0.58180088 20.0
0.27019709 -0.54741329 1.52128160 20.0
1.39594734 -1.00375199 -0.96782798 20.0
1.32698333 -1.35205364 -0.71629840 20.0
-1.34369349 0.79882520 -1.32023466 20.0
-0.98656577 0.36425141 1.28234160 20.0
-0.06360752 -1.48757017 0.09430449 20.0
1.01939738 1.42539024 0.16049059 20.0
-0.34092295 1.36682534 -0.74211812 20.0
1.32171774 0.48665732 0.35750985 20.0
-0.26478902 -1.05934203 0.95030421 20.0
-0.92388916 1.02537489 -1.25609934 20.0
0.87869275 0.77035004 1.21803927 20.0
-1.14572620 0.94770855 0.96631002 20.0
1.34359586 0.83031791 0.37404710 20.0
-0.93241024 -1.25928795 -1.06343877 20.0
1.13623774 -0.73966825 0.99677050 20.0
0.44981310 -0.98455513 1.01006866 20.0
1.39072943 -1.03931046 -0.96782798 20.0
0.09660053 -0.51930869 1.59430957 20.0
-0.85490304 -1.22894847 -1.11337507 20.0
1.28658926 1.33854628 0.42599505 20.0
-0.73570418 -0.96953851 -1.10328162 20.0
-0.74118376 1.12776184 1.08784926 20.0
1.25637186 0.80702275 0.71070576 20.0
0.12655112 1.36636651 -0.74308819 20.0
1.33196700 0.59698093 -0.71527517 20.0
0.41749018 -0.56335992 1.46848774 20.0
-1.04075837 -1.24027729 -1.10121369 20.0
-0.83673394 1.34520102 1.00771832 20.0
1.40099180 -0.96801895 -0.85707814 20.0
1.13691258 0.85040951 0.91327959 20.0
1.30370080 0.22966315 -1.06090891 20.0
1.35999799 0.93442190 -0.55346668 20.0
-0.33487380 0.38395104 -1.07154405 20.0
-1.29015207 0.07447007 -0.85897315 20.0
0.39545077 -1.17881894 0.82106411 20.0
-0.30971521 -1.52318847 -0.03654166 20.0
1.29080772 -0.09162643 0.11460365 20.0
1.41578186 -0.76882303 -0.55346668 20.0
-0.06501306 -1.59628296 -0.96820420 20.0
1.18464839 -1.43437648 -1.05336440 20.0
-1.08836997 0.36354801 0.91023421 20.0
-0.90785605 0.37134039 -1.02219903 20.0
-0.65718836 1.43547893 0.83788311 20.0
1.28569198 -0.39349815 -0.87760943 20.0
-1.20252514 1.29706049 0.84696579 20.0
-0.84402895 0.82878733 -1.15854061 20.0
0.94014388 0.87984228 -1.40655959 20.0
1.34298587 -1.14913476 0.49510875 20.0
-1.26351249 1.26510453 -0.87367207 20.0
-1.09535444 -1.35625362 0.13243604 20.0
0.28492558 -1.02269685 0.97852993 20.0
1.19069588 1.26880813 -0.86055952 20.0
1.13691258 0.85040951 0.91327959 20.0
0.48977950 0.98935115 1.16313982 20.0
1.15757167 0.59734529 0.77606285 20.0
-1.39758146 -0.89178103 -0.71527517 20.0
1.35498679 0.86279070 0.05928103 20.0
0.32673752 1.31472468 1.01016688 20.0
1.31341791 0.89721340 0.56425714 20.0
0.35846213 1.48661339 0.74316806 20.0
-1.29675031 1.28737140 0.62673962 20.0
-0.92388916 1.02537489 -1.25609934 20.0
-1.22585905 1.22496140 0.80773109 20.0
1.33186245 0.59797752 -0.15446639 20.0
1.04620469 0.97627711 -1.54985893 20.0
-1.34178543 0.97259247 -1.28440785 20.0
0.43120360 -1.48768723 0.05458431 20.0
1.34429932 0.79985273 0.38003370 20.0
1.29909194 -0.51292807 -0.98250836 20.0
-0.82268262 -0.44716319 1.55739129 20.0
0.92008543 0.70234108 1.26697457 20.0
1.36146164 0.76621091 -1.31059170 20.0
-1.35181999 -1.15728605 0.39599314 20.0
-1.25990856 0.94241470 0.70440137 20.0
-0.74577355 0.71033645 1.44524384 20.0
1.28782880 0.07447007 -1.06347799 20.0
0.52809381 0.08041403 -1.06935823 20.0
-0.73352474 -1.00844121 -1.11079180 20.0
1.15515471 1.02321064 0.96134418 20.0
0.54729342 1.49322844 0.56983811 20.0
0.93732446 1.37624133 0.99072939 20.0
0.12798946 1.02656424 -1.03372777 20.0
0.09039161 -1.22984076 0.72336382 20.0
-1.24562562 -0.71045375 -1.10182023 20.0
-0.37996590 -0.14754234 1.97446311 20.0
-0.95643258 -1.49497890 -0.42400992 20.0
-1.17421317 1.03146601 -1.42584515 20.0
1.09128487 1.38027692 0.88839239 20.0
1.09128487 1.38027692 0.88839239 20.0
-1.38465345 -0.92771566 0.62194127 20.0
-1.31372273 -1.35064232 -0.56062871 20.0
-0.91083497 1.45311618 0.77760667 20.0
-0.33470359 0.50999659 -1.07122624 20.0
0.67894590 -0.26536581 -1.09015894 20.0
0.11605799 -0.82523209 1.02269566 20.0
-1.21969235 0.49356839 -1.09987938 20.0
-0.71438682 -0.36425722 1.75167143 20.0
0.53787941 0.60672843 -1.06416118 20.0
-0.86764354 0.98039466 1.16932273 20.0
-1.22713983 -1.31657577 0.10207362 20.0
1.36140859 0.76665932 -0.71527517 20.0
-1.31054771 1.01359141 0.45802400 20.0
-1.32165051 0.89760721 0.46185121 20.0
-1.16774833 -0.09279137 -1.10157764 20.0
1.37196076 -1.11510122 0.49458325 20.0
-0.11314929 1.47402656 -0.03762239 20.0
-0.98656577 0.36425141 1.28234160 20.0
1.28662062 -0.39347047 -0.73189867 20.0
1.37812924 -1.07424462 0.54545832 20.0
0.85705632 1.48097312 0.70570564 20.0
-1.33528244 1.01139104 -1.26015043 20.0
-0.96428680 -0.90878457 -1.38029528 20.0
-1.18889666 0.82670164 0.81342602 20.0
-1.34884894 -1.21044981 -0.85709691 20.0
0.64024723 1.17932224 1.06068861 20.0
1.42083538 -0.81263494 -0.71527517 20.0
0.09039161 -1.22984076 0.72336382 20.0
-0.22150704 -1.31159985 0.56201315 20.0
0.11374810 0.99329180 1.19928110 20.0
-1.14941955 -0.08269796 0.76849258 20.0
-0.10249723 -0.82523209 1.02269566 20.0
0.12671006 1.47402656 -0.03762239 20.0
-1.19842458 0.89695907 -1.77374065 20.0
-1.33707213 -1.22989821 0.17512463 20.0
-0.62352192 0.53423327 1.70799601 20.0
0.39472777 0.11964890 1.99903452 20.0
-0.10546614 1.43883514 0.88419038 20.0
-1.34832692 0.72765082 -0.85716426 20.0
-0.99506426 -0.82722098 1.01562619 20.0
0.69049454 0.07983979 -1.06289017 20.0
-1.39252269 -0.93055946 -0.55346668 20.0
0.87141550 -1.19420302 -1.14274991 20.0
0.12811103 0.76934963 -1.07605374 20.0
1.37375760 -0.80233198 0.73401159 20.0
0.09828778 -0.59732473 1.43861246 20.0
-1.14589465 1.16488564 0.95104027 20.0
1.41576159 -0.76902115 -0.85709739 20.0
-1.34353840 0.79993266 -0.15622398 20.0
-1.31802046 0.86233205 0.46246180 20.0
-0.53474677 1.47603941 -0.05257518 20.0
-0.40647307 0.74274319 1.54060960 20.0
-0.72130960 -1.20313632 -1.09295344 20.0
-1.27370203 -1.40869403 -0.54831004 20.0
-1.01211226 1.42779529 0.69512779 20.0
-1.34247041 0.86165327 -1.09409666 20.0
1.11333871 1.24119961 0.98516279 20.0
-0.10031667 1.19052780 1.12595618 20.0
0.35750809 1.05834317 -1.03043342 20.0
-1.31183290 0.48572960 -0.55346668 20.0
1.28046322 -0.25597864 0.37348354 20.0
-0.53590053 1.12776351 -1.03647089 20.0
-1.19039273 -1.20921373 -1.27955878 20.0
-1.32134473 1.05579567 -1.08080995 20.0
0.93894625 1.25666595 -0.89404315 20.0
-1.27163303 -0.39349815 -0.99234784 20.0
-1.30458724 0.36325416 -1.06068623 20.0
0.80869162 0.89206666 1.22859824 20.0
1.35603106 0.86165327 -0.96782798 20.0
-0.11710679 -1.13209963 -1.11305845 20.0
1.34685183 1.17081761 -0.94237447 20.0
-1.28153503 0.97403890 0.61637408 20.0
-0.90729642 0.49369165 -1.02731037 20.0
0.92359382 -0.46101853 1.44054997 20.0
1.20714509 -1.18760073 -1.40403354 20.0
1.14859068 1.30173290 0.91869414 20.0
-1.34074795 0.60561180 -1.08530748 20.0
0.31835926 1.02758932 1.15131998 20.0
0.54645395 0.68390346 -1.06270814 20.0
0.71998435 1.07901120 -1.03420568 20.0
-0.32535067 1.46987772 0.79730719 20.0
1.38494635 -1.07724929 -1.09171283 20.0
-0.88457066 -0.81895316 -1.10415709 20.0
-0.63651073 -1.16550708 0.84322244 20.0
-1.04675210 0.59757388 0.97739768 20.0
0.96999323 -1.49497890 -0.42400992 20.0
0.35424906 1.40863442 -0.51482195 20.0
-0.32457194 -0.09487358 -1.08675230 20.0
1.36148012 0.72863555 -0.15622398 20.0
0.32201573 -1.54548991 -0.13928334 20.0
-1.40259397 -0.85171831 -0.55346668 20.0
1.36146164 0.76621091 -1.31059170 20.0
-0.34595144 0.98466384 -1.03314459 20.0
1.16842866 1.39438856 0.32349241 20.0
-1.32435417 1.24998152 -0.36926463 20.0
-1.28577459 -1.32387960 -0.02496324 20.0
-0.54856837 -1.20732605 -1.08871663 20.0
1.01767480 1.37298262 -0.37210295 20.0
1.35518503 0.97352976 -0.37117520 20.0
-1.40226531 -0.76840758 -0.36187631 20.0
0.87568897 1.09295070 1.21165371 20.0
1.41576660 -0.76903802 -0.96792418 20.0
0.13021971 -1.17365754 -1.10595787 20.0
-0.88126987 -0.37448889 1.56486642 20.0
0.78456396 -0.57205772 1.38865817 20.0
1.29069245 0.23067230 0.59344703 20.0
0.26753494 -0.51811361 1.57741368 20.0
-0.54800886 -0.73722398 -1.06663299 20.0
-1.11875212 0.07791920 0.84214622 20.0
1.07352865 -1.04420376 -1.68757844 20.0
1.03812909 0.62566274 -1.22533941 20.0
0.12798639 1.48738563 0.74441469 20.0
1.35230303 -1.25341141 -0.21250892 20.0
-0.90929812 1.34956110 -0.64514375 20.0
0.83827192 0.83242083 1.23170984 20.0
-0.79399949 -0.25804347 1.79298496 20.0
0.84814054 1.47772729 0.14892817 20.0
-1.00514114 1.39627993 -0.21876928 20.0
1.41113865 -0.89180869 -0.85707814 20.0
-1.15904427 -1.43492281 -0.20697741 20.0
1.02426982 1.31156290 -0.71378112 20.0
-0.44727433 -0.94675559 1.02107847 20.0
-0.85054362 -1.27815235 -1.06121957 20.0
-1.00402081 1.33494723 -0.58941436 20.0
-1.26690245 -0.25597864 0.37348354 20.0
-0.82055694 -0.99456793 1.01590431 20.0
0.12759288 1.06149971 -1.03463066 20.0
1.15304291 -0.36466441 0.78563839 20.0
-0.33265570 0.24396172 -1.07154405 20.0
1.31341791 0.89721340 0.56425714 20.0
-0.26989815 0.81285369 1.49283445 20.0
-0.97140479 0.08225445 1.36625564 20.0
1.28782880 0.07447007 -1.06347799 20.0
-1.34231365 0.86267614 -0.15622398 20.0
-1.36863232 -0.70933563 -0.96806967 20.0
-0.34188315 1.49165547 0.66170496 20.0
0.89429295 -0.88210857 -1.14973986 20.0
-1.10487044 -1.37923205 0.05480737 20.0
0.54719466 1.37947404 -0.68217176 20.0
0.33264038 1.43822026 0.86754644 20.0
1.15515471 1.02321064 0.96134418 20.0
0.98196566 -0.76612073 -1.06589735 20.0
0.75353742 -0.88859332 -1.08288908 20.0
-1.34623277 0.89695907 -1.31597269 20.0
-1.25393403 -0.74761647 0.88454753 20.0
1.34460855 -0.75920779 0.76582772 20.0
-1.40211260 -0.85073996 0.22523896 20.0
1.15287042 0.79073679 0.87108594 20.0
-1.38239062 -1.00372434 -0.71527517 20.0
-0.36257875 -1.55549586 -1.04031825 20.0
-0.53169280 -0.56155264 1.45491505 20.0
-1.32367921 1.18208790 0.36989924 20.0
0.27103707 -0.57751191 1.46100903 20.0
-1.29023409 0.07449777 -0.71675283 20.0
-0.66631407 0.40049869 1.83690166 20.0
-0.74577355 0.71033645 1.44524384 20.0
0.61117131 -0.26415953 1.86141801 20.0
-0.80334288 1.07212663 1.15494716 20.0
-1.01123738 0.68486935 1.08051395 20.0
-1.37153137 -1.07624090 -0.08214409 20.0
-0.84131306 1.15326762 -1.03059244 20.0
-0.45895475 -0.90727949 1.02264309 20.0
-0.97140479 0.08225445 1.36625564 20.0
1.37812924 -1.07424462 0.54545832 20.0
0.69049454 0.07983979 -1.06289017 20.0
1.04783058 0.48845267 -1.04711485 20.0
-0.82158577 0.50158083 -1.04639351 20.0
1.13652444 1.38757908 0.82062531 20.0
-1.25899005 0.76654607 0.62974483 20.0
-1.23120773 -0.39256543 0.59922844 20.0
0.92465830 -0.63526893 -1.02704322 20.0
-1.30112779 -1.25738978 0.19414224 20.0
1.34076178 0.76758945 0.40332910 20.0
0.98940152 -0.97884250 0.98565435 20.0
0.89926738 -0.79937500 -1.08089578 20.0
1.20322287 1.00507176 -1.54619110 20.0
1.40112424 -0.96699488 -0.07351888 20.0
-0.73435217 -1.49970472 -0.10709821 20.0
1.32419300 -1.33466160 -0.14233960 20.0
1.35529494 0.97287452 -1.08866131 20.0
-1.32153094 0.72761899 -1.55492365 20.0
1.41576338 -0.76898926 -0.71527517 20.0
0.92074054 1.32183218 1.05825865 20.0
-0.77748364 -1.50805664 -0.99655944 20.0
-1.15819168 1.39485538 0.61049724 20.0
-0.68994689 0.72162491 1.48930669 20.0
1.35488129 0.76771593 0.25704134 20.0
0.41779894 -0.57595026 1.44335854 20.0
0.94086707 0.99156469 -1.31326234 20.0
-1.33335519 1.17264616 -0.83947372 20.0
1.38216305 -0.70929915 -0.85712641 20.0
-1.15526950 1.31100631 -0.66250926 20.0
0.88120425 0.98039466 1.16932273 20.0
1.39067101 -1.03814161 0.24048746 20.0
-1.40211260 -0.85073996 0.22523896 20.0
0.92421728 1.33741951 -0.70267791 20.0
-0.35407376 -1.08969963 -1.11169088 20.0
-1.09165263 0.48614541 0.88230735 20.0
0.77771282 0.84551436 1.29017878 20.0
-0.11325768 1.48280120 0.75426197 20.0
-1.32727921 -1.20392931 -1.22337127 20.0
0.13108106 -1.09247243 -1.11649704 20.0
-1.20917714 -1.30969334 -1.08515060 20.0
-0.52493918 -0.51510549 1.54322815 20.0
-0.34066895 1.37877858 -0.68235040 20.0
1.39067101 -1.03814161 0.24048746 20.0
-0.65243822 1.37672496 0.90688640 20.0
-0.70852500 1.49032283 0.68272227 20.0
-1.27724695 -0.09162643 0.11460365 20.0
-1.13930964 0.79073679 0.87108594 20.0
0.12379195 -1.40220261 -1.07604945 20.0
-0.73309171 0.51698196 1.71267867 20.0
-1.14941955 -0.08269796 0.76849258 20.0
-1.34790099 0.76621091 -1.31059170 20.0
1.29938304 -0.51292348 -0.86927480 20.0
-1.18259585 -0.37752923 0.71939355 20.0
0.99781406 -1.46933866 -1.01164663 20.0
-1.34002388 0.83052719 0.05928103 20.0
-1.10024178 -0.46329781 0.93925714 20.0
0.43095273 -1.58499002 -0.74296832 20.0
0.09750966 0.66192102 1.67613983 20.0
0.49586913 1.24073231 1.04473615 20.0
0.77157754 -0.52571225 1.49135005 20.0
1.28578281 -0.25518507 -0.14880687 20.0
1.28046322 -0.25597864 0.37348354 20.0
-0.84131306 1.15326762 -1.03059244 20.0
0.49307254 -1.25867069 0.67370695 20.0
-1.31667054 1.26077223 0.38536823 20.0
1.37852550 -1.11781752 -0.09418287 20.0
-0.11550362 -1.27531564 -1.08638310 20.0
0.63652897 -0.86631984 1.02958584 20.0
0.30621609 -0.90743011 1.01128626 20.0
