-1.36432946 0.75020206 -1.16628134 40.0
0.94665468 0.86921072 1.61980045 40.0
-0.97383207 0.24028365 1.65239370 40.0
1.29605436 1.23655033 0.55432332 40.0
1.10744762 -0.38667443 1.30740523 40.0
-0.89793378 0.94787365 -1.23755884 40.0
1.01510775 0.98950773 1.59944713 40.0
1.30781114 -1.22978425 -0.41910788 40.0
1.40389097 0.40004045 -0.19122647 40.0
-0.35461739 -1.66147935 -0.41422662 40.0
1.36855364 0.74964976 0.60259056 40.0
0.51859272 1.21727049 1.48499966 40.0
-1.43783557 0.47104719 -0.00895906 40.0
-0.33429018 1.15850818 -1.06965089 40.0
-1.15097332 0.51173657 1.61338449 40.0
-1.20771074 0.48798531 1.52163506 40.0
0.54649305 0.73538029 1.62782812 40.0
-0.82846069 1.32374346 1.25685251 40.0
-1.40284395 -0.78862184 -0.41988114 40.0
1.12070715 -0.82366216 -1.27157855 40.0
-1.19270682 0.76931590 1.50943637 40.0
-0.24803048 -0.45602483 1.27055740 40.0
-1.38962317 -0.89756441 0.29287118 40.0
-1.21810353 0.53379345 -1.06687450 40.0
1.34118891 -1.07718313 0.04618215 40.0
-1.35082793 1.17937875 0.18357997 40.0
-0.08925091 1.45337546 -0.91322178 40.0
-0.56904781 -1.11867535 0.48544899 40.0
-0.56044996 0.94957805 -1.09998906 40.0
0.52393407 -1.13719594 -1.09092605 40.0
0.98947495 -0.91188711 -1.44520223 40.0
-0.99091244 0.44508272 1.64399827 40.0
1.22575176 -1.11579037 -1.32980871 40.0
-0.09277587 -0.37609205 1.35846007 40.0
-1.02380443 -1.59828937 -0.19916141 40.0
-0.63658392 -1.65818095 -0.45651010 40.0
-0.09634871 -0.14978807 -1.08715987 40.0
-1.40097010 -0.82987040 0.32235149 40.0
1.20329165 1.37810600 -0.87703991 40.0
-0.99726039 0.53793466 1.63993430 40.0
-0.95028979 1.45558512 0.49352503 40.0
0.64874917 -1.48496568 0.08444964 40.0
1.29173148 1.28315568 -0.18906245 40.0
-0.33296046 0.99241322 -1.08893430 40.0
-1.31832457 -1.25762224 -0.76488906 40.0
0.82472962 1.47240078 -0.11007903 40.0
0.31027859 0.69279313 -1.08476460 40.0
-0.56519228 1.46019030 0.16859180 40.0
-0.08783024 1.47315168 0.36187387 40.0
-1.27233219 -0.35568821 1.04404676 40.0
-0.68391657 -1.48496568 0.08444964 40.0
-1.36112487 0.17615004 -0.94752753 40.0
-0.55969715 1.49538445 -0.59181076 40.0
0.69528943 -0.16323544 1.55462742 40.0
-0.30497637 1.21523118 -1.06357062 40.0
0.52546978 -0.99165553 -1.10404396 40.0
-0.54021657 -1.46715391 -1.05276632 40.0
-0.84494793 1.21163821 -1.06588817 40.0
0.05803138 0.49783233 1.64256012 40.0
-1.32373989 1.28442538 0.49025807 40.0
-0.85851890 1.48413718 -0.26615226 40.0
0.05424915 1.46875811 0.27256885 40.0
-1.31486714 1.12876916 -0.89785171 40.0
-0.33373383 1.13824177 -1.07551157 40.0
1.18856454 0.38531128 -1.06909430 40.0
-1.14823341 -1.55623031 -0.54479718 40.0
-1.17927897 0.11290688 1.51631737 40.0
1.29838741 -1.29335904 -0.11971475 40.0
0.06090747 -0.78705579 0.82910299 40.0
0.89215666 0.18103378 -1.08727479 40.0
1.38502920 -0.42914769 0.47055906 40.0
-1.28107369 1.12537837 -1.09325862 40.0
1.22970152 -1.44706333 -0.06725125 40.0
1.28459322 1.08652508 -1.11955214 40.0
-0.91742045 -1.56236207 -0.07899304 40.0
1.11723363 -1.24010646 -1.05482495 40.0
1.23452199 0.26816511 1.27009463 40.0
-0.11153600 0.60894024 -1.08447921 40.0
-0.93661225 0.54068172 -1.08548999 40.0
-0.80182594 0.69111764 -1.08999848 40.0
-0.83213437 1.26664758 1.39780152 40.0
-0.77951854 -0.91644287 -1.12472284 40.0
-1.07776499 0.43750072 1.63905025 40.0
0.69736999 0.33316615 1.65297389 40.0
-1.37632966 -1.07718313 0.11302803 40.0
-0.40952548 -0.30445355 1.43214238 40.0
-0.95028979 1.45558512 0.49352503 40.0
0.37857983 0.49672380 1.64256012 40.0
1.20329165 1.37810600 -0.87703991 40.0
-0.40389973 -1.07738602 0.51454270 40.0
0.95271170 0.77960056 1.62462807 40.0
-1.35775900 1.04605258 -0.61933321 40.0
-0.12087072 -1.10323119 -1.09775579 40.0
1.36030006 -0.93392938 0.11340229 40.0
0.78161365 1.46176767 0.49853200 40.0
1.14811373 0.85925519 1.50178111 40.0
-1.27784407 0.59588408 1.27022958 40.0
1.32199395 -1.19668031 0.10955554 40.0
0.64874917 -1.48496568 0.08444964 40.0
1.38911247 -0.29160234 0.50945777 40.0
1.03474879 0.39880148 1.64186394 40.0
0.82445091 1.45828259 0.09979992 40.0
0.29914588 -1.21922505 -1.07245076 40.0
0.95588040 1.45678020 0.02436945 40.0
0.60141659 -1.65818095 -0.45651010 40.0
-0.34544593 0.69279313 -1.08476460 40.0
0.39782241 0.48449564 -1.08626187 40.0
0.22255373 0.01428480 -1.08727121 40.0
0.55301178 -1.00140774 0.55842930 40.0
-1.43410540 -0.14809299 -0.39400870 40.0
1.13295174 -0.84249580 -1.33481717 40.0
0.97292787 -1.25175428 -1.06858253 40.0
-0.24182899 -0.00771306 1.61661232 40.0
1.34039342 1.04605258 0.18458162 40.0
-1.13208950 0.83854318 1.59460199 40.0
1.13719749 -1.18050253 0.41471434 40.0
-1.36332428 -0.79196024 -0.92003572 40.0
1.30920327 -1.09462142 0.33414340 40.0
1.36261225 -0.89756441 0.22387755 40.0
-0.72010630 1.45997179 0.09979992 40.0
1.12070715 -0.82366216 -1.27157855 40.0
1.33554018 0.83958572 -0.91535056 40.0
0.89158577 0.41040844 -1.08704782 40.0
0.95574510 0.44508272 1.64399827 40.0
-0.09765075 -0.85650826 0.71681565 40.0
-0.87360138 0.40859982 1.64690912 40.0
-0.25739333 0.43912807 -1.08677757 40.0
1.31436253 -1.22978425 0.08580349 40.0
0.73504716 -1.02731836 -1.13008749 40.0
1.20332098 0.96969467 1.24456859 40.0
-1.41883767 0.65748250 -0.38544533 40.0
1.30266547 -0.93392938 -1.20879364 40.0
-1.13241768 1.46322334 -0.26396146 40.0
1.22354531 1.41359031 0.05217768 40.0
-1.23830485 -0.69203770 0.80800557 40.0
0.05615181 -1.07928550 0.51454270 40.0
1.32564890 1.12837982 0.18420154 40.0
-1.37078524 -1.11464190 0.07606133 40.0
-1.26405621 0.09705861 1.25740147 40.0
-1.00673544 -1.05826366 -1.48502564 40.0
-1.21615779 1.13350499 1.19372976 40.0
-1.34341359 1.17910480 -0.38303271 40.0
-0.94669479 1.17319214 -1.09201920 40.0
1.33302069 0.33980167 0.90109664 40.0
0.82472962 1.47240078 -0.11007903 40.0
-0.40316144 0.07578968 1.63006234 40.0
-0.43719026 -0.92937118 0.61611480 40.0
-0.08107877 -1.64800370 -0.76806730 40.0
-1.10925210 1.38756680 0.89420617 40.0
-0.96922022 -0.00842167 1.61661232 40.0
-1.07118428 0.81283921 1.61758196 40.0
-1.14592266 -0.94237804 -1.50123191 40.0
-1.37327790 -0.82952064 -0.91210002 40.0
-1.26519859 -1.45173264 -0.21114351 40.0
0.89219254 0.27325097 -1.08728898 40.0
0.84818965 -1.23475885 -1.07827854 40.0
-0.91624039 -0.81655252 0.77646369 40.0
-0.08809917 -1.39682376 0.22272067 40.0
0.39292943 -0.43753305 -1.08527255 40.0
-1.35970771 -1.15599489 -0.38185880 40.0
0.97161001 -1.09466577 -1.44112265 40.0
-1.33734810 -1.22964275 -0.55384898 40.0
-0.77635312 -0.14955221 -1.08715987 40.0
-0.47478464 -0.61863482 -1.08255470 40.0
0.60275400 -1.65887547 -0.36932239 40.0
1.23936856 -0.42516086 0.98144937 40.0
-1.30279779 1.37973487 -0.40107024 40.0
1.34628463 -1.04141021 0.08200399 40.0
-1.42150581 -0.06975405 -0.67451102 40.0
1.40441084 -0.29160234 0.15911111 40.0
-1.40598929 0.83958858 0.18428932 40.0
1.39508224 -0.50739980 0.29582453 40.0
0.89193064 0.39065412 -1.08718503 40.0
0.22255373 0.01428480 -1.08727121 40.0
0.72385091 -0.66411906 0.99759752 40.0
1.34164929 0.79469967 -0.91251951 40.0
-1.05324721 0.06992689 1.62430596 40.0
0.50992799 1.46856570 0.36187387 40.0
-1.24502265 1.32787418 -0.91290587 40.0
-1.17067158 0.94475698 1.48921025 40.0
1.39083362 0.65726656 0.38532943 40.0
0.85089457 1.26360250 -1.06055367 40.0
-1.36396766 -1.15599489 -0.12935466 40.0
0.05424915 1.46875811 0.27256885 40.0
-0.73045677 -0.16323544 1.55462742 40.0
-1.06900966 0.09620196 -1.08727121 40.0
0.50992799 1.46856570 0.36187387 40.0
-1.41110027 -0.78851253 0.24855091 40.0
1.11386430 0.43979070 1.61677897 40.0
-1.41460788 0.70653045 -0.38294426 40.0
-0.33998147 -0.85493058 -1.09202707 40.0
-0.09319854 0.54430073 1.63993430 40.0
-1.21369886 -0.51167649 -1.06591976 40.0
-1.27266157 0.92772084 -1.43840075 40.0
-0.76111245 -1.65715122 -0.36932239 40.0
0.70365137 -0.72421134 -1.08216095 40.0
1.37602842 0.59432828 -0.65810394 40.0
-0.50065821 -1.65983641 -0.41422662 40.0
1.34628463 -1.04141021 0.08200399 40.0
0.61422318 -1.62512720 -0.21225576 40.0
-1.02147698 -1.15254998 0.45365033 40.0
-1.36435390 1.00595546 -0.62010723 40.0
-1.35739994 0.47263947 -0.94606823 40.0
1.30014372 1.08655286 -0.89132476 40.0
0.20623839 -1.12091482 0.48544899 40.0
0.52680594 0.90659755 -1.10717702 40.0
-1.42147231 0.52681178 0.59672326 40.0
-0.92731500 0.09688207 -1.08727121 40.0
0.40202287 -0.92937118 0.61611480 40.0
-0.85410792 -1.25619066 0.37061560 40.0
0.06291115 -0.89382136 0.66128951 40.0
-0.33238637 -1.10242605 -1.09775579 40.0
1.33613455 0.42405146 0.90021515 40.0
1.13891757 -0.99065155 0.54394275 40.0
-0.09386213 -0.55739290 1.14440477 40.0
-0.99664211 1.25852144 -1.06055367 40.0
-0.09115876 -0.00765323 1.61661232 40.0
-0.40623742 0.92308158 1.61666739 40.0
0.06120563 0.01436199 -1.08727121 40.0
0.20368230 1.09463346 1.57323587 40.0
1.08437347 0.13613954 1.61267769 40.0
-1.37556064 1.04605258 0.18458162 40.0
-1.03680933 -0.84894961 -1.32832646 40.0
-0.21470946 -1.65647805 -0.30564764 40.0
0.97573334 -0.66028011 0.99759752 40.0
1.09392715 1.43869674 0.22722371 40.0
1.00127852 -1.55104017 -0.07920119 40.0
-0.09223671 0.41106889 1.64690912 40.0
1.31058860 -1.22578335 0.16824958 40.0
-1.36434639 -1.15599489 -0.02682461 40.0
-0.77662408 0.27364177 -1.08728898 40.0
-1.28288126 0.40071520 1.27019513 40.0
-0.84867173 1.35299790 -1.04540288 40.0
-1.04198229 1.24602187 1.39465821 40.0
-1.17902780 -0.12826563 1.44274449 40.0
-0.78650218 -0.89094120 0.66128951 40.0
0.97901458 1.14927971 -1.15571606 40.0
-1.27784407 0.59588408 1.27022958 40.0
-1.18230152 0.19492249 1.52476490 40.0
0.52301449 1.35540760 -1.04544818 40.0
-1.31585443 0.71493804 -1.26701319 40.0
-0.56063718 -0.99165553 -1.10404396 40.0
-0.24401800 1.31786871 -1.05791926 40.0
1.27472401 1.04605258 0.89058393 40.0
-0.24420996 -1.04008031 0.53745693 40.0
-1.38162613 0.92513376 0.60060507 40.0
-1.38608217 0.96576232 -0.19020845 40.0
0.67281020 1.44791365 -0.91322178 40.0
-1.35353947 1.12832499 -0.38028866 40.0
1.11893404 -0.90565181 -1.45699191 40.0
0.81202984 -1.31103647 0.31556082 40.0
-1.15439963 -1.56526589 -0.33832449 40.0
-1.36952198 -0.71203858 0.49655351 40.0
-0.73419142 -0.23457333 1.49996662 40.0
1.40227818 -0.35966974 0.15105258 40.0
-1.41596329 -0.71203858 -0.04715360 40.0
1.37944043 0.70653045 -0.38294426 40.0
-0.40377510 0.15899186 1.64196515 40.0
1.40687621 0.01186433 0.36446980 40.0
0.99042720 -1.06918573 0.51454270 40.0
1.18856454 0.38531128 -1.06909430 40.0
-0.33827394 -0.88320941 -1.09585464 40.0
1.20985544 1.32787418 -0.91290587 40.0
0.88268501 -0.85279608 -1.17107928 40.0
-1.00662947 -1.25012243 0.37061560 40.0
1.04983675 0.48396841 1.63753355 40.0
0.46045214 -1.25944293 -1.06343043 40.0
-1.40733039 -0.82987040 0.23590134 40.0
0.08632801 1.15948939 -1.06965089 40.0
-0.33570042 0.86303163 -1.10723519 40.0
-1.31421828 -1.34739816 0.05480400 40.0
1.11723363 -1.24010646 -1.05482495 40.0
0.82747537 -0.08798063 1.59309459 40.0
-0.51009369 -1.62606740 -0.21225576 40.0
0.05324789 1.27342248 1.39780152 40.0
-0.87987012 -0.37463069 1.35846007 40.0
1.32967496 0.88315380 -0.91594523 40.0
-0.86078906 -1.31930637 -1.05921888 40.0
-1.35400224 -1.15587544 -0.51809955 40.0
1.22713649 0.79865086 1.26164567 40.0
-1.41119564 0.59432828 -0.65810394 40.0
1.21324766 1.41181171 0.32298186 40.0
-0.73824579 -0.30408886 1.43214238 40.0
1.29838741 -1.29335904 -0.11971475 40.0
-0.09277587 -0.37609205 1.35846007 40.0
1.02787614 0.32377890 1.64751017 40.0
-0.43025061 -0.14966150 -1.08715987 40.0
1.38193798 0.74964416 0.18465725 40.0
-0.09158439 -0.16352011 1.55462742 40.0
0.68402165 1.48585463 -0.26615226 40.0
-0.53216791 -0.72487915 -1.08155680 40.0
-1.39913797 0.74974728 -0.62548941 40.0
1.23397815 -1.25166166 0.30912328 40.0
-0.39964181 1.46179903 0.16859180 40.0
-1.33990645 1.17998803 0.58267337 40.0
1.36395478 -0.82987040 -0.41992193 40.0
1.28068721 0.71493804 -1.26701319 40.0
-1.40284395 -0.78862184 -0.41988114 40.0
-0.87095952 -1.63856494 -0.59992892 40.0
0.91008627 1.16476130 1.52393579 40.0
1.40656185 0.09309652 -0.00897930 40.0
1.27905107 -1.34739816 0.05480400 40.0
0.86141247 0.98943663 -1.22003508 40.0
-0.24804647 0.49737346 1.64256012 40.0
1.29173148 1.28315568 -0.18906245 40.0
1.10021484 -1.01509094 -1.52461398 40.0
0.76665854 0.69111764 -1.08999848 40.0
0.72705299 1.17531526 -1.06867731 40.0
-1.39560628 -0.86220729 -0.41971365 40.0
-1.05504918 -0.09118500 1.58540070 40.0
0.53002489 1.46019030 0.13590445 40.0
0.37198490 -1.03901017 0.53745693 40.0
1.33444130 -1.11464190 -0.21969163 40.0
-1.25568640 1.40989470 0.24194647 40.0
-1.36870694 1.08590317 0.38396311 40.0
-1.35345197 0.96576232 -0.91086030 40.0
-1.09834576 1.35110903 1.08348274 40.0
-0.97383207 0.24028365 1.65239370 40.0
-1.18467021 -0.74644500 0.81090295 40.0
-1.39304864 0.88315380 -0.38049600 40.0
0.04667246 -1.66379786 -0.45651010 40.0
1.32586384 -0.06971875 -0.94745141 40.0
0.30310661 -0.88320941 -1.09585464 40.0
-1.16214597 -0.81111735 -1.20613754 40.0
-0.96640587 1.40204120 0.89402032 40.0
-0.42851183 -0.96601790 0.58262056 40.0
-0.40316144 0.07578968 1.63006234 40.0
0.08614549 1.13920701 -1.07551157 40.0
-1.15097332 0.51173657 1.61338449 40.0
0.29914588 -1.21922505 -1.07245076 40.0
0.30480435 0.77289128 -1.09758973 40.0
0.95004755 0.82346958 1.62221193 40.0
-0.42176422 -0.66507882 0.99759752 40.0
0.94246089 1.34774470 -1.04522192 40.0
1.31074250 -0.71852255 -0.93277496 40.0
1.32489276 0.59913117 -0.93444949 40.0
-0.41597244 -1.00236440 0.55842930 40.0
-0.24803048 -0.45602483 1.27055740 40.0
-1.36532068 -1.11063778 0.22833398 40.0
-0.58117592 0.69192493 -1.08476460 40.0
0.52925611 0.86197293 -1.10723519 40.0
1.03699958 -0.30412129 1.42311442 40.0
1.36512363 0.88315678 0.18439287 40.0
-1.28915310 -0.60196465 0.78567779 40.0
1.07715929 1.38436770 -0.98349267 40.0
1.38818240 -0.60596097 -0.04021524 40.0
1.23936856 -0.42516086 0.98144937 40.0
1.18877828 -0.06961825 -1.06914985 40.0
-1.34384847 -0.60982239 -0.93825483 40.0
-1.35005748 -1.00592709 -0.93726641 40.0
-1.41680241 -0.50739980 0.44479394 40.0
0.71830755 -1.63944840 -0.68615776 40.0
0.05845612 -1.00412035 0.55842930 40.0
1.39447784 -0.50739980 -0.03559776 40.0
-1.11954069 0.13613954 1.61267769 40.0
-1.33425283 -1.29335904 0.02121932 40.0
-1.41683137 -0.71203858 0.26066509 40.0
-0.96446884 0.81353122 -1.36036456 40.0
1.30868113 -0.60982239 -0.93825483 40.0
0.86561525 1.15507209 -1.09813941 40.0
-1.42637646 0.17534530 0.58369851 40.0
1.05321765 1.17312217 1.47170997 40.0
1.27486050 -1.19513893 -0.94104296 40.0
-1.32871425 1.28315568 -0.00838470 40.0
1.26797247 1.08590317 0.88536716 40.0
0.31979534 -1.66147935 -0.36932239 40.0
-1.06900048 0.60316455 -1.08841741 40.0
-0.85047340 1.49272978 -0.59234583 40.0
-0.08131716 -1.64670920 -0.68615776 40.0
-1.33227503 -1.29335904 -0.20968516 40.0
0.29808593 1.10914958 -1.08223987 40.0
0.45922828 -1.64339399 -0.76806730 40.0
-0.12515558 0.69340646 -1.08476460 40.0
-0.99072242 1.45174825 0.13590445 40.0
1.32388270 0.65715235 0.90864050 40.0
-1.32162535 1.28310072 -0.38562283 40.0
-0.87684977 0.78408933 1.62462807 40.0
0.70365137 -0.72421134 -1.08216095 40.0
-0.24462299 0.87821114 1.61980045 40.0
1.37411845 0.79469967 -0.19065523 40.0
0.95003998 1.48648036 -0.42041707 40.0
0.20104772 1.40399182 -1.00209093 40.0
-0.24675767 -0.37586099 1.35846007 40.0
0.86385691 1.13486171 -1.12525141 40.0
-1.14823341 -1.55623031 -0.54479718 40.0
-0.12097047 -1.03010750 -1.10291219 40.0
-0.23699559 1.35852003 -1.04544818 40.0
1.01988184 -0.09118500 1.58540070 40.0
0.53368002 -0.88231468 -1.09585464 40.0
-0.22840157 -1.48885405 0.08444964 40.0
0.93496281 1.44153285 -0.91262513 40.0
0.68490535 1.45924938 0.16859180 40.0
1.35690463 0.92511642 -0.19032393 40.0
-1.43946028 -0.14809299 -0.19611877 40.0
0.52546978 -0.99165553 -1.10404396 40.0
-0.51009369 -1.62606740 -0.21225576 40.0
-0.09637298 0.09772342 -1.08727121 40.0
1.38502920 -0.42914769 0.47055906 40.0
-1.30064929 1.32518697 -0.65598083 40.0
0.91144043 0.98826236 -1.37737250 40.0
1.08354533 1.47135997 -0.60130352 40.0
-1.36435401 -1.15599489 0.12498543 40.0
-0.23991518 1.46860003 0.02436945 40.0
1.39936447 0.09309652 -0.39216828 40.0
1.13675809 0.69941336 -1.24052584 40.0
-0.82350081 1.40952849 0.89503956 40.0
0.39508328 -0.14966150 -1.08715987 40.0
1.00718415 0.76633626 -1.38588297 40.0
1.34561431 -1.04141021 -0.12339863 40.0
-1.32969129 -1.29335904 -0.33055136 40.0
-1.13946521 1.01677704 -1.44668996 40.0
-1.39448142 0.92511868 0.18459767 40.0
1.22149932 1.43010616 -0.24923073 40.0
1.11754334 1.19217217 -1.04997742 40.0
0.52772141 -0.95455790 -1.10484159 40.0
0.36149094 -1.22436869 0.40279853 40.0
0.34704933 -1.46859598 -1.05276632 40.0
1.30431962 1.23532152 0.36928058 40.0
0.54177189 -0.81925827 -1.08806431 40.0
0.08917958 -0.82066429 -1.08806431 40.0
-1.35664678 -1.07718313 -0.67790061 40.0
-0.60924345 0.35178736 -1.08726943 40.0
-0.58166045 0.73538029 1.62782812 40.0
-0.10101406 0.54359400 -1.08548999 40.0
-0.37899572 1.44520879 0.68933129 40.0
-0.22970404 -1.47014713 -1.05276632 40.0
0.74121630 -0.81761289 0.77646369 40.0
0.75847530 0.73515272 -1.10657454 40.0
1.03384244 0.01354068 -1.08727121 40.0
-0.39793792 1.09331584 1.57323587 40.0
1.23045897 -0.81522840 -1.22990155 40.0
0.89158577 0.41040844 -1.08704782 40.0
-1.33212674 -0.97014856 -1.21904552 40.0
-0.57818538 0.40961194 1.64690912 40.0
-1.00483453 -1.62664998 -0.50826859 40.0
-1.38237131 0.88315380 -0.62220383 40.0
0.72774017 -1.28471994 -1.06125224 40.0
0.98221123 -0.94889176 -1.48810506 40.0
1.38096070 -0.60650766 -0.40572780 40.0
-1.06658757 0.53832757 -1.08548999 40.0
0.05690813 0.87897098 1.61980045 40.0
1.37714112 -0.60596097 0.40880173 40.0
-0.99144995 -0.37312394 1.35846007 40.0
-0.39978647 1.47667956 -0.11007903 40.0
-1.02789187 -1.03112662 0.53745693 40.0
1.32936215 -0.35966974 0.73864377 40.0
1.22970152 -1.44706333 -0.06725125 40.0
-1.41680241 -0.50739980 0.44479394 40.0
-0.60924637 0.09718972 -1.08727121 40.0
1.33089352 0.26465639 0.89759451 40.0
-0.98167121 -0.81728923 -1.16709960 40.0
-0.60843885 0.43800014 -1.08677757 40.0
-0.90149933 -0.95312053 -1.23258543 40.0
-1.42770255 0.52782303 -0.39084655 40.0
0.21135746 0.73715144 1.62782812 40.0
0.70239782 0.82950497 1.62221193 40.0
0.81894058 -1.25619066 0.37061560 40.0
1.18856454 0.38531128 -1.06909430 40.0
1.33107865 -0.89355969 0.37731302 40.0
0.81453568 1.08967757 1.57323587 40.0
-1.20980287 -0.71980774 -1.06995595 40.0
1.14386046 -0.12826563 1.44274449 40.0
-0.97507125 -0.16270781 1.55462742 40.0
0.20134789 1.17655408 1.52393579 40.0
-1.04908776 -0.88560265 0.66128951 40.0
-1.36434639 -1.15599489 -0.02682461 40.0
1.03389418 0.27190554 -1.08728898 40.0
1.18877828 -0.06961825 -1.06914985 40.0
0.22628953 -0.51816946 -1.08417249 40.0
-0.33827394 -0.88320941 -1.09585464 40.0
-0.89832884 -0.66328037 0.99759752 40.0
-1.41094017 -0.78851253 0.12123835 40.0
-1.43744540 -0.35966974 0.15105258 40.0
0.36716443 -1.11975431 0.48544899 40.0
-1.33355474 -1.29335904 -0.11971475 40.0
-0.75165164 -0.55570835 1.14440477 40.0
0.50043255 1.44361746 0.68933129 40.0
-0.96129644 1.04282093 1.59233248 40.0
-0.92735976 0.27325097 -1.08728898 40.0
-1.25862932 1.42110109 -0.08780955 40.0
-1.10470295 1.41985869 0.67794865 40.0
-1.15328360 -1.56477225 -0.38666928 40.0
-1.43958712 0.38070086 -0.19123660 40.0
-0.23510498 -1.31613326 0.31566590 40.0
0.55024225 0.49611977 1.64256012 40.0
0.74095052 0.41094953 -1.08704782 40.0
0.97098505 -1.16322923 -1.32039416 40.0
1.32774270 0.01186433 0.87021351 40.0
1.20771778 1.43567646 -0.62115943 40.0
1.09392715 1.43869674 0.22722371 40.0
-0.39453587 -1.25982785 0.37061560 40.0
0.05425556 1.48680842 -0.77063835 40.0
-1.41693485 -0.35966974 -0.67341721 40.0
-1.06320000 -0.43522981 -1.08527255 40.0
-0.54509538 1.46856570 0.36187387 40.0
1.22073483 -1.29637516 -0.96424949 40.0
-1.43453181 0.01186433 -0.39216828 40.0
0.87728804 -0.88099658 -1.19377971 40.0
-1.00318849 -0.55258608 1.14440477 40.0
1.40705001 0.09309652 0.18079442 40.0
0.08949088 0.71164960 -1.08757412 40.0
-0.86809319 -1.63357890 -0.68615776 40.0
-1.23845887 1.37810600 -0.87703991 40.0
-1.35581183 0.79469967 -1.19374716 40.0
-1.28197873 -0.99972278 0.48075315 40.0
1.40696597 0.26542947 0.37652528 40.0
1.30305827 -1.25821137 -0.30703804 40.0
0.95101869 -0.30263007 1.43214238 40.0
1.38920438 0.46997127 0.59420514 40.0
1.32147944 -1.07718313 -0.67790061 40.0
1.36446559 -0.89756441 0.04618896 40.0
1.33444130 -1.11464190 -0.21969163 40.0
1.36839032 -0.60869449 -0.67124748 40.0
-0.33574474 0.66460276 -1.08386743 40.0
1.38436162 0.70642650 -0.19085205 40.0
-1.39546740 -0.93392938 0.11340229 40.0
0.05585255 -1.12173462 0.48544899 40.0
0.91804856 -1.47990656 0.08024975 40.0
0.17732064 -1.65049934 -0.59992892 40.0
1.36551762 -0.86220729 -0.23920612 40.0
0.08632801 1.15948939 -1.06965089 40.0
0.39444315 -0.29665157 -1.08659911 40.0
-0.49618584 -1.64210343 -0.68615776 40.0
0.06084949 -0.96770436 0.58262056 40.0
-0.21305932 -1.65837145 -0.51642704 40.0
0.22255610 0.18205808 -1.08727479 40.0
-1.34061956 -0.95012254 0.41152668 40.0
1.08766997 0.21826947 1.62220204 40.0
-1.30125093 1.36779857 0.38941830 40.0
1.39746153 0.42618325 -0.39206409 40.0
0.51432091 1.26942480 1.39780152 40.0
0.36447448 1.46179903 0.13590445 40.0
-0.49779877 -1.64711666 -0.59992892 40.0
-0.09197208 -0.23511244 1.49996662 40.0
0.50992799 1.46856570 0.36187387 40.0
1.22970152 -1.44706333 -0.06725125 40.0
1.27486050 -1.19513893 -0.94104296 40.0
0.52188802 1.48218215 -0.77063835 40.0
1.37975883 0.52880090 -0.66892654 40.0
0.96351355 -1.61439717 -0.68010861 40.0
-1.37917602 -0.92992437 0.32609951 40.0
-0.68620092 1.41162837 0.89529437 40.0
1.25741053 -0.86477017 -1.33539653 40.0
0.57113481 -0.78498268 0.82910299 40.0
-1.36351573 0.59220839 0.90630054 40.0
-1.02559447 -1.06918573 0.51454270 40.0
-1.42133915 0.70642650 -0.00887314 40.0
0.32127377 -1.65471852 -0.30564764 40.0
-1.06868601 -0.14923067 -1.08715987 40.0
0.84695029 -0.72382081 -1.08457851 40.0
-0.33431318 -1.21922505 -1.07245076 40.0
0.20616534 1.01183283 1.60438645 40.0
-1.33990645 1.17998803 0.58267337 40.0
1.32459116 -1.15199149 0.20786767 40.0
-1.26238573 -1.04388416 -1.41447842 40.0
-1.22327471 0.40484303 -1.06896007 40.0
-0.90967572 -0.78354245 0.82910299 40.0
0.53059471 1.05100775 1.59233248 40.0
-1.27385414 0.66102380 1.27009141 40.0
-0.35149708 -1.64372778 -0.68615776 40.0
0.53057319 -0.91731095 -1.10183537 40.0
-1.12075329 0.92709893 1.58527112 40.0
-0.98660642 -1.62100995 -0.86865401 40.0
1.32967496 0.88315380 -0.91594523 40.0
0.31843722 -1.65660977 -0.51642704 40.0
1.23936856 -0.42516086 0.98144937 40.0
0.53594911 0.15873946 1.64196515 40.0
1.13550425 0.94475698 1.48921025 40.0
1.12831843 1.20486450 1.31504893 40.0
0.20851043 0.92420864 1.61666739 40.0
-1.11954069 0.13613954 1.61267769 40.0
-1.36303854 -0.14809299 0.82745564 40.0
0.60275400 -1.65887547 -0.36932239 40.0
0.20003359 1.22008395 1.48499966 40.0
1.28303707 -0.78450996 0.55954701 40.0
-1.14951193 0.56904531 1.61054361 40.0
-0.09115876 -0.00765323 1.61661232 40.0
0.76665854 0.69111764 -1.08999848 40.0
-0.23922548 -1.19661677 0.42681447 40.0
0.82562178 -1.31930637 -1.05921888 40.0
-1.44172239 0.34192428 -0.00897927 40.0
-1.02430153 -1.11120450 0.48544899 40.0
0.97639596 1.06476629 -1.37264359 40.0
0.05845612 -1.00412035 0.55842930 40.0
-0.56884742 -0.88231468 -1.09585464 40.0
-0.87987012 -0.37463069 1.35846007 40.0
1.05635011 -0.55205196 1.13237453 40.0
-1.37556064 1.04605258 0.18458162 40.0
-1.12844300 -1.38214731 0.20294729 40.0
1.02304721 0.23438330 1.64676285 40.0
0.05425556 1.48680842 -0.77063835 40.0
1.39447784 -0.50739980 -0.03559776 40.0
0.22255610 0.18205808 -1.08727479 40.0
0.92800879 0.60573238 -1.08724451 40.0
-0.92731053 0.35104600 -1.08726943 40.0
1.22972250 1.29969430 0.89293957 40.0
0.40190494 -0.85503381 0.71681565 40.0
1.19678020 1.00987613 1.23873401 40.0
0.54511613 0.78587389 1.62462807 40.0
1.33624756 -0.97014856 -0.66689318 40.0
-0.99664211 1.25852144 -1.06055367 40.0
-0.85957807 1.45756114 0.13590445 40.0
-0.76853836 -0.96456152 0.58262056 40.0
-1.15439963 -1.56526589 -0.33832449 40.0
-1.06561673 0.68714494 -1.16479051 40.0
-1.39019299 -0.97014856 -0.08108949 40.0
0.85964012 -1.02674294 -1.23880005 40.0
1.23452199 0.26816511 1.27009463 40.0
0.87631422 0.81451398 -1.22010827 40.0
-1.30915487 1.28288150 -0.65804708 40.0
0.95523232 0.72947133 1.62782812 40.0
1.33561790 -1.11464190 0.07606133 40.0
0.17588899 -1.64075029 -0.96876031 40.0
0.22222599 0.43912807 -1.08677757 40.0
-0.56521839 1.46091306 0.09979992 40.0
-1.34970582 -0.50899708 -0.94318831 40.0
1.02803266 -0.43522981 -1.08527255 40.0
0.92930150 0.81353122 -1.36036456 40.0
-1.13385367 -1.12277627 -1.39425993 40.0
-0.63154918 -1.64115322 -0.68615776 40.0
-1.08387482 -0.45281515 1.25998521 40.0
-1.43064594 0.47108206 -0.39182013 40.0
-1.31482732 -1.15267205 -1.13650739 40.0
0.57371348 0.41125110 -1.08704782 40.0
-1.39968312 0.88315380 -0.00875984 40.0
1.38389134 -0.29160234 -0.67372847 40.0
-0.26168418 -0.93031847 0.61611480 40.0
-1.34258544 1.12810588 -0.62683046 40.0
-1.28640449 -1.03555667 0.46141535 40.0
1.30685616 -1.25821137 -0.01713003 40.0
-1.40733039 -0.82987040 0.23590134 40.0
-0.25663561 -0.96700615 0.58262056 40.0
-0.71323997 1.13234460 1.54860067 40.0
0.82469213 1.46261191 0.02436945 40.0
-0.33570042 0.86303163 -1.10723519 40.0
0.20885067 1.31786871 -1.05791926 40.0
0.55024087 0.54245132 1.63993430 40.0
-0.26168418 -0.93031847 0.61611480 40.0
-1.19823241 -0.40921342 1.19810104 40.0
0.36447448 1.46179903 0.16859180 40.0
0.52452981 1.49538445 -0.59181076 40.0
1.18885231 0.09485003 -1.06917870 40.0
-0.86496902 0.24196731 1.65239370 40.0
-1.15439963 -1.56526589 -0.33832449 40.0
0.06030433 -0.74463058 0.88935602 40.0
1.19024706 1.18934965 1.12427211 40.0
-1.15410137 -0.90565181 -1.45699191 40.0
-1.00810838 -1.02215612 -1.51060963 40.0
-0.77818936 -1.56926644 -1.03338754 40.0
0.95523232 0.72947133 1.62782812 40.0
1.03240740 0.43514845 -1.08677757 40.0
-1.37849796 0.66257858 -0.91996986 40.0
-1.31611371 -1.27314234 0.21682450 40.0
-1.42350650 0.59315521 -0.38855892 40.0
0.08649780 -0.95622253 -1.10484159 40.0
1.34024870 -0.82987040 0.40494335 40.0
1.26764345 1.32626605 0.55439347 40.0
0.53659838 0.77193344 -1.09758973 40.0
-1.39207196 0.92511642 -0.19032393 40.0
-0.92270374 -0.83251864 -1.14914370 40.0
-0.08977471 1.50004983 -0.59181076 40.0
1.23098838 -0.21778308 1.14428079 40.0
-1.17383218 -0.66987497 0.92489737 40.0
-0.49618584 -1.64210343 -0.68615776 40.0
0.05261269 1.33080494 1.25685251 40.0
-1.02559447 -1.06918573 0.51454270 40.0
-0.77430254 0.90556693 -1.13468885 40.0
1.37649465 0.79470146 0.18439707 40.0
0.22644822 -0.85589784 0.71681565 40.0
1.32595766 0.17615004 -0.94752753 40.0
-1.37256908 -1.04141021 -0.45037645 40.0
-1.26927888 -0.28762645 1.09761035 40.0
-0.95028979 1.45558512 0.49352503 40.0
0.95555508 1.45174825 0.16859180 40.0
-1.06544626 -0.36452955 -1.08604538 40.0
-1.44175088 0.37996265 0.37867486 40.0
-1.36290991 0.01186433 0.87021351 40.0
1.19030154 1.04996908 1.23059285 40.0
0.37857983 0.49672380 1.64256012 40.0
-1.03565943 -0.99478316 0.55842930 40.0
0.73706394 -1.19583917 -1.08993590 40.0
-1.11355233 -0.77753872 0.81381249 40.0
0.88107318 -0.81655252 0.77646369 40.0
0.08998822 0.69340646 -1.08476460 40.0
0.53057319 -0.91731095 -1.10183537 40.0
0.81350440 1.35299790 -1.04540288 40.0
0.05775443 0.67085278 1.63213611 40.0
-0.96446884 0.81353122 -1.36036456 40.0
-1.36111176 0.01211039 -0.94752467 40.0
-0.90464592 -0.74132901 0.88935602 40.0
0.22253893 -0.06940680 -1.08724892 40.0
-0.81875765 -1.48378289 0.08360966 40.0
-1.06980538 0.65918285 -1.11143506 40.0
-0.81678092 1.46176767 0.49853200 40.0
-1.02532876 1.15136337 1.52136528 40.0
-1.30125093 1.36779857 0.38941830 40.0
-0.72170693 -1.15966499 0.45365033 40.0
-1.27773118 0.88564986 -1.44434512 40.0
-1.32600808 -1.29335904 -0.45762441 40.0
-1.43444645 -0.06975405 -0.39253634 40.0
-0.24768171 0.47024071 1.64371920 40.0
1.06128025 -1.55319715 -0.97619039 40.0
1.38452351 0.42618325 -0.67430562 40.0
-0.77090836 -1.16859031 -1.09998536 40.0
1.29403949 0.92513937 0.89806086 40.0
-0.69380820 1.32577860 1.25685251 40.0
0.57113481 -0.78498268 0.82910299 40.0
1.19260120 -1.39762640 0.13728371 40.0
0.23669901 0.54309893 -1.08548999 40.0
0.05440558 1.35965943 -1.04544818 40.0
-0.96462744 1.36503232 1.08516574 40.0
1.22149932 1.43010616 -0.24923073 40.0
-0.40786225 0.87713546 1.61980045 40.0
-0.74580824 -0.45499393 1.27055740 40.0
0.93718159 1.47399926 -0.77308744 40.0
0.74137259 -0.06944559 -1.08724892 40.0
1.04293323 -0.37404490 1.34893835 40.0
0.29779315 0.99241322 -1.08893430 40.0
-0.78833818 0.77104294 -1.11682069 40.0
-0.92703497 -0.14947984 -1.08715987 40.0
0.05653125 -1.32507348 -1.05921888 40.0
-0.58451092 0.46904558 1.64371920 40.0
-1.19823241 -0.40921342 1.19810104 40.0
-1.43509400 -0.35966974 -0.20796235 40.0
1.09872973 1.43837726 0.10410870 40.0
0.26050729 -1.26075983 -1.06343043 40.0
-0.33297202 -1.17093766 -1.08417618 40.0
-1.26398194 -1.26070380 -0.95748848 40.0
0.20467354 1.46352959 0.13590445 40.0
-1.27958465 0.38122717 1.27144933 40.0
1.35337865 -0.82987040 -0.64935046 40.0
-0.43807301 -1.28670526 -1.06125224 40.0
-1.06900966 0.09620196 -1.08727121 40.0
1.05869532 1.09013236 1.53155220 40.0
-0.77178514 1.10657525 -1.09681046 40.0
1.37649465 0.79470146 0.18439707 40.0
-1.34836364 -1.22978425 -0.16046023 40.0
0.52925611 0.86197293 -1.10723519 40.0
-0.68211085 1.44268656 0.68933129 40.0
0.69074452 1.31399179 -1.05791926 40.0
-1.36864448 1.08590317 0.18442117 40.0
-1.39319146 0.83960652 0.59947562 40.0
0.70307845 -0.30408886 1.43214238 40.0
1.35802424 0.83960652 0.59947562 40.0
0.66171521 -1.39215589 0.22272067 40.0
0.91140366 -0.98916459 -1.40301418 40.0
-0.98660642 -1.62100995 -0.86865401 40.0
1.08811152 1.13970506 -1.16462469 40.0
0.06267441 -1.28900456 -1.06125224 40.0
-1.24502265 1.32787418 -0.91290587 40.0
-1.23194754 1.00987613 1.23873401 40.0
0.37215310 -0.23482314 1.49996662 40.0
1.09281838 0.30714780 1.62367690 40.0
-0.63361835 -1.64616370 -0.59992892 40.0
0.85936815 -1.13545728 -1.18885112 40.0
-1.23848832 0.96969467 1.24456859 40.0
-1.09493697 1.46114337 -0.77656156 40.0
-1.06757462 0.43514845 -1.08677757 40.0
-1.26629567 1.38355494 0.62909377 40.0
-0.95578259 1.08360755 1.57323587 40.0
-1.35086310 1.08590317 -0.61850530 40.0
-0.96738183 -0.72313052 -1.08824956 40.0
-1.26629567 1.38355494 0.62909377 40.0
1.06525934 -0.65887129 0.98403913 40.0
-1.30583668 0.75308901 -1.33331323 40.0
-1.37628269 -1.07718313 -0.04603403 40.0
0.59408528 -1.64244306 -0.76806730 40.0
-1.30812633 -1.35082793 -0.49285036 40.0
-1.20453310 -0.48744118 1.10225475 40.0
-1.38623214 -1.00592709 0.15540288 40.0
1.11386430 0.43979070 1.61677897 40.0
1.32199085 -1.19668031 0.03943359 40.0
-1.42730522 0.37919182 0.59283864 40.0
-1.33470905 -1.25821137 -0.43657458 40.0
0.08451802 1.17903483 -1.06636000 40.0
-1.42144752 -0.60596097 -0.21701279 40.0
1.32941854 -0.89756441 -0.92229807 40.0
-0.23510498 -1.31613326 0.31566590 40.0
1.11887085 0.84875458 -1.51407433 40.0
-1.32898545 -1.25809348 -0.57312971 40.0
1.19784641 -0.85564911 0.62562364 40.0
-0.72007275 1.45924938 0.16859180 40.0
-0.33998147 -0.85493058 -1.09202707 40.0
0.59638184 -1.64115322 -0.68615776 40.0
0.52408195 -1.02830195 -1.10291219 40.0
0.52393407 -1.13719594 -1.09092605 40.0
-1.01503563 -1.22888529 -1.10306168 40.0
-1.33122170 1.23655033 0.55432332 40.0
1.04548037 0.65387160 1.62748575 40.0
0.30250785 0.81700534 -1.10324013 40.0
1.40690410 0.17541485 0.37341380 40.0
-0.84431356 1.44645059 -0.91310245 40.0
-0.57935864 -0.30422345 1.43214238 40.0
0.72774017 -1.28471994 -1.06125224 40.0
-0.56063718 -0.99165553 -1.10404396 40.0
1.31837225 1.12832499 -0.38028866 40.0
-0.55971354 0.99120975 -1.08893430 40.0
-0.88339508 0.46791148 1.64371920 40.0
-1.36624599 -0.89355969 0.37731302 40.0
1.34039342 1.04605258 0.18458162 40.0
0.84175307 -1.65121496 -0.36932239 40.0
1.40687621 0.01186433 0.36446980 40.0
-1.20832407 -0.61147690 -1.06387246 40.0
-0.82350081 1.40952849 0.89503956 40.0
1.10010004 0.38171762 1.61985707 40.0
1.28068721 0.71493804 -1.26701319 40.0
-0.60843885 0.43800014 -1.08677757 40.0
0.52059633 1.44884753 -0.91322178 40.0
-1.00709379 -1.13045669 -1.38453388 40.0
0.57048118 -0.96509892 0.58262056 40.0
-0.56576210 1.05100775 1.59233248 40.0
-1.34437060 -1.09462142 0.33414340 40.0
0.95574510 0.44508272 1.64399827 40.0
1.08143413 -1.36250913 -1.04512298 40.0
0.22234617 -0.22526710 -1.08695865 40.0
-1.32678246 -1.22907639 -0.74485999 40.0
0.74142683 0.18132353 -1.08727479 40.0
0.31745505 -1.64874637 -0.59992892 40.0
-1.22576666 1.11950517 -1.19312572 40.0
0.57658660 -0.81806070 0.77646369 40.0
1.04197788 0.71960276 1.62329614 40.0
-0.63658392 -1.65818095 -0.45651010 40.0
-1.43735337 -0.35966974 0.31946123 40.0
-0.98040038 -0.23357408 1.49996662 40.0
0.05424797 1.17754960 1.52393579 40.0
0.08570025 -1.06652081 -1.10176206 40.0
0.94887102 0.40605390 1.64690912 40.0
0.94523317 -0.23357408 1.49996662 40.0
0.90757084 -1.23344374 -1.09226084 40.0
1.17102492 0.54526609 1.52000380 40.0
-1.44044185 -0.22175333 -0.02114093 40.0
0.91144043 0.98826236 -1.37737250 40.0
1.27027810 -0.70803839 0.65451491 40.0
-0.80165976 0.54136550 -1.08548999 40.0
1.07193542 1.00976813 1.56747770 40.0
-1.38753366 0.88317627 0.59969068 40.0
-0.98182189 0.86921072 1.61980045 40.0
1.21616435 0.88711220 1.25312233 40.0
-1.37658954 0.92511642 -0.62153125 40.0
-0.24652480 0.73715144 1.62782812 40.0
-1.04198229 1.24602187 1.39465821 40.0
1.32670391 -1.04141021 -0.67172217 40.0
0.73780179 1.13560486 -1.08545876 40.0
-0.33864373 -0.79437882 -1.08364630 40.0
-1.34947169 -1.22978425 0.01531744 40.0
-0.55924928 -1.02830195 -1.10291219 40.0
0.20356363 1.49849308 -0.41988200 40.0
-1.36915171 -0.86213726 -0.91722947 40.0
1.29161513 -1.22907639 -0.74485999 40.0
1.23066115 -1.45173264 -0.14841172 40.0
-0.09637298 0.09772342 -1.08727121 40.0
0.91533560 1.12430716 1.54860067 40.0
1.02144217 0.94727099 1.60693169 40.0
-0.08486990 -1.57375979 -0.07638117 40.0
0.05142913 1.46906686 0.49978372 40.0
1.00537980 -0.84866798 0.71681565 40.0
0.98913151 0.85582376 -1.50057042 40.0
-1.37979817 1.00595546 -0.19008721 40.0
-0.33297202 -1.17093766 -1.08417618 40.0
0.83655953 0.87416559 1.61980045 40.0
0.05476965 -1.22654903 0.40279853 40.0
0.65103352 1.41162837 0.89529437 40.0
-0.57129514 -1.07635140 0.51454270 40.0
1.34045076 1.04605258 0.38462493 40.0
0.21286315 -0.45602483 1.27055740 40.0
1.11887085 0.84875458 -1.51407433 40.0
1.13194788 -0.91885072 0.60026932 40.0
1.30839014 -0.98590118 0.38976809 40.0
-0.09784175 -1.28900456 -1.06125224 40.0
1.11306620 -1.55623031 -0.54479718 40.0
1.09281838 0.30714780 1.62367690 40.0
1.36903596 -0.82987040 -0.23663914 40.0
0.81111681 1.47959113 -0.77112812 40.0
-0.86078906 -1.31930637 -1.05921888 40.0
0.84858674 0.59951597 1.63639867 40.0
-1.37380493 -1.03740525 0.26883599 40.0
1.30646193 -1.13597810 0.31136972 40.0
-1.36079228 0.38189936 -0.94745314 40.0
-1.13674903 -0.31714258 1.38373470 40.0
0.76665854 0.69111764 -1.08999848 40.0
0.84961921 0.49493009 1.64256012 40.0
-0.39793792 1.09331584 1.57323587 40.0
1.18371415 1.08981800 1.22012055 40.0
1.38367045 0.65748250 -0.38544533 40.0
-1.20304704 0.61148882 1.51826143 40.0
1.18371415 1.08981800 1.22012055 40.0
1.22575176 -1.11579037 -1.32980871 40.0
0.29720950 -1.06574464 -1.10176206 40.0
-0.38868541 1.27083468 1.39780152 40.0
-0.09158439 -0.16352011 1.55462742 40.0
-1.03680933 -0.84894961 -1.32832646 40.0
-0.68391657 -1.48496568 0.08444964 40.0
-1.16214597 -0.81111735 -1.20613754 40.0
1.04224384 -1.47747707 0.06188716 40.0
1.33015335 -1.11063778 0.22833398 40.0
1.27295911 -1.35082793 -0.49285036 40.0
1.10936332 -1.55266893 -0.63943464 40.0
-0.33431318 -1.21922505 -1.07245076 40.0
-0.25911218 -0.81964982 0.77646369 40.0
-0.92804772 -0.88977504 0.66128951 40.0
-0.49561954 -1.25944293 -1.06343043 40.0
-0.24462299 0.87821114 1.61980045 40.0
1.36397064 0.74974728 -0.62548941 40.0
0.71830755 -1.63944840 -0.68615776 40.0
-0.73674077 0.40931144 1.64690912 40.0
0.17666599 -1.64547515 -0.68615776 40.0
1.40566993 -0.22175333 0.34181601 40.0
-0.94614065 1.02931750 -1.34073949 40.0
0.97156811 -1.05826366 -1.48502564 40.0
-1.34297836 -1.22978425 -0.41910788 40.0
-1.08387482 -0.45281515 1.25998521 40.0
0.93880689 1.45584285 0.27139613 40.0
-0.09999241 1.26988816 -1.06055367 40.0
-1.26426888 -1.45152664 -0.26910409 40.0
0.05803120 0.54430073 1.63993430 40.0
-1.36088359 1.12837982 0.38306195 40.0
-1.39875269 0.83958572 -0.38079178 40.0
-1.36484218 0.88315380 -0.91594523 40.0
-0.39858395 -1.19537151 0.42681447 40.0
1.31058860 -1.22578335 0.16824958 40.0
0.91190964 1.10467327 -1.24230933 40.0
1.36836791 0.70694578 -0.63134605 40.0
-0.92675298 0.41040844 -1.08704782 40.0
0.68653953 -1.15966499 0.45365033 40.0
0.31632975 -1.64372778 -0.68615776 40.0
-1.15403807 0.84875458 -1.51407433 40.0
-1.23023272 1.41875875 0.39311537 40.0
-0.09784175 -1.28900456 -1.06125224 40.0
0.36860144 -0.08799475 1.59309459 40.0
1.29106700 -0.80217087 -1.11912322 40.0
1.25966704 0.79696721 -1.39016557 40.0
1.28112555 -1.35154939 -0.17044407 40.0
1.17102492 0.54526609 1.52000380 40.0
1.39937818 0.17548147 -0.39216903 40.0
-1.39388371 0.92511642 -0.00872939 40.0
0.93880689 1.45584285 0.27139613 40.0
1.39196324 0.34061772 0.59255695 40.0
-1.35581183 0.79469967 -1.19374716 40.0
1.10507298 0.97618455 -1.49616313 40.0
0.37500337 0.78677976 1.62462807 40.0
-1.36452949 -0.35966974 0.73864377 40.0
1.19678020 1.00987613 1.23873401 40.0
-0.24231784 -1.07849920 0.51454270 40.0
-0.22912432 1.41577625 0.89529437 40.0
1.24256384 0.88564986 -1.44434512 40.0
0.21286315 -0.45602483 1.27055740 40.0
1.35257161 -0.97014856 -0.23380460 40.0
-0.58028352 0.78587389 1.62462807 40.0
-0.12280244 -0.88384128 -1.09585464 40.0
-1.07118428 0.81283921 1.61758196 40.0
1.26603580 1.28950489 0.68017912 40.0
0.52408195 -1.02830195 -1.10291219 40.0
1.18371415 1.08981800 1.22012055 40.0
-0.72635657 -0.00792253 1.61661232 40.0
1.03383720 0.34940714 -1.08726943 40.0
-1.28915310 -0.60196465 0.78567779 40.0
-1.02429891 0.85582376 -1.50057042 40.0
1.19678020 1.00987613 1.23873401 40.0
1.00225985 1.07086825 1.56924093 40.0
-0.73674077 0.40931144 1.64690912 40.0
-0.11849795 -1.23886526 -1.06699741 40.0
0.19266294 1.44692063 0.68933129 40.0
0.37215310 -0.23482314 1.49996662 40.0
-0.72501880 -1.11804426 0.48544899 40.0
0.84087354 -1.65121496 -0.41422662 40.0
0.05497495 1.49974298 -0.41988200 40.0
-0.89793378 0.94787365 -1.23755884 40.0
1.29173148 1.28315568 -0.18906245 40.0
1.03384244 0.01354068 -1.08727121 40.0
-1.14261496 -0.38667443 1.30740523 40.0
-1.39979208 -0.89756441 0.14740720 40.0
-0.55973339 -1.16972125 -1.08417618 40.0
-0.84523743 1.13058877 1.54860067 40.0
-0.99778885 -1.30504119 0.31514046 40.0
1.14723265 0.72354251 -1.31533313 40.0
-0.90674293 -0.91593504 -1.21628165 40.0
0.86222726 -1.19516098 -1.13610840 40.0
-0.49779877 -1.64711666 -0.59992892 40.0
1.32348323 -0.29213992 -0.94614857 40.0
-0.12195806 0.86377954 -1.10723519 40.0
-1.36661363 -1.00592709 -0.67147672 40.0
1.30305827 -1.25821137 -0.30703804 40.0
-1.43367040 0.40004045 -0.39212111 40.0
-1.17753530 0.03167476 1.50107837 40.0
0.08633558 -1.22012246 -1.07245076 40.0
0.96045035 0.46505868 1.64371920 40.0
-0.21384938 -1.66324639 -0.36932239 40.0
0.97292787 -1.25175428 -1.06858253 40.0
-1.43460035 0.26576254 -0.39217201 40.0
-0.90149933 -0.95312053 -1.23258543 40.0
1.24608290 0.52977556 1.26954246 40.0
-1.25133169 0.88711220 1.25312233 40.0
1.29196179 1.00595546 -1.18183792 40.0
-0.71323997 1.13234460 1.54860067 40.0
-0.26145688 -0.51816946 -1.08417249 40.0
1.18891168 0.26923126 -1.06919599 40.0
-0.87541783 -0.30377018 1.43214238 40.0
1.27472401 1.04605258 0.89058393 40.0
0.57393783 0.39146307 -1.08718503 40.0
0.36487207 1.05218995 1.59233248 40.0
0.36333236 1.46259868 0.21285799 40.0
-0.31693614 -0.72559744 -1.08155680 40.0
1.35337865 -0.82987040 -0.64935046 40.0
-0.09058236 1.05435991 1.59233248 40.0
-0.77858436 0.48355851 -1.08626187 40.0
-0.24255814 0.96884865 1.61189735 40.0
0.35884798 -1.38000524 -1.05645931 40.0
1.37285018 -0.78851253 -0.23430713 40.0
0.75847530 0.73515272 -1.10657454 40.0
-1.19929934 0.67673504 1.51584482 40.0
-0.89264280 -1.56517029 -1.03361034 40.0
-0.55950165 1.03237772 -1.08361506 40.0
1.12697875 -0.81111735 -1.20613754 40.0
1.32396507 0.92511642 -0.91437000 40.0
1.19024706 1.18934965 1.12427211 40.0
-0.99726284 0.49193749 1.64256012 40.0
0.05324789 1.27342248 1.39780152 40.0
-0.94823068 0.94674486 -1.40266001 40.0
-1.25133169 0.88711220 1.25312233 40.0
-1.26562631 -0.81522840 -1.22990155 40.0
-1.20616829 0.41607618 1.52418518 40.0
1.23435330 0.96847159 -1.41325307 40.0
1.40672481 0.38051632 0.18304700 40.0
-1.06868601 -0.14923067 -1.08715987 40.0
0.97461611 1.20536196 -1.07068837 40.0
-0.40053061 -1.16144371 0.45365033 40.0
0.20623839 -1.12091482 0.48544899 40.0
-0.90464592 -0.74132901 0.88935602 40.0
-1.40721893 0.65814966 -0.64322752 40.0
-1.18467021 -0.74644500 0.81090295 40.0
1.01698029 -0.92239201 0.61611480 40.0
1.39120924 0.17534530 0.58369851 40.0
1.32774270 0.01186433 0.87021351 40.0
0.05214208 1.37987244 1.08516574 40.0
0.05142913 1.46906686 0.49978372 40.0
-1.34624255 0.79471833 0.90310454 40.0
-1.31696975 1.32342756 0.39064261 40.0
0.86222726 -1.19516098 -1.13610840 40.0
0.91008627 1.16476130 1.52393579 40.0
-0.74634588 -1.64602065 -0.86635995 40.0
0.55507457 -0.55599642 1.14440477 40.0
0.73483509 -1.13609898 -1.11050951 40.0
0.94099706 -0.83168846 -1.21900296 40.0
1.37457895 -0.50794649 -0.67239195 40.0
1.38193798 0.74964416 0.18465725 40.0
0.69249356 -0.08798722 1.59309459 40.0
-0.09180037 0.33465198 1.65297389 40.0
-1.26927888 -0.28762645 1.09761035 40.0
-0.92674440 0.48293799 -1.08626187 40.0
1.07886827 0.96909577 1.57790172 40.0
-1.38694453 -0.93392938 -0.42343849 40.0
-0.25773287 0.27463242 -1.08728898 40.0
1.14411175 0.11290688 1.51631737 40.0
1.28180242 1.32342756 0.39064261 40.0
0.05436455 -1.26207590 0.37061560 40.0
-0.85957807 1.45756114 0.13590445 40.0
-1.37541604 -0.82987040 0.40494335 40.0
1.33472681 -1.07317841 0.25014228 40.0
1.33755279 -0.78851253 0.43954930 40.0
-1.04669905 -0.95873636 0.58262056 40.0
0.67807257 1.13234460 1.54860067 40.0
-0.41132686 0.44947925 1.64399827 40.0
0.29808593 1.10914958 -1.08223987 40.0
0.20293790 -1.22564650 0.40279853 40.0
1.29412067 1.28315568 0.17255056 40.0
1.14811373 0.85925519 1.50178111 40.0
-0.77659416 0.18132353 -1.08727479 40.0
1.03601694 0.81283921 1.61758196 40.0
1.38601065 -0.14809299 -0.67433608 40.0
-1.36246943 1.04605258 0.59894341 40.0
1.34045076 1.04605258 0.38462493 40.0
-1.23023272 1.41875875 0.39311537 40.0
1.28215373 -1.35157871 -0.03481466 40.0
0.05715495 0.83276117 1.62221193 40.0
-1.37499523 1.04605258 -0.00863001 40.0
1.32872295 -0.42914769 0.69962710 40.0
-1.05500674 -0.78923136 -1.13009405 40.0
0.96147478 1.25852144 -1.06055367 40.0
1.26764345 1.32626605 0.55439347 40.0
0.47644177 1.21377861 -1.06357062 40.0
-0.97234893 1.47399926 -0.77308744 40.0
1.15753961 0.76931590 1.50943637 40.0
0.93649811 1.39369452 -1.00095916 40.0
-0.25663561 -0.96700615 0.58262056 40.0
0.54177189 -0.81925827 -1.08806431 40.0
-1.06728578 0.85820967 1.61510098 40.0
-0.37011060 -1.57091737 -0.07638117 40.0
-1.34457684 -0.85820305 0.44665954 40.0
0.50362086 1.41254008 0.89529437 40.0
-1.27799666 -1.18958116 -1.11050510 40.0
-1.43735337 -0.35966974 0.31946123 40.0
0.21079859 0.78775436 1.62462807 40.0
-0.97762817 1.34774470 -1.04522192 40.0
1.02722847 0.90340722 1.61183834 40.0
1.31508946 1.17937875 -0.00849913 40.0
-0.24188839 0.07596795 1.63006234 40.0
-1.44212329 -0.06975405 0.17726429 40.0
0.74794966 -0.85376060 0.71681565 40.0
-0.08718056 -1.47124279 -1.05276632 40.0
-0.40952548 -0.30445355 1.43214238 40.0
0.31027859 0.69279313 -1.08476460 40.0
1.38665986 0.70642662 0.18484168 40.0
1.38601065 -0.14809299 -0.67433608 40.0
-0.25772107 0.09758041 -1.08727121 40.0
-1.32920671 0.92513937 0.89806086 40.0
0.04636461 -1.65173745 -0.59992892 40.0
-1.44032156 0.42602277 0.18305628 40.0
0.22173986 -0.36668679 -1.08604538 40.0
0.53744256 0.24263668 1.65239370 40.0
1.10480750 -1.55341041 -0.73433673 40.0
-0.23009682 1.37871718 1.08516574 40.0
-1.44172919 0.01186433 -0.00897930 40.0
1.18720663 0.43124557 -1.06869602 40.0
-0.09999241 1.26988816 -1.06055367 40.0
-1.08838499 1.17312217 1.47170997 40.0
1.33755279 -0.78851253 0.43954930 40.0
0.74794966 -0.85376060 0.71681565 40.0
0.66171521 -1.39215589 0.22272067 40.0
-0.56275004 1.09209073 1.57323587 40.0
-1.22373188 0.38531128 -1.06909430 40.0
1.30014372 1.08655286 -0.89132476 40.0
-1.40284395 -0.78862184 -0.41988114 40.0
-1.41492617 0.52880090 -0.66892654 40.0
1.32454038 -1.15599489 -0.38185880 40.0
-1.40029097 0.88315678 0.18439287 40.0
0.72594512 -1.65715122 -0.36932239 40.0
-1.27630877 -1.21683311 0.34022459 40.0
0.05266290 1.47315168 0.36187387 40.0
-1.15403807 0.84875458 -1.51407433 40.0
0.37857887 0.54310352 1.63993430 40.0
0.97639596 1.06476629 -1.37264359 40.0
1.09725046 1.46322334 -0.26396146 40.0
-1.12089705 1.12218916 -1.22933280 40.0
0.96209300 0.53793466 1.63993430 40.0
0.20474783 1.46860003 0.02436945 40.0
-1.42389536 0.65731567 -0.19093584 40.0
-1.39963293 -0.89756441 0.04618896 40.0
-0.56021690 1.10781538 -1.08223987 40.0
0.29834160 -1.19824529 -1.07839394 40.0
1.27905107 -1.34739816 0.05480400 40.0
1.40348017 -0.22175333 -0.20207214 40.0
-0.56886780 1.00946879 1.60438645 40.0
1.14950299 -0.74644500 0.81090295 40.0
0.08585129 1.03450990 -1.08361506 40.0
0.67551708 -1.25788677 0.37061560 40.0
0.99016148 1.15136337 1.52136528 40.0
0.41952598 0.54239810 -1.08548999 40.0
0.36333236 1.46259868 0.21285799 40.0
0.81202984 -1.31103647 0.31556082 40.0
-0.42897865 -0.36636993 -1.08604538 40.0
-0.72591192 1.31399179 -1.05791926 40.0
-0.38122013 1.41409922 0.89529437 40.0
-0.09207548 0.87897098 1.61980045 40.0
0.83535713 -0.23435505 1.49996662 40.0
1.39508224 -0.50739980 0.29582453 40.0
0.29780465 -1.17093766 -1.08417618 40.0
-0.12106287 -1.17179692 -1.08417618 40.0
0.05615181 -1.07928550 0.51454270 40.0
-0.92703497 -0.14947984 -1.08715987 40.0
0.69137692 0.07552697 1.63006234 40.0
-0.55924928 -1.02830195 -1.10291219 40.0
-0.61775321 -0.92849046 0.61611480 40.0
0.67807257 1.13234460 1.54860067 40.0
1.32928407 0.17526023 0.89166766 40.0
-0.39916116 1.48844826 -0.26615226 40.0
1.19030154 1.04996908 1.23059285 40.0
-1.40344203 -0.78851253 0.34171721 40.0
-1.26426888 -1.45152664 -0.26910409 40.0
-0.72170693 -1.15966499 0.45365033 40.0
-0.57009065 -0.00787648 1.61661232 40.0
0.93591428 -0.08795704 1.59309459 40.0
1.10539436 -0.84572721 0.69980854 40.0
0.64723921 1.46354926 0.49978372 40.0
0.19651683 1.47192299 0.36187387 40.0
1.40580702 -0.22175333 0.16695568 40.0
-1.00874615 -1.63128173 -0.35861105 40.0
-0.82905567 1.46588516 0.36145383 40.0
0.74038345 0.43768233 -1.08677757 40.0
1.23246133 1.00876856 -1.37316012 40.0
1.35177732 -0.93392938 -0.42343849 40.0
-0.56021690 1.10781538 -1.08223987 40.0
0.99777782 0.81014788 -1.45387352 40.0
-0.89832884 -0.66328037 0.99759752 40.0
-1.37917602 -0.92992437 0.32609951 40.0
1.36767662 -0.78862184 -0.41988114 40.0
1.33782053 -1.07718313 -0.31261957 40.0
1.36855364 0.74964976 0.60259056 40.0
-0.91230279 -0.96328902 0.58262056 40.0
1.32928407 0.17526023 0.89166766 40.0
1.06518567 1.04999352 1.55181491 40.0
1.22328806 1.41026855 0.13308057 40.0
-1.20453310 -0.48744118 1.10225475 40.0
1.34111536 -1.07718313 -0.04603403 40.0
1.33712602 0.70921999 -1.13417113 40.0
1.11546135 1.06563556 1.45662999 40.0
1.36512363 0.88315678 0.18439287 40.0
-1.14823341 -1.55623031 -0.54479718 40.0
-0.12094223 -1.13920963 -1.09092605 40.0
-0.09610593 -0.36691061 -1.08604538 40.0
-1.12075329 0.92709893 1.58527112 40.0
1.04197788 0.71960276 1.62329614 40.0
1.15867150 0.35822135 1.52694833 40.0
1.33981872 1.00595546 -0.37955827 40.0
1.19260120 -1.39762640 0.13728371 40.0
-1.37849796 0.66257858 -0.91996986 40.0
1.18886411 0.17805333 -1.06918216 40.0
0.05663303 0.33465198 1.65297389 40.0
1.19678020 1.00987613 1.23873401 40.0
1.10253513 1.09278870 -1.30510533 40.0
-0.95158786 0.90388238 -1.40984797 40.0
-1.43509400 -0.35966974 -0.20796235 40.0
-0.23510498 -1.31613326 0.31566590 40.0
-0.77781451 0.86098874 -1.13345337 40.0
-1.10035300 1.04999352 1.55181491 40.0
0.45922828 -1.64339399 -0.76806730 40.0
