1.27545190 0.84770185 -0.24791238 50.0
1.20766318 -0.81548625 1.14603448 50.0
1.27343106 -0.87664020 -0.68189931 50.0
1.27223241 0.41225031 -0.65881997 50.0
0.89516711 -0.90439987 1.25180316 50.0
-0.32224968 1.07534838 -1.16453815 50.0
1.26334417 0.11498733 -1.04798520 50.0
-0.50413948 -0.94359756 -1.19940388 50.0
0.60961401 -1.40070117 0.30044806 50.0
-1.31334841 0.11502592 -0.66922241 50.0
0.65160459 0.93321663 -1.17959034 50.0
0.44479504 -0.93285358 1.28976595 50.0
-0.95461249 1.45609534 0.27892110 50.0
0.78645420 1.01789713 -1.24141586 50.0
1.24974167 -0.90486848 1.04835534 50.0
-0.94000357 -0.50841117 1.21280229 50.0
-0.72353959 0.87062663 1.30412984 50.0
1.24646997 1.14492583 1.15141106 50.0
0.08758719 0.27859876 -1.18514669 50.0
-0.60515803 0.30235723 1.28783512 50.0
-1.29862452 -0.93301123 0.77546579 50.0
1.24944186 -1.01543927 0.15300781 50.0
-0.11604473 -0.50806910 1.27293396 50.0
-0.93757749 -0.81512994 1.23723018 50.0
-0.90414250 -0.02755263 1.25420618 50.0
0.28933594 0.27698395 -1.18680668 50.0
0.41982511 1.17123806 1.28183663 50.0
-1.29592359 -0.34911719 -1.00167108 50.0
0.78174746 -0.93512183 -1.32153201 50.0
0.73886514 -1.38487554 -1.10725868 50.0
1.09045589 -1.07466114 -1.60242689 50.0
-1.31866753 0.84700102 0.62763262 50.0
1.23055601 -1.12353241 0.91818684 50.0
0.07626941 1.03527558 1.31848133 50.0
-0.86201274 -1.18914473 -1.18024325 50.0
0.08603445 1.46666086 0.43062496 50.0
1.28701639 -0.77626669 0.44248936 50.0
0.86914676 -1.18505919 1.22916186 50.0
-0.49759048 1.42593324 -1.11309052 50.0
-0.81543350 0.54783797 -1.19535363 50.0
1.15688300 -1.37747812 -0.29059586 50.0
0.85741210 0.98050421 1.28698575 50.0
0.96052891 0.84651846 -1.83832467 50.0
-1.31333995 0.11571094 -0.37346092 50.0
-1.31875944 -0.34777027 0.50254488 50.0
-1.32356060 0.11625460 0.44283807 50.0
-1.28776300 -0.98666000 0.28629616 50.0
-1.26157212 -1.12511361 -0.68213701 50.0
0.60998946 -1.38693249 -1.10479450 50.0
-0.32653463 -0.77586293 -1.16469657 50.0
-0.76880294 -1.40430152 -0.68032455 50.0
-0.64365011 -1.40070498 0.40414929 50.0
-1.07759619 -0.98604912 1.23619044 50.0
-0.49955672 1.46331990 0.92882156 50.0
-0.61693889 -0.31133533 1.24332082 50.0
0.57301843 0.77239788 1.31351423 50.0
1.20249248 -1.19184041 -0.93446892 50.0
0.07760109 -0.19083598 1.27997088 50.0
-0.83568746 -0.93229961 1.26228094 50.0
-1.28239763 -1.01543927 0.15300781 50.0
1.27464950 -0.70629108 -0.93485111 50.0
0.26233086 -1.37648952 0.97791958 50.0
-1.31302798 -0.34795904 -0.03974388 50.0
0.90704763 -0.50841117 1.21280229 50.0
-0.82536310 1.45058715 1.21333301 50.0
-0.11201891 1.43505120 1.30286384 50.0
-0.10943923 1.18535531 1.29881692 50.0
-0.12128355 -0.86426991 -1.17022884 50.0
0.45290950 -0.54771960 1.24855793 50.0
1.27942955 0.27240932 0.08902971 50.0
-1.30649853 0.99141228 -0.21013892 50.0
-1.24607766 -0.50992239 1.13998878 50.0
-1.30775321 0.67140645 -0.21388097 50.0
1.29060483 0.11625460 0.44283807 50.0
-1.25222421 -1.19390666 0.15300781 50.0
1.27920926 0.93218851 1.12993264 50.0
-1.26527119 1.33851147 -0.13140035 50.0
1.27821505 0.95873809 -0.47787935 50.0
0.46368212 1.46113086 -0.78062886 50.0
-1.32485831 -0.47235918 0.53527236 50.0
1.28932202 0.78876305 0.28458485 50.0
0.65676188 -0.59798878 -1.16950488 50.0
-1.26177847 -1.12424958 0.44112933 50.0
-1.26269829 0.80208105 1.24371707 50.0
-1.24102736 -1.27922308 -0.48549622 50.0
1.26016271 1.06860650 -0.24735470 50.0
-0.89244097 0.65392554 -1.23277771 50.0
0.28759861 1.46548748 1.01119733 50.0
1.02524376 -1.33107185 1.04029536 50.0
0.27298254 -1.40186095 0.32921618 50.0
-1.02826381 -0.59616888 -1.17215443 50.0
1.24934411 -1.01595557 -0.29059586 50.0
1.27306736 0.87200534 -0.62428492 50.0
-1.32074475 0.12269962 1.11016357 50.0
1.28580368 -0.34777027 0.50254488 50.0
-1.11460781 -1.34405971 -1.10732329 50.0
-1.31185341 0.95945936 -0.02886738 50.0
-1.32109189 0.92742956 0.77974236 50.0
0.46438691 1.46334600 -0.07268252 50.0
-1.25211060 -1.19443679 -0.68248141 50.0
1.24329305 -1.04722309 -0.48552838 50.0
-0.64273769 -1.40077734 0.50027972 50.0
1.26035082 1.06768298 -0.87792438 50.0
1.29322839 0.82059717 0.96713841 50.0
-0.31760988 1.46404314 1.12380397 50.0
1.27904296 0.84772325 0.11909559 50.0
-0.98357499 1.34617496 -1.16384113 50.0
-0.10922536 1.03527558 1.31848133 50.0
-1.31104934 0.95947284 -0.21013926 50.0
-0.11322189 -1.07784355 1.32065237 50.0
-1.32802880 -0.70404685 0.77016151 50.0
1.22410333 -0.61423320 1.12824202 50.0
-1.31582367 0.78891218 -0.02888680 50.0
-0.64131522 -0.47275361 1.22700489 50.0
0.46371970 1.46284556 -0.47525436 50.0
-1.19038737 -1.35946143 0.88538378 50.0
1.09173739 -1.27311671 -1.10832798 50.0
1.24437952 1.33853245 0.61672735 50.0
0.86672240 0.11498733 -1.19133019 50.0
1.27821887 -0.84578955 0.44249469 50.0
-0.82010394 -0.34972793 -1.17398632 50.0
-0.99262011 0.98901701 -1.70260179 50.0
0.44594473 -1.40112221 0.51586491 50.0
0.47711796 0.96980345 -1.15311646 50.0
-1.02010787 0.11498733 -1.19133019 50.0
-1.32164812 -0.46964389 0.13883063 50.0
-1.10529995 1.44638097 0.13082965 50.0
1.04309070 1.04084420 1.26539326 50.0
0.75683320 0.30027086 1.27767372 50.0
1.25179255 0.78796756 -1.58594108 50.0
-0.82544810 -0.80281699 -1.22905397 50.0
1.26712728 1.02452576 -0.14600176 50.0
1.26334417 0.11498733 -1.04798520 50.0
1.12601006 0.92775041 -1.85627484 50.0
-1.28402281 1.24353135 0.28548357 50.0
1.24944186 -1.01543927 0.15300781 50.0
1.24746227 0.92775041 -1.64305472 50.0
-1.27592659 -0.87664020 -1.58149385 50.0
0.57072818 0.69821924 1.31101930 50.0
0.41785169 0.87940598 1.32095659 50.0
-1.27584064 1.33844423 0.45325160 50.0
-1.28604650 1.14250588 -0.87411737 50.0
0.88012242 -1.04531193 1.26951396 50.0
-0.11881263 1.45689440 -0.95687389 50.0
0.98726851 -0.70294428 -1.18664014 50.0
-0.50895196 0.82802534 -1.18385303 50.0
-1.29662907 -0.05084004 -1.04196823 50.0
1.27814639 0.95911354 -0.33487162 50.0
1.09044206 -1.13525152 -1.22696245 50.0
1.27772105 0.90316612 1.13398099 50.0
-1.26944280 -1.08106780 -0.29059586 50.0
-1.29296958 1.14293408 0.45561960 50.0
0.45082736 -0.50823653 1.24455476 50.0
-1.31567132 0.41313437 0.44542721 50.0
1.24352503 -1.04635096 0.44238839 50.0
-0.48018879 -0.87481421 1.28008437 50.0
-0.47890067 -1.40112221 0.51586491 50.0
0.86289507 0.81081188 1.30278254 50.0
-1.32437825 0.78852952 0.46144602 50.0
-1.26962423 -1.08022463 0.34407103 50.0
0.64425808 0.55026817 -1.19200230 50.0
-1.32164812 -0.46964389 0.13883063 50.0
1.07231665 -0.50871181 1.19597769 50.0
0.73839504 -1.40027332 0.28983414 50.0
1.04018295 -1.04537189 1.23972070 50.0
-0.64080375 -1.40320790 -0.91171110 50.0
1.20860887 -1.27803707 0.34316474 50.0
-1.25883245 -0.03497084 1.20067143 50.0
-0.64757627 -0.81490803 1.25771713 50.0
-1.25211060 -1.19443679 -0.68248141 50.0
-1.31325507 0.74712342 -1.05206764 50.0
1.25466001 -0.98746747 -0.68189931 50.0
1.29499614 -0.59353805 0.10645259 50.0
-0.11629040 -0.70121449 1.29197669 50.0
-1.32331145 -0.04886981 0.48416597 50.0
-0.28871107 0.30659851 1.30793297 50.0
-1.22223186 1.40881610 -0.42907158 50.0
-1.31083143 0.92863697 -0.24791238 50.0
0.07998936 -0.43054760 1.26817393 50.0
-0.11878365 1.46271920 -0.76827526 50.0
0.26966637 -1.40122414 0.63824785 50.0
-1.27619469 -1.04624140 0.92464936 50.0
-1.27693546 1.33781600 1.00200391 50.0
-1.31460023 0.95940787 0.11902237 50.0
1.02325916 1.34989417 1.28298652 50.0
0.96565181 0.78757906 -1.74303949 50.0
1.13631594 0.66570747 -1.26283205 50.0
0.42720592 1.36519206 1.29059052 50.0
0.43038845 -1.33568919 1.09010780 50.0
-1.29545057 -0.93295807 0.91999418 50.0
-1.27557647 0.87197351 -1.66363156 50.0
-1.32167447 0.82070339 0.46156424 50.0
0.92172164 1.45862448 0.02817212 50.0
-0.50681770 -0.35397020 -1.17136836 50.0
0.80427539 -1.39985442 0.28629616 50.0
1.25381470 -0.98652881 0.92424297 50.0
0.64024031 1.25232673 -1.16898370 50.0
-1.31713915 0.55556959 1.13980877 50.0
-0.99575919 0.95851457 -1.77361584 50.0
-1.31250441 0.82039464 -0.47787935 50.0
-0.32349512 -0.35652608 -1.16979122 50.0
1.27651906 0.87287861 0.11916851 50.0
1.27814639 0.95911354 -0.33487162 50.0
1.26875782 -0.90590167 -1.27462101 50.0
-0.12099201 -0.89406210 -1.17877150 50.0
1.25381470 -0.98652881 0.92424297 50.0
-1.31304431 -0.34795895 0.03181108 50.0
1.28073406 -0.05011637 -0.35357872 50.0
-0.84766275 -0.77524185 1.23920429 50.0
1.01812267 -1.39253545 0.75634587 50.0
-0.80177265 1.45708120 0.37073410 50.0
-1.11460781 -1.34405971 -1.10732329 50.0
1.21104574 -0.43377480 1.16027462 50.0
-1.31437576 0.89935833 0.28469518 50.0
1.11242807 0.72490728 -1.55240905 50.0
1.26875782 -0.90590167 -0.94013208 50.0
-1.10292220 1.44134200 -0.94836956 50.0
0.78664184 -0.87775970 -1.29458046 50.0
1.26410353 -0.93387270 -0.29059586 50.0
-1.26954830 -1.08055174 0.15300781 50.0
0.86273128 0.84651846 -1.57251978 50.0
1.22027433 -0.54918456 1.13145113 50.0
-1.31967807 0.95849812 0.62213987 50.0
-1.32607257 0.67130566 0.97266424 50.0
-0.89606619 0.98901582 -1.48097908 50.0
1.03856409 -1.39341688 -0.29059586 50.0
1.27872682 -0.21157999 0.02842744 50.0
0.88012242 -1.04531193 1.26951396 50.0
-1.32374179 0.55056268 0.96789193 50.0
0.92288303 1.45736241 0.66292632 50.0
0.08692174 1.46783292 1.07616556 50.0
-0.62149984 -1.33535743 1.08040035 50.0
1.27376986 0.99018240 -1.29114258 50.0
1.25137901 -1.01509833 0.77796966 50.0
-1.31368291 -0.05080144 -0.65844172 50.0
1.28932202 0.78876305 0.28458485 50.0
0.46317217 -1.08568680 -1.18817163 50.0
-0.50398856 0.41751826 -1.18911541 50.0
-0.75119710 -1.18529081 1.24167931 50.0
0.83569640 1.45177948 1.07589948 50.0
-0.45194468 0.77668256 1.32307363 50.0
1.28039312 0.11498733 -0.79500461 50.0
0.07906296 1.43505120 1.30286384 50.0
-0.28804442 0.91026396 1.32753551 50.0
0.44433123 -1.40559208 -0.66938627 50.0
-0.67914593 -0.91058534 -1.21142101 50.0
0.47154397 0.70852029 -1.18550134 50.0
-0.88321519 1.04234767 1.27315032 50.0
-0.99688846 0.75491875 -1.65020072 50.0
-1.09343600 -0.19226880 1.23291028 50.0
-1.32437825 0.78852952 0.46144602 50.0
1.27576816 0.27242318 -0.24687484 50.0
1.05751228 -0.31125507 1.22115374 50.0
0.92151546 1.45897090 -0.02429297 50.0
-1.27689838 0.89860696 -1.65997684 50.0
0.80687636 -1.38426006 -1.10787511 50.0
1.26884699 -0.90535575 0.15300781 50.0
-1.19457757 -0.34911719 -1.13133681 50.0
0.79757446 -0.98601633 1.26704574 50.0
-1.29978323 -0.37783757 1.12179410 50.0
-0.86929560 1.46008992 0.08211382 50.0
0.26966637 -1.40122414 0.63824785 50.0
-0.86795688 1.45661032 0.56868088 50.0
-1.30602825 0.87197351 -0.75130123 50.0
-0.76959574 -0.93236488 1.26653087 50.0
1.27957690 0.82020277 -0.62428492 50.0
-0.95468545 1.45748019 0.11751333 50.0
-1.31322062 0.82112026 -0.02887664 50.0
-1.30020225 1.02360034 -0.62428492 50.0
-0.67942536 -0.21412791 -1.17801356 50.0
-1.31367540 0.74593753 -0.02884699 50.0
-1.25970173 -0.79932326 -1.39367497 50.0
-0.77798188 -1.33781111 -1.17128396 50.0
1.29076779 0.27212417 0.76528317 50.0
1.24340951 0.98962265 -1.56023705 50.0
0.93075317 -1.18953300 -1.18543458 50.0
1.29499614 -0.59353805 0.10645259 50.0
-0.47748414 -1.40422916 -0.90714383 50.0
-0.91027105 -0.38204083 1.21763587 50.0
1.27579606 0.27129507 -0.91375029 50.0
1.27577043 0.27199256 -0.37413290 50.0
-0.28903261 1.03007996 1.31016839 50.0
-0.67837816 0.27315727 -1.19074047 50.0
0.72712111 -1.04531896 1.28107822 50.0
-1.22999942 -1.34285331 0.15300781 50.0
-0.44977620 0.44563401 1.30688977 50.0
1.29190254 -0.47235918 0.53527236 50.0
-1.30016422 1.02379179 -0.47787935 50.0
1.03944862 -1.39248133 -0.06618994 50.0
-1.31599855 0.87211484 0.62702751 50.0
-0.32229188 0.27698395 -1.18680668 50.0
0.72983974 -1.01454115 1.27519107 50.0
0.47592193 1.00073075 -1.14962566 50.0
-0.10935012 0.97176558 1.32916033 50.0
-1.29325676 1.06793582 -0.47672117 50.0
-1.26130605 0.28969795 1.22023618 50.0
1.27558351 0.84684664 -0.62428492 50.0
0.87690449 -1.07791197 1.27191138 50.0
-1.30335426 -0.90500987 0.77475166 50.0
0.47194004 0.27501443 -1.18883133 50.0
0.42696193 -1.40042865 0.79348230 50.0
-1.25413775 -1.19297445 0.77017838 50.0
-0.63131607 -1.07789433 1.29178762 50.0
-1.32747948 0.78799552 0.78517336 50.0
1.24345136 -1.04641652 0.28629616 50.0
-0.78738815 0.98050421 1.28712082 50.0
-0.67712945 0.41488373 -1.19119978 50.0
0.60475093 -0.98620766 1.28088260 50.0
1.28205431 0.78892100 -0.21013953 50.0
1.27343106 -0.87664020 -0.93823361 50.0
-1.31293166 -0.84576935 0.77271158 50.0
-1.26944280 -1.08106780 -0.29059586 50.0
0.46916535 1.46212101 0.99558604 50.0
0.57016128 0.44280705 1.29717422 50.0
-1.27636528 0.98962265 -1.56023705 50.0
-1.31506252 0.78892082 -0.14600737 50.0
-0.11936615 1.37027669 -1.15993273 50.0
0.08803520 0.89171427 -1.16536593 50.0
-0.81705356 0.27174544 -1.19219172 50.0
1.27545190 0.84770185 -0.24791238 50.0
1.04273582 -1.39155352 0.33415964 50.0
0.80427539 -1.39985442 0.28629616 50.0
0.08153940 -0.96036476 1.31739283 50.0
1.27359819 0.99105310 -0.33487162 50.0
-1.14582992 0.70460379 -1.41076100 50.0
1.24437952 1.33853245 0.61672735 50.0
-0.31728610 1.46416116 -0.27056792 50.0
-0.10903832 0.94197679 1.33239639 50.0
0.28477293 1.46440363 0.41651326 50.0
0.08757282 1.08081150 -1.16194570 50.0
-0.80056375 1.46124196 -0.30209097 50.0
-0.30511644 -1.40413678 -0.26220337 50.0
-0.64609408 -0.84452862 1.26095295 50.0
-0.92674512 -1.40046394 -0.91059756 50.0
-0.11384979 -1.40141976 0.65253460 50.0
-1.30171847 -0.90587252 -0.29059586 50.0
-1.30672562 0.99018240 -1.29114258 50.0
0.07910355 -1.26845849 1.21308529 50.0
0.73584700 -1.40430152 -0.68032455 50.0
-0.64449620 -0.87487900 1.26599443 50.0
-1.25268209 -1.19343233 0.60339165 50.0
-1.28665531 1.14358342 -0.02482212 50.0
-1.25760734 -0.98742527 -1.62481284 50.0
0.26984876 -1.01477206 1.30905092 50.0
1.23231542 1.33851147 -0.13140035 50.0
-0.50406396 0.55346483 -1.18933654 50.0
-1.31368244 -0.05084004 -0.90644830 50.0
-1.10490882 1.44670951 -0.07922367 50.0
-0.31435224 -1.15931845 -1.16763413 50.0
1.29252350 -0.70348263 -0.68251193 50.0
-1.26962423 -1.08022463 0.34407103 50.0
-1.27013242 -1.08021176 0.60642999 50.0
-0.94528031 -0.54790676 1.21582639 50.0
1.28652215 0.95889646 0.45893347 50.0
1.16031992 -1.37578917 0.33672217 50.0
-0.32478508 1.00690067 -1.14630938 50.0
0.44488117 -0.47264993 1.24170256 50.0
0.08089385 -1.40141976 0.65253460 50.0
-0.66675210 1.46199071 -0.48487589 50.0
-0.30360621 1.45963609 1.25532234 50.0
0.80154753 -1.40382898 -0.68113017 50.0
0.07648328 1.18535531 1.29881692 50.0
-0.32303470 0.73648655 -1.18370461 50.0
-1.31199896 0.84772325 0.11909559 50.0
0.29065505 -0.89022088 -1.18108284 50.0
-1.26527119 1.33851147 -0.13140035 50.0
0.29007876 0.73648655 -1.18370461 50.0
1.28072929 -0.05056987 -0.50569642 50.0
1.28395867 0.89869982 0.62555653 50.0
0.76934630 -0.19165201 1.24629819 50.0
-0.12104756 1.04006732 -1.14447081 50.0
1.26034820 1.06770420 -0.75049102 50.0
-0.99334258 0.70104516 -1.38456690 50.0
0.41830784 0.30441561 1.29758906 50.0
1.27427804 0.89949381 -0.24791238 50.0
-1.29256749 1.14330554 0.28487736 50.0
-0.67942536 -0.21412791 -1.17801356 50.0
1.27862239 -0.84578538 0.60683924 50.0
-0.50700277 -0.88553584 -1.18390179 50.0
-1.31948435 0.92816561 0.45970756 50.0
0.08606739 1.46636462 0.24946506 50.0
-1.30226004 -0.90502423 0.60725629 50.0
-1.09868491 -0.02902822 1.24073648 50.0
0.65033191 0.75918025 -1.20589626 50.0
-1.31445003 -0.04968129 -0.03649490 50.0
-1.31253743 0.82017088 -0.87877810 50.0
-1.30519056 0.41231456 -0.90685421 50.0
-0.89036804 0.98050421 1.28698575 50.0
0.76894110 1.46113789 0.03703613 50.0
0.08609265 -1.06730902 -1.19012666 50.0
0.08308879 -0.50806910 1.27293396 50.0
1.28223777 -0.81800044 -1.21712673 50.0
-0.11514683 -1.40206122 0.44752568 50.0
1.02493417 -1.26594925 1.13555074 50.0
-1.31599736 0.82108289 0.11898038 50.0
-0.32099313 1.16768134 -1.17528367 50.0
-0.30611068 -1.39250779 -1.09811532 50.0
1.19020474 1.40850449 -0.28991657 50.0
-1.31567132 0.41313437 0.44542721 50.0
-1.10211706 1.44472098 1.17027366 50.0
-1.24135697 -1.27843392 0.15300781 50.0
-1.10200036 1.44751072 -0.53590870 50.0
-1.30482292 0.55005896 -0.35094640 50.0
-0.88853163 -0.93390173 -1.57432199 50.0
-1.10753465 -1.09888721 -1.47766197 50.0
-0.86709130 1.46088755 -0.49665505 50.0
0.08682683 1.27478302 -1.16468406 50.0
-1.31097448 -0.21264604 -0.88585961 50.0
0.07606281 0.88903213 1.33940661 50.0
-0.67048270 1.35272610 -1.16277266 50.0
0.79097193 -0.82308692 -1.25119603 50.0
0.86116618 0.72425407 -1.39137506 50.0
0.73618364 -1.40243137 -0.91518319 50.0
1.29493296 -0.59427923 -0.70393378 50.0
1.20984709 1.40780091 1.00730121 50.0
-1.09530509 0.69250041 1.29006374 50.0
-0.89991289 0.78758103 -1.52123725 50.0
-1.28341758 1.24261236 0.78668326 50.0
0.29439336 -0.71256745 -1.16364896 50.0
-0.11357300 -1.04542041 1.32083678 50.0
0.76845753 -1.39993680 0.76512164 50.0
0.73839504 -1.40027332 0.28983414 50.0
-0.47901991 -1.40117705 0.36241588 50.0
-0.11808655 -1.14175820 -1.17103267 50.0
1.21301234 1.00326943 1.22843194 50.0
-0.11527885 -0.87468940 1.30727804 50.0
-1.29317856 1.06831551 -0.33400971 50.0
-0.89292061 1.41894126 1.26214290 50.0
-1.31293166 -0.84576935 0.77271158 50.0
-0.60414678 1.08972812 1.27309203 50.0
0.78662163 -0.05092453 -1.18618071 50.0
-1.32164812 -0.46964389 0.13883063 50.0
1.27854097 -0.31331638 1.04148781 50.0
-1.32550895 -0.70318902 -0.06618994 50.0
-1.26943934 -1.08108485 -0.68192458 50.0
1.06996632 1.44134200 -0.94836956 50.0
1.28971386 0.74559945 0.46264783 50.0
-1.27625453 -1.04719436 -0.29059586 50.0
0.78714806 -0.34972793 -1.17398632 50.0
-1.30782354 0.67065483 -0.48221451 50.0
-1.19457757 -0.34911719 -1.13133681 50.0
-1.11523283 -0.61272478 1.19776821 50.0
0.83528876 1.45170927 -0.97119236 50.0
-1.30522072 0.99451047 1.12464118 50.0
-1.31117094 0.95873809 -0.47787935 50.0
-1.20357680 -1.07856798 1.16691256 50.0
0.76333213 -1.11928201 -1.21010542 50.0
1.28415334 -0.04967792 0.11704024 50.0
0.57865369 -0.02705002 1.26587331 50.0
-1.30602300 0.87200534 -0.62428492 50.0
1.03944862 -1.39248133 -0.06618994 50.0
-0.60311723 0.44280705 1.29717422 50.0
1.27343106 -0.87664020 -0.68189931 50.0
1.04273582 -1.39155352 0.33415964 50.0
1.27889752 0.95945936 -0.02886738 50.0
-0.61695641 1.35871232 1.28095019 50.0
-0.11669566 -1.29367661 -1.16095281 50.0
-1.29705954 -0.93387270 -0.29059586 50.0
0.41940698 0.96106076 1.31070960 50.0
-0.90445894 -0.76436812 -1.21562815 50.0
1.26875782 -0.90590167 -0.48552740 50.0
-0.67719442 -0.93878245 -1.21874702 50.0
1.24431872 1.24379265 -0.13780604 50.0
1.28860831 0.92781997 0.95961702 50.0
-0.92209554 -1.40210903 -0.67651522 50.0
-1.32558441 -0.70251077 0.28629616 50.0
0.85290116 1.35168743 1.27746022 50.0
-1.26605856 1.33885062 -0.01544440 50.0
-0.63356584 -1.04533982 1.28926873 50.0
-0.60561764 1.01776767 1.29046869 50.0
-1.30667663 0.99041516 -1.05005515 50.0
-0.77798188 -1.33781111 -1.17128396 50.0
0.08207387 -1.40220618 0.39010876 50.0
-0.99864036 0.65486825 -1.26170480 50.0
0.25906062 1.28135979 1.29661238 50.0
-1.18421268 0.41561496 -1.15643537 50.0
1.28271556 0.41313437 0.44542721 50.0
0.08758719 0.27859876 -1.18514669 50.0
-0.72349864 0.92225158 1.29711843 50.0
-0.89418715 0.87197351 -1.57774532 50.0
-0.31744036 1.46620238 0.82485139 50.0
-1.26168418 -1.12458324 0.15300781 50.0
1.28415334 -0.04967792 0.11704024 50.0
1.06705654 0.14127336 1.25037754 50.0
-1.11063993 1.44672525 0.46980721 50.0
1.26759136 -0.45843908 1.07591426 50.0
-0.87587112 -1.04527259 -1.49210894 50.0
-0.62386799 -1.26755404 1.18251193 50.0
-1.31593108 -0.81629443 0.60657901 50.0
0.62208039 1.45710897 1.16254139 50.0
-0.89585096 0.81081188 1.30278254 50.0
0.28738046 1.46467435 1.06336820 50.0
-1.31964016 0.82095784 0.28467727 50.0
-0.46507904 -1.26786280 1.19294655 50.0
0.60835928 -0.47275361 1.22700489 50.0
-1.31163800 0.92869633 -0.02886614 50.0
0.61945415 -0.61224115 1.24039137 50.0
-1.31504738 0.78856122 -0.33487162 50.0
-0.82292974 0.81986499 -1.30508316 50.0
1.06936085 1.44688416 -0.66206604 50.0
-0.11889221 1.46845222 0.83820570 50.0
1.27479744 0.67140645 -0.21388097 50.0
0.69242036 0.30079246 1.28041995 50.0
0.08809161 1.04006732 -1.14447081 50.0
0.76136506 -1.14140630 -1.18720269 50.0
0.08604995 1.46617270 0.08850659 50.0
0.64425808 0.55026817 -1.19200230 50.0
-0.31734851 1.46512711 0.63368475 50.0
1.23652267 -1.08089340 -0.06618994 50.0
1.27307224 0.87197351 -1.32960916 50.0
-1.23057854 -0.87536782 1.15448999 50.0
1.03011489 -1.38662910 0.83088291 50.0
-0.10943923 1.18535531 1.29881692 50.0
-1.26431108 -1.12404323 0.77268112 50.0
1.28869236 -0.46964389 0.13883063 50.0
0.85983557 1.01637590 -1.42526627 50.0
0.86381507 -1.33376884 1.06265831 50.0
0.83606738 1.45637655 0.35409284 50.0
-1.09032965 0.86763036 1.28913713 50.0
-0.32577547 -0.48061359 -1.16631556 50.0
-1.08860672 0.94816554 1.27956200 50.0
-0.29411298 -0.31107578 1.26330340 50.0
-1.11460781 -1.34405971 -1.10732329 50.0
1.23149252 1.33810604 -0.45100349 50.0
-1.26157212 -1.12511361 -0.68213701 50.0
-1.31333554 0.11605827 -0.28373215 50.0
1.25491071 -0.87556607 1.04520082 50.0
-0.45361736 0.14558697 1.28642821 50.0
-1.29317856 1.06831551 -0.33400971 50.0
0.47194004 0.27501443 -1.18883133 50.0
-1.28599107 1.14282191 -0.47208843 50.0
0.69054270 0.92225158 1.29711843 50.0
1.27482510 0.67103881 -0.33889031 50.0
0.41979203 0.82003701 1.32353723 50.0
1.28862596 -0.47052461 -0.23071863 50.0
1.04166162 -1.39182496 0.59674108 50.0
-0.32446775 -0.86060369 -1.17259896 50.0
-0.76324767 1.45141518 1.21517050 50.0
0.91908687 1.45946765 -0.50881463 50.0
0.85205102 1.14507210 -1.19233716 50.0
-1.25268209 -1.19343233 0.60339165 50.0
-0.32204390 0.71256953 -1.18249154 50.0
-1.28244722 -1.01517749 0.28629616 50.0
1.15743136 -1.35946143 0.88538378 50.0
1.27803075 0.92775041 -1.32190847 50.0
1.07231665 -0.50871181 1.19597769 50.0
0.28705168 -1.00334346 -1.20256901 50.0
1.26787877 1.02451098 -0.02879680 50.0
0.96393257 0.75491875 -1.65020072 50.0
-1.13002646 -1.18957114 -1.13336575 50.0
-1.30666840 0.99045372 -0.75130194 50.0
0.27209061 -1.40526628 -0.46193075 50.0
-0.28848296 0.93732911 1.32408416 50.0
1.24352503 -1.04635096 0.44238839 50.0
-0.11012243 -0.02559717 1.29213154 50.0
-0.93757749 -0.81512994 1.23723018 50.0
-0.45278105 1.17123806 1.28183663 50.0
1.28008842 -0.34795895 0.03181108 50.0
0.08809161 1.04006732 -1.14447081 50.0
0.63470709 1.46211100 -0.08554826 50.0
1.27442074 0.89863896 -0.62428492 50.0
-0.79727703 1.35207903 1.27207589 50.0
0.07910355 -1.26845849 1.21308529 50.0
-1.11857998 1.44689763 0.61999518 50.0
0.08889480 -0.80261308 -1.16376138 50.0
1.28809595 0.79297769 1.13847852 50.0
-0.11497823 -1.40235019 0.34135592 50.0
-1.30653679 -0.87576663 0.34419414 50.0
0.78662163 -0.05092453 -1.18618071 50.0
0.25511044 0.70622271 1.33076036 50.0
-1.25211060 -1.19443679 -0.68248141 50.0
1.23775613 1.01941001 -1.49462795 50.0
-0.45989117 -0.31120935 1.25301874 50.0
1.28778899 0.12269962 1.11016357 50.0
1.29588032 0.11730579 0.94587690 50.0
1.28242064 0.67128831 0.28322217 50.0
-0.90491688 -0.19165201 1.24461663 50.0
1.25660515 -0.98657954 0.77743673 50.0
1.26720834 1.02379179 -0.47787935 50.0
1.24933875 -1.01598465 -0.48552740 50.0
-0.28903261 1.03007996 1.31016839 50.0
0.08308879 -0.50806910 1.27293396 50.0
-0.64256996 -1.40070117 0.30044806 50.0
1.27191889 0.54944229 -0.64292139 50.0
-1.26325667 0.75930756 1.24599874 50.0
1.28039312 0.11498733 -0.91374385 50.0
-0.60644537 0.95551437 1.30114949 50.0
0.80468792 -1.40010595 0.48448351 50.0
1.27363312 -0.87576646 0.44249755 50.0
-0.48135918 -0.84434605 1.27541637 50.0
-1.31253743 0.82017088 -0.87877810 50.0
0.28460667 1.46465576 -0.05903830 50.0
-1.20837212 1.40819991 -0.95815295 50.0
0.78141171 -1.18523419 1.23771834 50.0
0.65001553 -0.85191554 -1.19152975 50.0
0.63374490 1.46165204 -0.63640368 50.0
-1.24280286 1.40780091 1.00730121 50.0
-1.26230490 -1.12420821 0.60464859 50.0
0.91939318 1.45904684 -0.64911479 50.0
0.83434296 1.45924878 -0.79307890 50.0
-1.31344259 0.99116349 0.28415030 50.0
1.04273582 -1.39155352 0.33415964 50.0
0.89840114 -0.87501520 1.24606848 50.0
0.78714806 -0.34972793 -1.17398632 50.0
0.73029172 1.45141518 1.21517050 50.0
1.27804089 -0.21192227 -0.30031547 50.0
-1.32747948 0.78799552 0.78517336 50.0
-1.27720380 1.24340379 -0.32392707 50.0
-0.32377422 1.03484356 -1.14718390 50.0
0.83548498 1.46062398 -0.10519251 50.0
-0.11470260 -1.40620029 -0.89832896 50.0
-1.29258156 -0.95987713 0.34419587 50.0
0.75586873 0.76805490 1.30367708 50.0
0.08877262 -0.48339140 -1.16452742 50.0
-0.29724196 1.43169129 1.29213858 50.0
-1.28761578 -0.98746747 -0.68189931 50.0
-0.89830863 -0.21264604 -1.17939723 50.0
0.80587584 -1.39993978 0.38914347 50.0
-0.32204390 0.71256953 -1.18249154 50.0
-1.30517530 0.41247261 -0.51018882 50.0
1.28122258 -0.21194831 0.18617596 50.0
-0.32734931 -0.71256745 -1.16364896 50.0
-0.50449991 0.70852029 -1.18550134 50.0
-1.30335426 -0.90500987 0.77475166 50.0
-0.46491045 -1.40074492 0.71508241 50.0
-0.32575393 -0.81381381 -1.16685724 50.0
1.26463521 -0.93302470 0.60740376 50.0
-0.10899843 1.06675088 1.30942416 50.0
0.63424027 1.45945573 0.60026175 50.0
-0.31899574 -1.03219402 -1.19923794 50.0
1.20865309 -1.27830529 0.77457076 50.0
1.08227694 -0.61272478 1.19776821 50.0
0.79353130 -0.78859013 -1.20638084 50.0
0.27541137 -1.35420084 -1.16338706 50.0
-0.73346847 -0.02742698 1.25906038 50.0
-1.28269744 -0.90486848 1.04835534 50.0
0.46492562 -1.05652416 -1.19508302 50.0
-0.46016186 1.36519206 1.29059052 50.0
1.19641066 -1.34334159 -0.06618994 50.0
-1.28426588 -0.81989580 -1.46061671 50.0
1.23217702 1.33816075 -0.23218647 50.0
-0.80011398 1.46107078 -0.64266580 50.0
-1.30723476 0.89956564 -0.21013896 50.0
1.28652859 0.92816561 0.45970756 50.0
1.17176175 -0.59618694 -1.11151505 50.0
0.80524528 -0.90433925 1.25696421 50.0
-1.26316512 1.33984971 1.18843973 50.0
0.46976006 -0.97082108 -1.20393515 50.0
0.78506953 -1.11956370 1.27186894 50.0
0.44439736 -1.40449655 -0.47007108 50.0
0.41724315 0.90479028 1.31739736 50.0
1.24340951 0.98962265 -1.56023705 50.0
-0.30280471 -1.01477206 1.30905092 50.0
1.28164446 0.95940787 0.11902237 50.0
1.24974167 -0.90486848 1.04835534 50.0
-0.62647355 -1.18537354 1.24928355 50.0
0.65160459 0.93321663 -1.17959034 50.0
-0.30511644 -1.40413678 -0.26220337 50.0
1.22679055 0.56556118 1.24219930 50.0
0.07594062 0.70959997 1.33909070 50.0
-0.31782570 1.46464598 0.23622684 50.0
0.25670514 1.17899537 1.29116702 50.0
-1.32109189 0.92742956 0.77974236 50.0
0.46368212 1.46113086 -0.78062886 50.0
-0.89967835 0.11498733 -1.19133019 50.0
-0.67319632 1.25232673 -1.16898370 50.0
0.63752681 1.35272610 -1.16277266 50.0
1.27995157 0.74594527 -0.14600484 50.0
-1.30738199 0.89860696 -0.75130123 50.0
1.29311657 0.67130566 0.97266424 50.0
0.74080688 -0.87492812 1.25528312 50.0
0.85269636 -0.96075028 -1.57877946 50.0
0.87118649 -0.02755263 1.25420618 50.0
1.04208732 -1.39165139 0.28629616 50.0
-1.25222421 -1.19390666 0.15300781 50.0
-1.30840766 0.84770185 -0.24791238 50.0
-1.16049683 0.81880009 -1.83557713 50.0
-0.62149984 -1.33535743 1.08040035 50.0
-0.90609837 -0.47083238 -1.17263758 50.0
-1.08738506 0.97877949 1.27572513 50.0
1.29035568 -0.04886981 0.48416597 50.0
0.79129112 0.78870142 -1.29871893 50.0
-1.27039981 -1.07995379 0.92226321 50.0
-0.99514538 -0.84764022 -1.67358136 50.0
-1.26177847 -1.12424958 0.44112933 50.0
-0.96742916 1.45401895 0.96435618 50.0
-1.31860662 0.78887790 0.11893463 50.0
0.86531007 0.81869018 -1.55482984 50.0
1.08562410 1.44689763 0.61999518 50.0
1.28071964 0.74593753 -0.02884699 50.0
0.41979459 0.99210036 1.30639386 50.0
-0.83457577 -1.40166855 -0.29059586 50.0
-1.31923532 0.87222868 0.96588582 50.0
-1.32545781 0.78825670 0.62725675 50.0
-0.81705356 0.27174544 -1.19219172 50.0
0.85741210 0.98050421 1.28698575 50.0
-0.80749387 -1.33484209 1.06943154 50.0
1.24329865 -1.04719436 -0.29059586 50.0
1.23744404 -1.07995379 0.92226321 50.0
-1.32804680 -0.59312844 0.38748544 50.0
1.28210676 0.78892082 -0.14600737 50.0
-1.32161164 -0.47007468 -0.03321315 50.0
-1.31528676 -0.81729215 -0.93194461 50.0
0.65001553 -0.85191554 -1.19152975 50.0
-1.28247249 -1.01511192 0.34419709 50.0
1.26731980 -0.90496737 0.91832316 50.0
-0.11904860 -1.06730902 -1.19012666 50.0
-1.11063993 1.44672525 0.46980721 50.0
0.83500093 1.45661032 0.56868088 50.0
1.22796905 -1.04598069 1.05687082 50.0
1.16894448 -0.47107360 -1.12029362 50.0
-1.29298091 -0.95987356 0.60759485 50.0
1.28270626 0.98998243 0.77618819 50.0
-0.94448793 -0.70172334 1.22841346 50.0
-1.28776300 -0.98666000 0.28629616 50.0
-0.50837106 -0.85613203 -1.17548990 50.0
1.27558851 0.84681463 -0.75130123 50.0
0.08280361 -0.81428701 1.30069828 50.0
-0.60414678 1.08972812 1.27309203 50.0
-1.30522072 0.99451047 1.12464118 50.0
1.19110548 1.40811002 -0.16629440 50.0
0.78229213 1.05762577 -1.21144855 50.0
0.08513060 -1.14175820 -1.17103267 50.0
-1.28424895 1.24325168 0.45453617 50.0
0.73873723 -0.90435815 1.26127744 50.0
0.08089385 -1.40141976 0.65253460 50.0
-0.96060586 -1.13981676 -1.23919988 50.0
0.89378923 -1.40046394 -0.91059756 50.0
-1.26966131 -1.08022451 0.44188216 50.0
-1.29395676 -0.21264604 -1.02789199 50.0
-1.29258156 -0.95987713 0.34419587 50.0
1.24738085 -0.84720802 -1.52850008 50.0
0.78174746 -0.93512183 -1.32153201 50.0
-1.09690881 0.76631492 1.29036665 50.0
0.78267050 0.65468156 -1.20514202 50.0
-0.62647355 -1.18537354 1.24928355 50.0
-1.28584015 1.14360273 -0.20755216 50.0
-1.10490882 1.44670951 -0.07922367 50.0
0.78662163 -0.05092453 -1.18618071 50.0
0.78779447 0.84774220 -1.30597794 50.0
0.96707344 -0.80183363 -1.46295094 50.0
-1.31104946 0.95940101 -0.24791238 50.0
1.29448295 0.11640336 0.76868665 50.0
-1.09046817 -0.31125507 1.22115374 50.0
-0.28964198 0.99820769 1.31653261 50.0
-0.50681770 -0.35397020 -1.17136836 50.0
1.27802253 -0.84666538 -0.68190432 50.0
-1.29311872 1.06860650 -0.24735470 50.0
1.28810096 0.27220863 0.60553652 50.0
-0.60259593 0.57854742 1.30504096 50.0
1.23599601 1.33878028 0.12767327 50.0
0.60757893 -1.40485883 -0.67560047 50.0
-0.98865694 1.01638222 -1.60829496 50.0
-1.30784523 0.67045867 -0.62894404 50.0
-0.78187811 -0.70169061 1.23766220 50.0
0.75259155 0.57510966 1.29521203 50.0
0.28384608 -1.09182453 -1.18538904 50.0
-1.31415713 0.11614405 -0.06005330 50.0
-1.09868491 -0.02902822 1.24073648 50.0
0.82316208 -1.26412261 -1.17199337 50.0
0.63569498 -1.05093634 -1.21091735 50.0
-1.30186939 -0.90502828 0.34419474 50.0
-1.29104197 -0.95980352 0.92205161 50.0
1.27346289 -0.87643641 -0.06618994 50.0
-1.32795203 -0.59353805 0.10645259 50.0
-1.23158073 -1.34527254 0.57031083 50.0
1.28224432 0.78830981 -1.05220485 50.0
-1.31997228 -0.77626669 0.44248936 50.0
-1.07022595 -1.07804239 1.24022615 50.0
-0.11599540 -0.77456266 1.29809511 50.0
-1.30780578 0.67140633 -0.14960200 50.0
-1.28231037 -1.01590562 -1.26548624 50.0
0.28481850 1.46498632 0.07637896 50.0
-0.68110341 -0.88111812 -1.20170283 50.0
0.95198458 -0.93390173 -1.82646966 50.0
0.47110805 0.55346483 -1.18933654 50.0
0.46419165 1.46345818 0.80856383 50.0
-0.81562650 0.65468156 -1.20514202 50.0
-0.90246302 -0.78763503 -1.27658427 50.0
-1.27299273 1.33846092 0.28526270 50.0
-1.24135697 -1.27843392 0.15300781 50.0
-0.85611808 -1.26412261 -1.17199337 50.0
-0.11012243 -0.02559717 1.29213154 50.0
1.26021254 1.06867886 -0.14534037 50.0
-1.27013242 -1.08021176 0.60642999 50.0
0.85618800 0.92089707 1.29453993 50.0
0.08843558 1.01195931 -1.14359021 50.0
0.95966417 0.98901701 -1.70260179 50.0
0.57152539 0.92631513 1.30438590 50.0
-0.50482857 1.06868517 -1.16770005 50.0
0.76794893 1.45890367 0.78152949 50.0
-0.50783831 0.90905875 -1.16514170 50.0
-0.67991608 0.72828442 -1.19857335 50.0
1.27218282 0.41332456 -0.23814538 50.0
-0.88268238 -0.98740017 -1.56857383 50.0
1.12620938 0.95851457 -1.80758369 50.0
-0.66812485 1.46217513 0.04763943 50.0
1.22027433 -0.54918456 1.13145113 50.0
-0.79146039 1.25723720 1.27167201 50.0
-1.30489421 0.54962295 -0.89462793 50.0
0.08845138 0.83697283 -1.17834997 50.0
0.41902164 0.85252708 1.32311368 50.0
-1.31121182 0.95851457 -1.05268443 50.0
-0.72353959 0.87062663 1.30412984 50.0
-1.28493130 1.06508338 -1.05014551 50.0
0.26428598 1.43169129 1.29213858 50.0
0.89516711 -0.90439987 1.25180316 50.0
-0.32055455 1.46548748 1.01119733 50.0
-0.32303470 0.73648655 -1.18370461 50.0
0.29226911 0.94432855 -1.15557909 50.0
1.13631594 0.66570747 -1.26283205 50.0
1.28197062 0.99038374 0.62109339 50.0
0.76794893 1.45890367 0.78152949 50.0
-1.26156890 -1.12513399 -0.48557493 50.0
-0.60354781 0.89962888 1.30783761 50.0
0.72934180 -1.40058947 0.59190059 50.0
1.24423850 1.24281478 -0.60940492 50.0
1.20766318 -0.81548625 1.14603448 50.0
0.25668603 0.99820769 1.31653261 50.0
-0.63533938 -1.40076053 0.60439169 50.0
1.27366984 0.99067783 -0.47787935 50.0
-1.26351178 -1.12353241 0.91818684 50.0
-0.48244485 -0.81469607 1.27238643 50.0
1.05737364 0.86763036 1.28913713 50.0
1.19762266 -0.87536782 1.15448999 50.0
0.26126868 -1.39544559 0.87904513 50.0
1.27651906 0.87287861 0.11916851 50.0
0.86973500 -1.39795673 0.68187231 50.0
-0.66823667 1.46057272 0.20485556 50.0
1.07198191 1.44655502 -0.00459239 50.0
-1.06444943 1.44107699 1.24290407 50.0
1.23310280 1.33885062 -0.01544440 50.0
0.07626941 1.03527558 1.31848133 50.0
1.26002514 -0.95987356 0.60759485 50.0
1.28932202 0.78876305 0.28458485 50.0
0.78409761 0.27174544 -1.19219172 50.0
-1.31296182 0.74501771 -0.62428492 50.0
-1.31246114 0.82112986 -0.14600673 50.0
-0.68925446 -0.70471054 -1.16979706 50.0
-1.11199367 -0.70208877 1.20358837 50.0
1.27351665 -0.87609422 0.15300781 50.0
-1.27331424 -0.95963645 1.05388594 50.0
0.57142836 0.87441832 1.31139719 50.0
0.57910043 1.26519990 1.27939808 50.0
1.28448200 -0.21110879 0.36847061 50.0
0.72430432 -1.07790756 1.28429842 50.0
1.10539544 -0.98740506 -1.84074020 50.0
0.84741110 1.15650928 1.26787806 50.0
1.27371264 0.99045372 -0.75130194 50.0
1.25293612 1.14360249 -0.14270289 50.0
1.11371398 -0.93390173 -1.85570312 50.0
1.27558982 0.84680462 -1.05504036 50.0
-1.10467660 1.44686425 -0.12313419 50.0
1.13148224 -1.38586128 0.71624154 50.0
0.83411604 1.46061552 -0.64537627 50.0
-0.82648730 -0.78859013 -1.20638084 50.0
-1.31528676 -0.81729215 -0.93194461 50.0
1.28813612 0.92742956 0.77974236 50.0
1.27825010 0.95854646 -0.62428492 50.0
-1.30778098 0.67103881 -0.33889031 50.0
1.22861624 -1.12511361 -0.68213701 50.0
1.27733207 -0.70413345 1.02537704 50.0
-1.27636528 0.98962265 -1.56023705 50.0
-1.30083466 1.02451098 -0.02879680 50.0
1.26035082 1.06768298 -0.87792438 50.0
0.65676188 -0.59798878 -1.16950488 50.0
-0.88585705 1.35168743 1.27746022 50.0
-1.32555163 -0.70280498 0.15300781 50.0
-0.50969684 0.79648185 -1.19027972 50.0
1.27062571 1.02445257 0.11934000 50.0
1.28865588 -0.47007468 -0.03321315 50.0
-1.30774832 0.67133284 -0.25173864 50.0
1.28580368 -0.34777027 0.50254488 50.0
-1.31101501 -0.21148802 -0.15849712 50.0
0.85986423 0.57510966 1.29489374 50.0
-0.29996431 -0.43066117 1.25580716 50.0
-0.67410779 1.45894647 0.98086542 50.0
-0.89080358 0.94989228 1.29111624 50.0
-1.31112242 -0.84578973 0.34419355 50.0
1.20482874 1.03478932 1.22628582 50.0
-0.50482857 1.06868517 -1.16770005 50.0
-1.29241478 -0.96075028 -1.28238082 50.0
0.88835394 -1.39902854 -0.06618994 50.0
0.96360815 0.81869018 -1.80385375 50.0
1.26875782 -0.90590167 -0.94013208 50.0
1.28517616 0.67111325 0.46192199 50.0
-0.68038267 -0.05117800 -1.18496430 50.0
1.27805161 -0.21157487 -0.19997078 50.0
-1.27719438 1.24281478 -0.60940492 50.0
1.26720834 1.02379179 -0.47787935 50.0
0.57541770 0.14443548 1.27682483 50.0
0.86135191 -1.39274931 0.84516859 50.0
-0.47775099 -0.93285358 1.28976595 50.0
1.01442945 1.41351748 1.27065790 50.0
-1.32550895 -0.70318902 -0.06618994 50.0
1.27559793 0.84674507 -1.32606268 50.0
-0.67712945 0.41488373 -1.19119978 50.0
1.06916106 1.44472098 1.17027366 50.0
-0.66812485 1.46217513 0.04763943 50.0
0.76836276 1.46117198 -0.09532898 50.0
1.25967765 -0.95987701 0.44250613 50.0
1.24974167 -0.90486848 1.04835534 50.0
-0.67804474 1.06240225 -1.17618155 50.0
0.27209061 -1.40526628 -0.46193075 50.0
-0.10879899 0.45109007 1.32564068 50.0
-0.50636244 -0.05151140 -1.18336439 50.0
1.28971386 0.74559945 0.46264783 50.0
0.47293875 1.05130184 -1.15662742 50.0
-0.32181823 -0.94870389 -1.19671738 50.0
0.41645434 0.58193898 1.31468523 50.0
-1.31121182 0.95851457 -1.05268443 50.0
1.20741642 -1.26762068 0.90806466 50.0
-0.11476876 -1.40362597 -0.02251729 50.0
1.26409864 -0.93390173 -0.68189931 50.0
0.75501853 0.84285426 1.30369580 50.0
-1.27557647 0.87197351 -1.66363156 50.0
-0.32553396 0.97574896 -1.14982998 50.0
0.92132628 1.45627761 0.47784597 50.0
-0.89384842 0.43994161 1.28625894 50.0
-1.24156880 -1.28023946 0.60190898 50.0
1.28217113 0.78799361 -0.62428492 50.0
-0.60311723 0.44280705 1.29717422 50.0
-1.26527119 1.33851147 -0.13140035 50.0
1.27801967 -0.84668738 -0.93543512 50.0
-1.22075570 -0.93259913 1.16214681 50.0
1.17758322 1.25119913 1.26134050 50.0
1.05654418 -0.90453970 1.22668445 50.0
-1.12861919 -1.04543781 -1.71401310 50.0
0.29107726 0.86136389 -1.17373276 50.0
1.26034820 1.06770420 -0.75049102 50.0
-1.30596685 0.41332021 -0.05386864 50.0
0.08174665 -1.40620029 -0.89832896 50.0
1.25945902 -0.96075028 -1.28238082 50.0
0.90768373 -0.77524185 1.23415852 50.0
1.24484015 -0.93281215 1.05102861 50.0
0.69242036 0.30079246 1.28041995 50.0
0.78419095 -0.90707260 -1.31112361 50.0
-0.32314599 0.11751331 -1.18575931 50.0
-1.19583905 -1.37621856 0.51904339 50.0
-0.89432323 -0.87664020 -1.52239573 50.0
-0.72607851 1.15836287 1.26635003 50.0
-1.30874228 0.27154279 -0.51977670 50.0
1.28233087 -0.81729215 -0.93194461 50.0
1.25946414 -0.96072108 -0.29059586 50.0
-1.32227790 0.78876305 0.28458485 50.0
1.27963769 -0.40314496 1.00718772 50.0
0.82316208 -1.26412261 -1.17199337 50.0
1.28971386 0.74559945 0.46264783 50.0
0.46829185 -0.99784344 -1.20520592 50.0
-1.28956103 -0.98657954 0.77743673 50.0
-1.30047011 -0.42325670 1.10403895 50.0
1.11242807 0.72490728 -1.55240905 50.0
1.23030078 0.75930756 1.24599874 50.0
0.44840321 -0.84434605 1.27541637 50.0
-0.30504656 -1.40526628 -0.46193075 50.0
0.08712271 -0.98047388 -1.19911635 50.0
-0.32413417 0.91456342 -1.16195798 50.0
-1.28229463 -1.01598465 -0.68189931 50.0
-0.80011398 1.46107078 -0.64266580 50.0
0.87740201 -0.59449881 -1.17215443 50.0
-0.32755446 -0.60564893 -1.16411924 50.0
-1.32595932 0.27298245 0.94853783 50.0
1.06103563 0.57321036 1.28400648 50.0
-0.80568129 1.41968775 1.25535178 50.0
-0.72537637 0.30079246 1.28041995 50.0
0.64542228 0.27315727 -1.19074047 50.0
0.46829185 -0.99784344 -1.20520592 50.0
1.27814567 0.95947254 -0.14600620 50.0
1.26505411 -0.81589776 1.03760636 50.0
-1.08537626 -0.93242204 1.23109615 50.0
-1.08742130 0.91916823 1.28332198 50.0
1.28218055 0.78799391 -0.75144255 50.0
0.92165661 1.45609534 0.27892110 50.0
0.98301202 0.27194890 -1.19268250 50.0
1.28120136 0.11614405 -0.06005330 50.0
1.26751435 -0.42325670 1.10403895 50.0
-0.68202400 0.85141343 -1.19744503 50.0
0.86693031 -0.05084004 -1.18658614 50.0
0.27459881 -0.84415257 1.29075503 50.0
1.29253125 -0.70338517 -0.29059586 50.0
1.28122258 -0.21194831 0.18617596 50.0
0.28908792 0.71256953 -1.18249154 50.0
0.28603980 -1.03219402 -1.19923794 50.0
-0.47897804 -0.90455908 1.28526402 50.0
-1.31932616 0.67596424 1.14447510 50.0
-1.30519092 0.41332448 -0.17296626 50.0
-0.31098545 -1.28707266 -1.16338706 50.0
-1.32864952 -0.59355420 0.54695737 50.0
-0.68202400 0.85141343 -1.19744503 50.0
-0.10872102 0.58848464 1.33329892 50.0
1.15688300 -1.37747812 -0.29059586 50.0
-1.28433478 -1.01509833 0.77796966 50.0
-1.30047011 -0.42325670 1.10403895 50.0
-1.22481155 1.40905917 0.01582305 50.0
0.95966417 0.98901701 -1.70260179 50.0
1.28813612 0.92742956 0.77974236 50.0
1.12921071 -0.82161957 -1.59594619 50.0
0.43193257 1.42759323 1.27905750 50.0
-0.29411298 -0.31107578 1.26330340 50.0
1.29504383 -0.59312850 0.29285109 50.0
-0.82216978 0.99048978 -1.25855768 50.0
-0.50700277 -0.88553584 -1.18390179 50.0
1.25483203 -0.98659450 0.34419650 50.0
1.26409864 -0.93390173 -0.68189931 50.0
0.64232022 1.15276790 -1.18030310 50.0
0.78409761 0.27174544 -1.19219172 50.0
0.80254215 -1.40192854 -0.91552019 50.0
-0.67991608 0.72828442 -1.19857335 50.0
1.26021254 1.06867886 -0.14534037 50.0
0.75217336 -1.26564920 -1.17128396 50.0
0.96494013 -0.82205677 -1.57564390 50.0
1.26875782 -0.90590167 -0.48552740 50.0
1.12620938 0.95851457 -1.80758369 50.0
1.27872682 -0.21157999 0.02842744 50.0
-0.99348485 0.84651846 -1.83832467 50.0
0.47118354 -0.94359756 -1.19940388 50.0
-1.30325818 -0.77629513 1.03289068 50.0
1.24540830 1.33819211 0.78955615 50.0
-1.30818820 1.02325201 0.95617694 50.0
-1.28665531 1.14358342 -0.02482212 50.0
1.24393761 -1.04634631 0.60762370 50.0
1.21919227 -1.19428277 -0.06618994 50.0
0.84972644 -0.98740017 -1.56857383 50.0
0.64696020 0.72828442 -1.19857335 50.0
0.46492562 -1.05652416 -1.19508302 50.0
1.28763056 0.95811713 0.77753633 50.0
-0.80400634 -1.04668832 -1.29246688 50.0
0.60988730 -0.90444487 1.27163696 50.0
-0.72537637 0.30079246 1.28041995 50.0
-0.64062512 -1.40377080 -0.47774699 50.0
-0.97795624 -0.98740017 -1.81291080 50.0
-0.66675210 1.46199071 -0.48487589 50.0
-1.32565820 -0.70243704 0.44248581 50.0
-1.29311872 1.06860650 -0.24735470 50.0
1.23717666 -1.08021176 0.60642999 50.0
1.27584469 1.02302718 0.77544290 50.0
-0.30534947 -0.47253999 1.25728929 50.0
-1.27632797 -1.04684770 -1.24567854 50.0
-1.22653711 1.40878737 1.18443084 50.0
1.28210676 0.78892082 -0.14600737 50.0
1.24339998 -1.04667830 0.15300781 50.0
1.24339998 -1.04667830 0.15300781 50.0
-1.25970173 -0.79932326 -1.39367497 50.0
1.28652859 0.92816561 0.45970756 50.0
1.29495883 -0.59396571 -0.10732213 50.0
0.75586873 0.76805490 1.30367708 50.0
0.72139323 -1.11956358 1.27573299 50.0
0.86241758 0.89860696 -1.57191527 50.0
-1.17607582 -1.37997520 -0.88348293 50.0
1.29786718 -0.59525776 0.71167338 50.0
1.15675747 -1.37934315 -0.67658973 50.0
-1.32743871 0.11640336 0.76868665 50.0
1.28072929 -0.05056987 -0.50569642 50.0
1.25466526 -0.98743832 -0.29059586 50.0
0.78659540 0.87324196 -1.30377281 50.0
1.25546575 1.07028317 1.13279510 50.0
1.24288487 1.33844423 0.45325160 50.0
-1.26514137 -1.01489985 1.05770421 50.0
1.06572890 -0.02902822 1.24073648 50.0
0.60475093 -0.98620766 1.28088260 50.0
1.27958846 0.82012123 -1.05369771 50.0
1.26876247 -0.90587252 -0.29059586 50.0
-1.22999692 -1.33740532 0.81798947 50.0
0.76432103 1.35207903 1.27207589 50.0
-1.21215510 -0.98618150 1.16764247 50.0
0.69312257 1.15836287 1.26635003 50.0
-1.31120598 0.95854646 -0.62428492 50.0
-0.78543586 1.15650928 1.26465750 50.0
-1.30655050 0.99141210 -0.14600436 50.0
0.71214437 -0.38200793 1.22274137 50.0
-1.30488098 0.54945064 -0.77005416 50.0
1.25962567 -0.95987713 0.34419587 50.0
1.27372074 0.99041516 -1.05005515 50.0
1.19762266 -0.87536782 1.15448999 50.0
-1.24156880 -1.28023946 0.60190898 50.0
1.24393761 -1.04634631 0.60762370 50.0
-0.74764651 -1.40051925 0.68616104 50.0
-0.83549809 -1.40192854 -0.91552019 50.0
-1.16049683 0.81880009 -1.83557713 50.0
-1.07178330 -1.39456499 -0.88205975 50.0
0.08219087 -1.40206122 0.44752568 50.0
-0.45019910 0.90479028 1.31739736 50.0
1.28242064 0.67128831 0.28322217 50.0
0.64813638 0.87704736 -1.19223726 50.0
1.28039312 0.11498733 -0.91374385 50.0
0.76715803 1.46107078 -0.64266580 50.0
-0.44977620 0.44563401 1.30688977 50.0
1.27805161 -0.21157487 -0.19997078 50.0
0.60998946 -1.38693249 -1.10479450 50.0
0.48001727 -0.70852357 -1.16661572 50.0
1.09173739 -1.27311671 -1.10832798 50.0
1.09045589 -1.07466114 -1.60242689 50.0
-1.25974643 0.56556118 1.24219930 50.0
0.86703515 -0.34911719 -1.17436326 50.0
0.08787782 0.11822779 -1.18418348 50.0
0.08712271 -0.98047388 -1.19911635 50.0
1.28120136 0.11614405 -0.06005330 50.0
1.29190254 -0.47235918 0.53527236 50.0
1.22336936 -1.07937324 1.05461681 50.0
-1.31325507 0.74712342 -1.05206764 50.0
-1.20471764 -0.59618694 -1.11151505 50.0
-0.68221587 0.90386826 -1.18635881 50.0
-1.32109189 0.92742956 0.77974236 50.0
1.27343106 -0.87664020 -0.48552740 50.0
0.28481850 1.46498632 0.07637896 50.0
1.27192509 0.54945064 -0.77005416 50.0
-1.27099431 1.05468166 -1.25298703 50.0
-1.05621517 1.34989417 1.28298652 50.0
-1.23544836 -1.19184041 -0.93446892 50.0
0.07606281 0.88903213 1.33940661 50.0
-1.28590727 1.14322090 -0.33056211 50.0
-0.81543350 0.54783797 -1.19535363 50.0
0.07630508 0.78495181 1.34152341 50.0
-0.72576278 0.95129782 1.29388177 50.0
-0.28836069 1.10319901 1.29248047 50.0
-1.31742322 -0.81627774 0.77143157 50.0
1.27190137 0.54965073 -0.49521995 50.0
-0.89708877 -0.84764141 -1.47388172 50.0
-1.30840766 0.84770185 -0.24791238 50.0
0.73452097 -0.95925665 1.26948750 50.0
-1.30760539 -0.70629108 -0.93485111 50.0
-1.14257550 -0.96075028 -1.85982990 50.0
0.76581359 -0.02755263 1.25642037 50.0
-0.11294530 -0.43054760 1.26817393 50.0
1.29259586 -0.70280498 0.15300781 50.0
1.28348887 0.41904393 1.13022792 50.0
0.08599395 1.46753395 1.13659894 50.0
0.64646947 -0.21412791 -1.17801356 50.0
-1.31989777 -0.77633399 0.28629616 50.0
-1.32227790 0.78876305 0.28458485 50.0
0.74466336 -0.81506920 1.24656522 50.0
-0.60368419 0.69821924 1.31101930 50.0
1.16227067 -0.05084004 -1.15055442 50.0
1.21377027 -1.04608822 -1.53924167 50.0
-1.27720380 1.24340379 -0.32392707 50.0
-1.30647242 -0.87609422 0.15300781 50.0
-1.31538033 -0.81662667 0.15300781 50.0
-1.10529995 1.44638097 0.13082965 50.0
-0.50398856 0.41751826 -1.18911541 50.0
-1.30871403 0.27233708 -0.28541297 50.0
-1.31866753 0.84700102 0.62763262 50.0
0.08170470 -1.40700734 -0.65739274 50.0
1.23047864 0.13323914 1.20808697 50.0
-1.31081152 0.89950866 0.11913043 50.0
-0.83549809 -1.40192854 -0.91552019 50.0
0.42303172 -0.02655417 1.27483511 50.0
0.08843558 1.01195931 -1.14359021 50.0
0.75781846 -1.19088364 -1.17446768 50.0
-1.31334841 0.11502592 -0.66922241 50.0
0.08206495 -0.90477937 1.31156421 50.0
-0.67525101 -0.96581978 -1.22324169 50.0
1.28234637 -0.81717467 -0.48553243 50.0
-0.86911833 -1.09923637 -1.34811640 50.0
0.83548498 1.46062398 -0.10519251 50.0
-1.28033674 -0.84720802 -1.52850008 50.0
-1.32163465 -0.46973005 0.08768946 50.0
-0.80036288 1.45216167 -0.97085798 50.0
-0.50424427 0.66102362 -1.18796468 50.0
-1.10211706 1.44472098 1.17027366 50.0
0.60060984 -1.04533982 1.28926873 50.0
1.27803075 0.92775041 -1.32190847 50.0
0.86381507 -1.33376884 1.06265831 50.0
-1.05520618 -1.39286435 0.68504643 50.0
-0.11475946 -0.93338937 1.31524241 50.0
1.04516566 -1.39135075 0.49137351 50.0
0.62795955 -1.14623380 -1.17501378 50.0
1.27062571 1.02445257 0.11934000 50.0
-0.80090493 1.45890367 0.78152949 50.0
-0.50887787 1.00073075 -1.14962566 50.0
1.28491569 0.92848831 0.28427851 50.0
0.93447328 1.45401895 0.96435618 50.0
1.22410333 -0.61423320 1.12824202 50.0
1.28871870 0.82070339 0.46156424 50.0
1.26334417 0.11498733 -1.04798520 50.0
-0.77798188 -1.33781111 -1.17128396 50.0
-0.30567601 -1.40225053 0.19257127 50.0
1.11782539 -0.90590167 -1.82920754 50.0
1.28860831 0.92781997 0.95961702 50.0
1.24297082 -0.87664020 -1.58149385 50.0
0.69395334 0.81197280 1.30671048 50.0
-0.89585096 0.81081188 1.30278254 50.0
-1.31296742 -0.34911719 -0.69894445 50.0
-0.11808655 -1.14175820 -1.17103267 50.0
-0.89826602 0.81869018 -1.55482984 50.0
1.23135531 -1.12404323 0.77268112 50.0
0.64646947 -0.21412791 -1.17801356 50.0
1.26296771 -0.34911719 -1.00167108 50.0
-1.32044923 -0.77632749 0.60636693 50.0
0.86648005 -0.82206249 -1.41378570 50.0
-0.98277140 1.05595195 -1.37820613 50.0
1.21069598 -0.38183635 1.17523754 50.0
1.11782539 -0.90590167 -1.82920754 50.0
0.74687696 -0.50838923 1.21867228 50.0
-1.31334686 0.11614510 -0.24496244 50.0
0.86123121 0.87197351 -1.57774532 50.0
-0.45991790 -1.40042865 0.79348230 50.0
1.25469708 -0.98726374 -0.06618994 50.0
-0.11357300 -1.04542041 1.32083678 50.0
-0.86911833 -1.09923637 -1.34811640 50.0
-1.28229463 -1.01598465 -0.48552740 50.0
0.46041036 -1.13000309 -1.17628157 50.0
0.95890021 -0.87664020 -1.74953759 50.0
-1.15078139 -0.90590167 -1.82920754 50.0
0.29234189 0.80116934 -1.18731070 50.0
-1.10377610 1.44732809 -0.22414483 50.0
-0.80478281 1.45848942 0.90274638 50.0
-1.07152009 -1.39341688 -0.29059586 50.0
-0.96160179 1.45716357 0.79501498 50.0
-1.31691456 0.89869982 0.62555653 50.0
0.27298254 -1.40186095 0.32921618 50.0
-0.78543586 1.15650928 1.26465750 50.0
0.26233086 -1.37648952 0.97791958 50.0
-1.30874228 0.27154279 -0.51977670 50.0
-1.28185189 -1.01504827 0.92531502 50.0
-0.64053494 -1.40485883 -0.67560047 50.0
