1.38842177 -0.55534995 0.26252002 40.0
0.92155999 -1.38420844 -0.96526730 40.0
1.18548763 -0.23770291 -1.01798093 40.0
-0.13806646 1.57693839 -0.60196006 40.0
-0.25777894 0.74647409 -0.15216774 40.0
0.56084263 -0.87934256 -1.04669225 40.0
-1.40644979 -0.95628494 -0.29997602 40.0
1.23284173 -0.52261955 1.59700668 40.0
1.15406907 0.93331748 0.80115336 40.0
1.38433015 0.54197508 -0.47624999 40.0
-1.31603479 1.38194954 0.53962874 40.0
0.55893755 1.05761302 -1.02328920 40.0
-1.38453197 -1.00040174 -0.71714407 40.0
-1.03360689 -0.77962804 1.30535793 40.0
-0.92593312 -0.61535978 -1.02894306 40.0
0.33149970 -1.43165326 0.78703475 40.0
1.12892234 1.54561281 1.26162422 40.0
0.85336918 -0.86553180 1.27567828 40.0
0.89538956 1.57483017 0.86933243 40.0
-0.71128243 -1.39204574 -0.97769755 40.0
1.35414195 -1.21794403 0.59206516 40.0
-1.25164485 1.39278769 1.20075369 40.0
0.07054417 1.02533340 -0.15103818 40.0
-0.09697286 0.14812914 -1.03271353 40.0
-0.24368033 1.22825944 -0.14290611 40.0
0.23180601 0.98604804 -0.15264717 40.0
0.07286324 -0.86679667 1.27567828 40.0
0.23037764 -1.56729841 -0.34679925 40.0
1.26023710 -1.30770004 -0.75969809 40.0
1.39607406 0.45677537 -0.02999269 40.0
-0.04024088 -1.50859237 -0.78640109 40.0
0.21328445 1.57609499 0.08549819 40.0
1.32830286 -1.08102310 -1.22547460 40.0
-0.77073556 -1.09356058 -1.07238209 40.0
0.39592424 -0.17038424 2.38541818 40.0
1.34043038 0.99173427 -0.17367661 40.0
-1.18144464 -0.72535670 -1.10776544 40.0
-1.36643386 -1.04190528 -0.94514251 40.0
0.03386124 1.57697630 -0.49396381 40.0
1.36696017 0.79804420 -0.03033262 40.0
1.16736662 0.28139442 0.78768629 40.0
1.27723265 1.15117872 0.92951334 40.0
-0.45157394 1.24916184 -0.80505043 40.0
1.26620829 -1.08405089 -1.48955584 40.0
0.86557966 -0.92395759 -1.29754555 40.0
0.24002321 -0.50439155 1.83429551 40.0
-0.16676101 1.55419898 1.29268467 40.0
0.75734943 1.31625831 -0.77195668 40.0
0.37937820 1.18197107 -0.14387386 40.0
1.38202131 -0.17409606 -0.70384085 40.0
1.34145379 0.95421833 0.24693602 40.0
1.32389760 1.10884547 -0.31774470 40.0
0.56004387 1.07459235 -1.01844203 40.0
-0.87612498 -0.72407132 1.30765295 40.0
-1.31694758 0.87587488 -1.30604887 40.0
1.22407150 0.27517715 1.11288798 40.0
1.17095482 -0.61109710 -1.01538515 40.0
-0.35997120 1.57282150 1.24003601 40.0
0.99427402 0.17451213 1.48764992 40.0
0.34029403 -0.78905523 -1.03648686 40.0
-1.38273156 -1.18419611 0.36624253 40.0
-1.21501350 1.05261934 -1.24537802 40.0
-0.25335124 0.02020010 2.41371536 40.0
1.01702750 -0.90881497 1.25494778 40.0
-0.92940456 -1.17427707 -1.06607068 40.0
1.03256154 0.25683469 -1.03263068 40.0
-0.19758809 -1.56679106 -0.15274543 40.0
-1.28434682 -0.86622256 -1.63199139 40.0
0.90225852 1.57491755 -0.05192370 40.0
1.34287798 0.95421678 -0.31818858 40.0
0.75207800 -1.11809945 -1.05985081 40.0
-0.18311507 -1.56750286 -0.34679925 40.0
0.82632494 1.48827112 0.79980427 40.0
-1.37246740 0.71990943 0.54071820 40.0
-1.33110034 1.46753085 -0.33813906 40.0
0.10358058 -1.56700242 -0.15274543 40.0
1.31343412 1.46742225 -0.19034404 40.0
0.34458169 0.67373127 -1.03294063 40.0
0.07732012 -0.23989397 -1.03245044 40.0
0.87341493 0.80896807 -1.28607309 40.0
-0.14774369 1.57295227 1.24003601 40.0
-0.41762277 -0.24630840 2.30654764 40.0
1.03274608 -0.10959397 -1.03268170 40.0
-0.31175587 -1.20316255 -1.01371276 40.0
-0.40424442 -1.21588874 1.02535737 40.0
1.07994926 0.82357687 0.27243543 40.0
-1.40725183 -0.91042608 -0.29892766 40.0
-1.41472638 -0.48203608 0.08528013 40.0
-0.09696319 -0.11004863 -1.03268170 40.0
0.24046445 0.44854057 -0.15706298 40.0
0.55687928 -1.09334075 -1.03561008 40.0
0.06841398 1.22838330 -0.14290611 40.0
-0.93062729 0.96759760 -1.51333666 40.0
-1.32109666 -1.07611060 1.12319291 40.0
0.12487209 1.57620513 0.86620837 40.0
-1.34123957 -0.70813340 1.23129177 40.0
-0.56926060 0.08673743 2.40008354 40.0
-0.09348071 -0.57585287 1.63604677 40.0
0.10490622 -0.92462403 -1.04605711 40.0
1.12893248 1.53433311 -0.74117225 40.0
1.12870181 -1.25561857 0.95939845 40.0
1.32626307 1.10884547 -0.03083858 40.0
0.32212716 -1.39320338 -0.97784674 40.0
-1.03383076 0.08358949 2.34417701 40.0
0.07177567 -0.11362001 2.40988421 40.0
0.56252831 0.62138587 -1.02998853 40.0
-0.06245089 -1.54319263 0.35009468 40.0
1.39533091 0.16269875 -0.47912744 40.0
0.22317560 1.29328358 -0.14198953 40.0
-0.09694173 -0.17694588 -1.03261077 40.0
0.35145745 -1.54262853 0.35009468 40.0
-1.39727294 -0.73170984 -0.14800972 40.0
-0.71923012 -1.43042469 0.78649729 40.0
-0.09832485 -0.54757065 -1.03023171 40.0
0.33884144 -0.73107851 -1.02981257 40.0
1.08829689 1.56822050 1.14037943 40.0
0.39374092 -1.51314700 0.66012019 40.0
0.07109174 -1.10976279 1.13334000 40.0
-0.93250746 -1.14203918 -1.26723552 40.0
-0.57671148 -0.86647594 1.27567828 40.0
0.95734358 1.50541127 1.23440766 40.0
0.33467597 -0.87946200 -1.04669225 40.0
-0.60931957 1.56884623 -0.69203365 40.0
0.25583136 -1.23675430 -1.01197803 40.0
0.71251816 1.29279041 -0.14198953 40.0
-0.61563140 -0.54736656 -1.03023171 40.0
-1.38874066 0.45569646 0.53392136 40.0
-0.73469865 -0.64237881 1.44620764 40.0
0.33419374 1.07473505 -1.01844203 40.0
1.10567236 0.88137132 -1.81282318 40.0
-1.20608568 0.20131576 -1.01828921 40.0
1.13094985 -0.83213109 -1.70783305 40.0
-0.71064973 0.54780245 -1.03090620 40.0
-0.11818682 1.12681639 -0.95089185 40.0
-0.87118936 -1.17326725 -1.03868020 40.0
0.21298116 1.57617855 -0.21713677 40.0
-1.33132124 1.29750264 0.24608095 40.0
-1.33481491 0.91558683 -0.92589533 40.0
1.34264994 -1.11486101 -0.93050379 40.0
1.24407625 1.29958594 -0.71664310 40.0
-1.35540891 0.25346988 0.87433386 40.0
0.25115165 -1.54282844 0.35009468 40.0
-0.24995075 -1.56729841 -0.34679925 40.0
-1.40017414 -1.07976615 -0.13781154 40.0
0.71939826 -1.47392321 -0.55388367 40.0
0.89202780 -0.17671877 -1.03261077 40.0
1.32674360 1.06794763 0.24815799 40.0
-0.26184222 -1.52591240 -0.64548028 40.0
0.33967325 1.57601070 0.50585675 40.0
-1.13074720 0.07604668 2.16633916 40.0
0.50166190 -1.54724181 -0.34524485 40.0
-1.40440702 -0.62171108 -0.10123234 40.0
1.17628443 -0.54299366 -1.01668561 40.0
-0.54541236 -1.32576180 -1.00425053 40.0
-1.33424008 1.29750264 -0.17348625 40.0
-1.42147470 0.29608431 0.09708321 40.0
0.39490232 0.90591913 -0.15248835 40.0
-0.28590330 0.46369141 -1.03128088 40.0
-0.91187853 -0.03629736 -1.03269935 40.0
1.38680363 0.62428129 0.10058018 40.0
-0.08731881 1.38636696 -0.09254692 40.0
0.03523133 1.57615113 0.23444010 40.0
1.37202442 0.75929826 -0.17382844 40.0
1.37086368 0.71992308 -0.47073749 40.0
0.88746220 0.62072140 -1.04504979 40.0
1.12998533 1.16716397 0.81069356 40.0
1.18578541 0.54878622 -1.02330470 40.0
1.34492016 0.11882670 1.06598699 40.0
1.17761993 0.33984116 0.78848368 40.0
-0.88878560 1.07520020 -1.06570411 40.0
-1.39678919 -1.11535394 0.62008369 40.0
1.33604741 -0.74559683 1.19722271 40.0
-1.34590673 1.10884547 0.09532278 40.0
-0.25964203 0.34585300 -0.16377725 40.0
0.76142454 0.34572417 -0.16377725 40.0
-0.09166461 -1.00005043 1.21240664 40.0
-1.40608358 0.62432730 -0.17388915 40.0
-0.35107282 -1.43165326 0.78703475 40.0
0.12487209 1.57620513 0.86620837 40.0
-1.36776197 0.75931585 0.53802359 40.0
0.49452856 1.16396356 -0.89236331 40.0
-1.31635332 -1.30361950 0.71932584 40.0
-0.90834647 1.37969732 -0.01035737 40.0
1.20996368 -0.20067845 1.90497565 40.0
0.83589619 -1.48575008 0.10833137 40.0
0.82683498 0.08664090 2.40008354 40.0
1.05202079 -1.38442338 -0.73496068 40.0
-1.40495157 -0.82842320 -0.14240205 40.0
1.31524181 0.91558683 -0.92589533 40.0
0.83498973 1.12632561 -0.95306569 40.0
1.29745674 1.29750264 0.54105306 40.0
-0.44148397 0.30108616 -1.03252149 40.0
-1.07184541 1.09602189 0.27908766 40.0
-0.25737134 -0.34106326 2.17121243 40.0
-1.35540962 1.02917314 -0.03125824 40.0
-0.91760439 1.56783068 -0.69230747 40.0
-1.37464511 -0.80967057 1.16194046 40.0
0.06964311 1.10138822 -0.14603063 40.0
-1.10096765 -1.39750552 -0.13518189 40.0
0.07357664 0.60560870 -0.15134911 40.0
0.54140610 1.14032364 -0.14484380 40.0
-0.42060539 0.74637544 -0.15216774 40.0
-1.31353104 1.38179696 -0.59543586 40.0
0.83583003 -1.10814774 1.13334000 40.0
0.32419392 -1.17213666 -1.01655352 40.0
1.37344408 -0.76732892 -0.54714954 40.0
-0.55895054 -1.17858267 1.06589663 40.0
-1.31702983 1.29750264 0.54105306 40.0
-1.32239735 0.83617616 -1.30711389 40.0
1.13250315 1.30567801 -0.76479542 40.0
0.33204681 -1.05776107 -1.04104924 40.0
1.25049901 -0.64603376 1.38731253 40.0
0.20218112 -1.50803709 -0.78640109 40.0
-0.59409678 -1.45845568 -0.90739149 40.0
-0.51368791 -1.53698051 -0.46213758 40.0
1.25627041 1.52758372 0.92982101 40.0
0.58104688 1.57602751 0.86620837 40.0
1.39040160 0.45614505 0.25244194 40.0
0.07723346 -0.31591716 -1.03216410 40.0
-0.96295106 0.13857171 2.20296907 40.0
1.14181840 -0.71950281 1.30313909 40.0
0.23583710 0.17538966 1.31051731 40.0
1.34099114 0.99173427 -0.03136480 40.0
1.38553631 -0.82842320 0.08604774 40.0
0.71939826 -1.47392321 -0.55388367 40.0
1.39533091 0.16269875 -0.47912744 40.0
-1.41473854 0.33383092 0.24875432 40.0
-1.38043118 0.62417430 0.54162914 40.0
1.33435071 0.29679731 0.88904577 40.0
1.30941105 0.12107551 1.42332649 40.0
-1.38278913 -1.18419611 0.60280544 40.0
0.66352022 -1.45222664 -0.89930904 40.0
1.40015006 -0.17409606 -0.32299212 40.0
0.21263987 -1.55623567 0.10559531 40.0
1.38157630 0.29674795 -0.70392513 40.0
-0.99960452 -1.01387668 -1.76944172 40.0
0.90635997 -0.61535978 -1.02894306 40.0
-1.37213326 -0.91037452 -0.95219666 40.0
-1.20871580 1.18870640 1.17785132 40.0
1.31187844 1.06733108 -0.66643411 40.0
1.14546943 1.04953647 0.80663538 40.0
-1.30482173 -1.17876434 1.02334034 40.0
0.57291043 -0.77085245 -1.03552949 40.0
-0.92141068 1.57482731 0.23475409 40.0
-1.41475141 -0.10821417 -0.47941759 40.0
-1.34375834 0.62779999 0.91625094 40.0
1.40051484 -0.10821417 -0.31988567 40.0
1.06258821 -0.57149339 1.61973715 40.0
1.36203134 -0.84728467 1.15473926 40.0
0.34039813 1.57282150 1.24003601 40.0
-1.36717117 0.91558683 -0.31828514 40.0
0.57997900 0.65506923 -1.03070319 40.0
0.74510676 0.03279740 -1.03269935 40.0
-1.42252803 0.16823894 -0.03024151 40.0
-0.90834647 1.37969732 -0.01035737 40.0
-1.19412994 -1.10130548 1.12578666 40.0
0.57725227 0.67364228 -1.03294063 40.0
0.75217533 1.00450921 -1.06746709 40.0
1.38371050 -1.00040174 -0.30073801 40.0
0.99677277 -1.13916183 1.10039079 40.0
1.40271151 -0.03292397 0.09896201 40.0
1.13184118 1.57067859 -0.05192370 40.0
1.00024259 -0.80697346 -1.59442222 40.0
-1.20608568 0.20131576 -1.01828921 40.0
-1.38028002 0.83669871 -0.17378077 40.0
0.37892202 -1.55584490 0.10559531 40.0
1.36070681 0.83669871 -0.17378077 40.0
-1.26023519 1.23382378 -0.74256432 40.0
-0.26184222 -1.52591240 -0.64548028 40.0
-1.40162110 -1.04164958 -0.13924661 40.0
-1.42069650 -0.23608874 -0.18349151 40.0
-0.09310620 -0.75277776 1.30820656 40.0
-0.59136671 1.57601368 1.12508225 40.0
-0.41807574 -0.91314453 1.25494778 40.0
0.03523550 1.57625222 0.86620837 40.0
-0.34919107 1.09450328 -0.99997163 40.0
1.23999321 1.55902743 -0.21589839 40.0
-0.76364964 0.33989692 -1.03230631 40.0
-0.42045602 -0.82153100 1.29436445 40.0
-0.57656246 0.94563365 -0.15275256 40.0
1.08694994 -0.63671625 1.44012499 40.0
-1.38249326 -1.18419611 0.10862669 40.0
-0.85913569 -0.34052318 2.17121243 40.0
-1.28200424 -0.95838201 -1.67461145 40.0
-0.06226971 1.55427003 1.29268467 40.0
1.23819041 1.55930209 -0.36976629 40.0
0.02303717 -1.55714297 -0.46294257 40.0
1.17628443 -0.54299366 -1.01668561 40.0
0.25098315 0.14811517 -1.03271353 40.0
-0.55450809 -1.54657340 -0.15180799 40.0
-1.05121863 -0.34067228 2.12508249 40.0
-1.41098285 0.38864827 -0.47884721 40.0
0.06824036 -1.31978238 0.90020764 40.0
-1.27618957 -1.25699699 -0.92767632 40.0
-1.30728650 0.30885270 1.14838445 40.0
-0.99422032 -1.36965859 0.82422191 40.0
0.59852195 -1.51190078 0.66006905 40.0
0.31841221 -1.56639636 -0.15274543 40.0
0.86392683 -1.12062311 -1.17832756 40.0
0.06982568 -1.21617818 1.02535737 40.0
1.34897768 0.68030989 -0.91164863 40.0
-1.15113783 1.57064128 0.08549819 40.0
0.39094451 -1.10949838 1.13334000 40.0
-1.40394831 -1.00040174 0.09687097 40.0
0.55164433 -1.27402771 -1.01035869 40.0
1.31043994 1.23141861 -0.45860273 40.0
1.38842177 -0.55534995 0.26252002 40.0
1.09129465 1.52607000 1.29372132 40.0
1.23475194 0.87723833 -1.65792620 40.0
1.29678035 -1.30361950 0.71932584 40.0
-0.25974423 0.51861972 -0.15317346 40.0
1.35891068 0.83669871 -0.31846613 40.0
1.15911555 0.85506254 0.80094868 40.0
-1.02545249 1.42867112 0.52478743 40.0
-1.29715538 0.68575829 -1.39352965 40.0
-1.35693336 -1.25498915 -0.13204409 40.0
0.93298179 -0.16935833 2.38541818 40.0
1.26024055 0.89437336 1.17688251 40.0
0.72124487 0.17532639 1.31051731 40.0
-0.88165891 -1.05839825 -1.25809157 40.0
-0.14774369 1.57295227 1.24003601 40.0
1.38209462 -1.04164958 0.36323491 40.0
-0.42282951 0.60546839 -0.15134911 40.0
1.38445783 -0.79740381 -0.14508387 40.0
0.97666013 0.92607492 -1.75546932 40.0
1.29383600 0.99540222 0.92686689 40.0
-1.30344629 1.07161224 0.92654562 40.0
-1.18144464 -0.72535670 -1.10776544 40.0
1.28024054 1.52861249 0.53709632 40.0
-0.35924637 1.57601070 0.50585675 40.0
1.37556696 -1.00040174 -0.55271870 40.0
-1.41656697 0.20667359 0.25209051 40.0
-1.39912224 -0.48177782 0.59351027 40.0
0.13693675 -1.54006720 -0.53984517 40.0
-1.40114939 0.29674795 -0.70392513 40.0
0.40395340 -0.72500092 1.30765295 40.0
-1.41058969 -0.55514467 0.07660579 40.0
-1.12593913 1.38281715 0.93007523 40.0
-0.88572139 0.88880020 -1.29062879 40.0
-1.39301717 -0.76732892 -0.54714954 40.0
1.34654486 -0.23340072 1.05596232 40.0
0.55184484 -0.99968094 1.21240664 40.0
1.38155341 -0.76713395 0.31270909 40.0
-1.39927375 0.62452185 -0.47377041 40.0
0.86473066 1.00446677 -1.21581638 40.0
1.36321616 -1.18419611 0.60280544 40.0
0.58825600 0.14807895 -1.03271353 40.0
0.56705660 0.78733373 -0.15284178 40.0
0.84278756 -1.03724945 1.18850374 40.0
-0.12415498 -1.09360123 -1.03561008 40.0
-1.35109234 0.45891669 0.90468502 40.0
-0.44177204 0.14809674 -1.03271353 40.0
0.40477386 0.44848189 -0.15706298 40.0
-0.24790259 -1.21605325 1.02535737 40.0
1.37713873 -0.17409606 0.60910392 40.0
-1.41829085 0.33505988 -0.31908002 40.0
-1.39766419 -0.23608874 0.60528666 40.0
0.57303470 0.51848584 -0.15317346 40.0
1.33932161 -1.25498915 0.57770866 40.0
-0.95092809 -1.32137048 -1.00414395 40.0
1.33197474 0.79784220 -0.92873168 40.0
0.57413304 -1.39285183 -0.97784674 40.0
1.33052373 -1.21716285 -0.76002568 40.0
0.95807046 0.65183794 -1.13589406 40.0
1.34242320 0.16755004 0.98993963 40.0
1.31286669 1.29750264 -0.31738788 40.0
1.36070681 0.83669871 -0.17378077 40.0
-1.28796852 -0.15411387 1.69099641 40.0
1.35888493 -0.68026060 -0.72701490 40.0
0.90067011 1.12563646 -0.95575571 40.0
0.03525828 1.57624137 -0.05192370 40.0
1.30633771 0.16807944 1.29598773 40.0
1.39191484 -0.48215830 0.26276302 40.0
0.75329834 0.88897491 -1.09238398 40.0
-0.42060539 0.74637544 -0.15216774 40.0
-0.73021549 -0.42937979 2.01002336 40.0
1.36528635 0.54097164 0.53824735 40.0
-0.66044790 -1.37323642 0.83647472 40.0
0.12485960 1.57613254 0.50585675 40.0
-1.04986417 0.39298040 -1.03189552 40.0
-0.24329188 -1.32611430 -1.00425053 40.0
-1.39439905 0.20590931 0.54010892 40.0
0.25008658 -0.40323710 -1.03172314 40.0
0.23416577 0.08675746 2.40008354 40.0
0.23047851 1.02523017 -0.15103818 40.0
0.55729818 0.96853024 -1.02978766 40.0
1.36685669 -0.82842320 -0.71127033 40.0
0.39710826 0.17536759 1.31051731 40.0
0.55729818 0.96853024 -1.02978766 40.0
-0.75135213 -1.49374974 -0.33479318 40.0
-1.13064635 -0.12696113 2.16793489 40.0
-1.36964178 0.91559088 0.09485545 40.0
1.39699376 0.20667359 0.25209051 40.0
1.36618233 -0.93753022 1.12552512 40.0
1.09342301 0.34423834 0.26134107 40.0
0.03717264 1.56910110 -0.69203365 40.0
0.72642016 -1.48607683 -0.45672494 40.0
1.39379299 0.45686319 -0.31900421 40.0
-1.39514017 -1.00040174 -0.55271870 40.0
1.22523034 -1.13781166 -1.28961015 40.0
-0.87572116 -0.78239185 1.30535793 40.0
1.26024055 0.89437336 1.17688251 40.0
0.91091609 -1.12386715 -1.35574353 40.0
0.10449927 -1.01598632 -1.04423976 40.0
-1.36056423 0.99173427 -0.03136480 40.0
-1.14825535 -0.35117215 1.97834444 40.0
0.46202722 1.20137739 -0.84572351 40.0
1.00587928 1.42867112 0.52478743 40.0
-1.31603479 1.38194954 0.53962874 40.0
0.98067433 -1.05698395 -1.69223011 40.0
-0.88234419 -1.09487903 -1.21948481 40.0
1.38412583 -1.00040174 0.63860768 40.0
-1.28602874 -0.08977708 1.69668376 40.0
1.38365853 -0.79740381 -0.30210620 40.0
0.57452363 -1.45845568 -0.90739149 40.0
0.57725227 0.67364228 -1.03294063 40.0
-0.58970493 0.73267829 -1.04091704 40.0
-1.18180931 0.81615186 0.80085611 40.0
-1.42245471 -0.03296584 -0.02997928 40.0
-1.23625588 0.83856791 1.16143322 40.0
1.37648809 -0.79740381 -0.54677767 40.0
0.76194650 0.62120438 -1.03300059 40.0
1.40112340 -0.23608874 -0.18349151 40.0
-0.34308892 -1.53856134 -0.53993511 40.0
0.86614835 0.88880020 -1.29062879 40.0
0.07341518 -0.42959395 2.01002336 40.0
1.24407625 1.29958594 -0.71664310 40.0
1.32214272 0.25454491 -0.92134929 40.0
-0.85540318 -1.10814774 1.13334000 40.0
-0.58949238 0.69012409 -0.15124765 40.0
0.84400314 -0.42887330 2.01002336 40.0
1.16736662 0.28139442 0.78768629 40.0
-0.90047312 -1.36931002 0.83237457 40.0
0.24061412 -0.64263010 1.44620764 40.0
0.92172903 0.80741060 -1.57107174 40.0
0.41251770 -1.56193674 -0.34679925 40.0
1.38069487 -1.07976615 0.62691331 40.0
-1.33439398 -1.25483286 -0.76424026 40.0
1.29605782 -0.59733337 1.40295863 40.0
-0.23221298 -1.55623567 0.10559531 40.0
1.38524532 -0.91042608 -0.41767564 40.0
1.21048331 0.12805399 1.85827863 40.0
-0.35283887 -1.13282037 -1.02562952 40.0
-0.26184222 -1.52591240 -0.64548028 40.0
1.30650020 -0.82651490 1.25270796 40.0
0.07737464 0.25776365 -1.03263068 40.0
-1.30369329 -1.28761089 0.84198558 40.0
0.93203580 -0.68288845 -1.03932345 40.0
-1.42017925 0.04429571 -0.31910902 40.0
-0.09343113 -0.69252414 1.33461964 40.0
-0.42352647 -0.72500092 1.30765295 40.0
-0.90678811 -1.42129970 0.78211510 40.0
-1.37452936 0.87597948 -0.17375657 40.0
0.94521844 0.69809490 -1.36091328 40.0
-0.14774369 1.57295227 1.24003601 40.0
0.10803820 0.69982648 -1.03646839 40.0
-1.05514932 1.27711618 0.28312880 40.0
1.32064772 0.33561093 -0.92108083 40.0
-1.33146918 -0.22533663 1.42273319 40.0
0.37767684 1.22809613 -0.14290611 40.0
-1.32048953 1.18487334 -0.62843585 40.0
-0.85910839 -1.07334507 1.16252446 40.0
-1.34203255 -0.03528218 -0.92140615 40.0
-1.40166771 -1.04164958 0.36323491 40.0
1.04684353 1.13517654 0.28027466 40.0
1.17273974 -0.68033969 -1.02761686 40.0
-0.81998783 -1.32466316 -1.00422919 40.0
-0.14033486 1.57692921 -0.49396381 40.0
1.33873153 0.20574030 0.89596188 40.0
1.15216184 0.17173699 1.68601990 40.0
-0.16067979 -1.50823390 -0.78640109 40.0
1.08139443 -1.39750552 -0.13518189 40.0
-0.44847086 -0.54743892 -1.03023171 40.0
1.38371050 -1.00040174 -0.30073801 40.0
-1.16139162 -0.71950281 1.30313909 40.0
-1.31603479 1.38194954 0.53962874 40.0
1.37817860 -0.68342340 0.27023304 40.0
-0.59820294 -1.52883911 0.53117031 40.0
1.39558721 0.45686319 -0.17392711 40.0
-0.30126753 -1.51334393 0.66012019 40.0
0.25089008 -0.17692675 -1.03261077 40.0
-0.48226473 -1.43146634 0.78703475 40.0
1.37750244 -1.03789914 0.89942497 40.0
-1.17179668 -1.20665312 1.01710045 40.0
1.37875295 -0.68322086 -0.13129164 40.0
0.52994919 -1.48194337 0.73906279 40.0
-1.39658689 -0.61659288 -0.53353208 40.0
-0.23274222 1.49352503 0.76792318 40.0
-1.19783545 -1.37884116 0.68033874 40.0
-0.29154810 -1.53033042 0.53117031 40.0
-1.38278913 -1.18419611 0.60280544 40.0
0.97840476 1.05719221 -1.30010974 40.0
1.18065214 0.45997557 -1.01645553 40.0
1.12095678 -0.96317405 -1.83399367 40.0
-1.40635061 -0.86603874 0.35445940 40.0
-0.57121736 -1.27402771 -1.01035869 40.0
-0.35986716 -0.78905523 -1.03648686 40.0
1.33052373 -1.21716285 -0.76002568 40.0
-0.74946076 1.06288743 -0.14824310 40.0
-1.02723432 -1.03359771 1.18850374 40.0
1.23041654 1.55892324 0.52605224 40.0
-0.64646018 -1.53651679 0.10594952 40.0
-0.23221298 -1.55623567 0.10559531 40.0
-0.12739050 -0.77103686 -1.03552949 40.0
0.49044931 -1.20299971 -1.01371276 40.0
-1.42008805 -0.10821417 -0.31988567 40.0
-1.31271148 1.52891564 -0.35945740 40.0
-0.81998783 -1.32466316 -1.00422919 40.0
1.03190911 -0.23895086 -1.03245044 40.0
0.33095211 1.57680726 -0.49396381 40.0
1.30807340 -0.16429447 1.43264914 40.0
0.58336020 1.57595479 0.50585675 40.0
1.17755699 1.38955700 -0.74877161 40.0
0.43439671 1.48103464 -0.75186962 40.0
-0.85614800 -1.46477759 0.73888129 40.0
-0.96288776 0.78649795 -0.06781805 40.0
-0.24316095 -1.31964684 0.90020764 40.0
-1.18284559 -1.16985095 1.05796003 40.0
-1.40997481 0.45614505 0.25244194 40.0
0.59605831 -0.54736656 -1.03023171 40.0
-1.34187019 -1.14788008 -0.92777067 40.0
-1.40440702 -0.62171108 -0.10123234 40.0
1.28893614 -0.46224752 1.52979219 40.0
0.01982617 -1.54043317 -0.53984517 40.0
1.28842080 0.34970644 1.15267932 40.0
0.40428790 0.51855165 -0.15317346 40.0
0.73366022 1.02484012 -0.15103818 40.0
1.35554886 0.87598163 -0.03089907 40.0
1.00117755 -1.10424888 1.13334000 40.0
-0.93261862 0.88806224 -1.58802056 40.0
-0.76421362 0.30101344 -1.03252149 40.0
0.09417368 0.54801339 -1.03047585 40.0
-0.27791950 1.48118556 -0.75186962 40.0
1.32001889 -0.31150493 -0.92014670 40.0
0.82735974 -1.17730260 1.06589663 40.0
-0.57705241 1.00461853 -1.03038347 40.0
-0.39849514 -1.55584490 0.10559531 40.0
0.55874598 -0.82142317 1.29436445 40.0
1.38524532 -0.91042608 -0.41767564 40.0
0.23954844 0.60554808 -0.15134911 40.0
1.13094985 -0.83213109 -1.70783305 40.0
0.24002321 -0.50439155 1.83429551 40.0
0.40199733 -0.78334934 1.30535793 40.0
1.27317739 0.73832542 1.17539334 40.0
-0.88515276 -0.92395759 -1.29754555 40.0
-0.11157093 1.16423571 -0.89236331 40.0
1.31337810 1.18454397 -0.46174619 40.0
1.34492016 0.11882670 1.06598699 40.0
-0.03939925 -1.54043317 -0.53984517 40.0
-0.60780561 0.09326123 -1.03270233 40.0
-0.54541236 -1.32576180 -1.00425053 40.0
-0.27031806 -0.23986845 -1.03245044 40.0
-1.25125229 1.31354368 1.20044971 40.0
1.32222390 0.99173427 0.53837663 40.0
-1.28485310 0.81646258 1.17179871 40.0
1.31239820 -0.87094760 1.23603094 40.0
0.56518322 0.82729745 -0.15268296 40.0
0.94337803 0.13857171 2.20296907 40.0
-1.14825535 -0.35117215 1.97834444 40.0
-1.25641072 0.32723889 1.14401484 40.0
0.10499729 1.05786002 -1.02328920 40.0
0.56004113 0.90580314 -0.15248835 40.0
-0.98909056 1.24509835 -0.80505043 40.0
1.37689638 -0.03291699 0.61335826 40.0
-0.63913178 0.46357200 -1.03128088 40.0
1.29737449 0.87587488 -1.30604887 40.0
1.03190911 -0.23895086 -1.03245044 40.0
-1.41490400 0.16269875 -0.47912744 40.0
0.40395340 -0.72500092 1.30765295 40.0
0.47312456 1.40088582 -0.75539261 40.0
-0.27054602 0.09328299 -1.03270233 40.0
-1.14510822 1.11468506 -0.94917697 40.0
0.63343590 1.20122302 -0.84572351 40.0
-0.94688243 0.02014572 2.41371536 40.0
1.39270186 -0.31095806 -0.48277497 40.0
0.89928567 0.67232901 -1.12886631 40.0
1.38412583 -1.00040174 0.63860768 40.0
0.54216719 -1.14442611 1.10039079 40.0
1.38483381 -0.62171108 -0.10123234 40.0
1.18651855 -0.03588582 -1.01829052 40.0
1.31466699 1.29750264 -0.17348625 40.0
0.74254841 -0.40307790 -1.03172314 40.0
-0.94872040 0.76846170 -1.52854681 40.0
-1.42213452 0.25455540 -0.03038480 40.0
-1.04395425 -0.61375970 -1.02894306 40.0
1.32389760 1.10884547 -0.31774470 40.0
-0.19622323 -1.48251712 0.73906279 40.0
-0.78452349 1.20107913 -0.84572351 40.0
1.12022090 -1.00882113 -1.79519069 40.0
-0.99797785 1.05719221 -1.30010974 40.0
1.32615864 0.83659416 -0.93012148 40.0
-1.03721285 -0.81763071 1.29436445 40.0
1.37689638 -0.03291699 0.61335826 40.0
-0.14451338 1.57619441 -0.05192370 40.0
1.30534112 -0.61118978 -0.92422229 40.0
-1.40223813 0.67942816 -0.02953775 40.0
1.26023710 -1.30770004 -0.75969809 40.0
0.99704856 0.76599842 -1.70424747 40.0
-1.32592595 1.46753836 -0.47032228 40.0
0.38689235 -1.17873669 1.06589663 40.0
-0.39405593 -1.52098751 -0.64772791 40.0
-1.38695312 -0.72405565 0.97825038 40.0
0.98228633 0.84499168 -1.78759181 40.0
0.21298116 1.57617855 -0.21713677 40.0
1.39706647 -0.17409606 0.26818848 40.0
1.12530649 1.08199215 -1.05661488 40.0
1.12892234 1.54561281 1.26162422 40.0
-1.12414670 1.02873242 -1.46146703 40.0
1.39533091 0.16269875 -0.47912744 40.0
-0.19758809 -1.56679106 -0.15274543 40.0
-1.32686567 0.99156868 -0.91091394 40.0
1.39888453 0.38810822 0.09799499 40.0
1.25567162 1.52581048 -0.69844902 40.0
1.03164542 -0.34067228 2.12508249 40.0
-1.32048953 1.18487334 -0.62843585 40.0
0.10470296 1.00485301 -1.03038347 40.0
1.38680363 0.62428129 0.10058018 40.0
0.98924702 -1.15617025 -1.21617401 40.0
-0.75115776 -1.23627472 -1.01197803 40.0
0.75180918 0.82719874 -0.15268296 40.0
-0.14033486 1.57692921 -0.49396381 40.0
0.23667878 -0.91326845 1.25494778 40.0
0.49411482 -1.53698051 -0.46213758 40.0
0.99412870 -0.83642757 -1.68505609 40.0
-1.39030659 -0.68082464 -0.54317647 40.0
0.89539200 -0.75245434 -1.09466636 40.0
-1.34098971 0.54875243 -0.91341472 40.0
-0.09350606 -0.64269662 1.44620764 40.0
-1.21501350 1.05261934 -1.24537802 40.0
-1.00137198 -1.09494996 -1.58696592 40.0
0.99427402 0.17451213 1.48764992 40.0
0.10471117 0.92953086 -1.03402376 40.0
1.34377420 -0.17164567 1.06269729 40.0
1.21583462 -0.27550644 1.85793114 40.0
1.30814779 0.80174863 0.91013789 40.0
0.85232133 1.24801660 -0.80505043 40.0
0.24002321 -0.50439155 1.83429551 40.0
-1.00061500 -0.96804470 -1.80691004 40.0
-0.85913569 -0.34052318 2.17121243 40.0
0.49960062 -1.51296341 0.66012019 40.0
1.30837572 0.05229456 1.45039082 40.0
-1.35542619 -1.19917738 0.94065201 40.0
1.21164358 0.95614827 1.16761577 40.0
-0.76467991 0.03279740 -1.03269935 40.0
0.38240853 -1.56525612 -0.15274543 40.0
-0.65300900 1.20122302 -0.84572351 40.0
1.40288258 0.20760427 -0.03028452 40.0
-0.91885877 0.67232901 -1.12886631 40.0
1.28893614 -0.46224752 1.52979219 40.0
-1.41483605 -0.03364002 -0.47912446 40.0
0.94962275 -0.42699715 2.01002336 40.0
1.33912158 -1.25498915 0.36344641 40.0
0.59385622 -1.23642540 -1.01197803 40.0
1.06258821 -0.57149339 1.61973715 40.0
-1.40169406 -1.04164958 0.09891930 40.0
0.39447007 -1.03851461 1.18850374 40.0
1.02391660 -0.68099606 -1.04364836 40.0
-0.77138233 0.82719874 -0.15268296 40.0
1.37721610 -1.11535394 0.62008369 40.0
0.40502182 -0.64254242 1.44620764 40.0
1.18065214 0.45997557 -1.01645553 40.0
-0.41549730 -0.17038424 2.38541818 40.0
-1.40087533 -1.04164958 -0.30149353 40.0
-1.37622201 -1.11492479 -0.72766542 40.0
0.92361498 -0.83905917 -1.51417518 40.0
0.37937820 1.18197107 -0.14387386 40.0
-1.35535896 -1.25120640 0.76221359 40.0
-1.05805445 1.56120884 1.24796903 40.0
0.01752607 -1.52665997 -0.64548028 40.0
1.01320982 -0.74619347 -1.21874928 40.0
1.12414610 -1.08979368 -1.60597825 40.0
0.86171168 1.09444916 -1.01518846 40.0
-1.16541111 -1.19055581 -1.01324427 40.0
0.74492663 0.25764355 -1.03263068 40.0
-0.05480830 1.57620394 0.08549819 40.0
1.37401402 0.25244537 0.52443147 40.0
0.82525086 -0.05151723 2.41467905 40.0
0.89231431 0.09319163 -1.03270233 40.0
-0.57037902 1.02496278 -0.15103818 40.0
0.34262118 0.69975632 -1.03646839 40.0
0.75905478 0.80971855 -1.09608972 40.0
-1.11085212 0.60268193 0.27376920 40.0
1.29994690 1.23136425 0.54180855 40.0
-1.39731276 -0.73143834 0.28752646 40.0
1.38141596 -0.76732892 -0.14886801 40.0
-1.30735099 1.02700484 -1.15967810 40.0
-1.08297718 -1.39450550 -0.44781265 40.0
-0.06226971 1.55427003 1.29268467 40.0
0.56173307 -0.75249869 1.30820656 40.0
0.57488090 1.57675135 -0.49396381 40.0
1.35569191 -1.09660792 1.03746557 40.0
-0.84589803 1.48827112 0.79980427 40.0
-1.33056068 0.95421678 -0.91956735 40.0
0.91304547 0.88806224 -1.58802056 40.0
-1.31022429 0.95421678 -1.26488447 40.0
-1.25100577 0.95582020 -1.57714128 40.0
-1.13921249 1.57162631 -0.60331839 40.0
0.07739505 0.20282853 -1.03269804 40.0
-1.24599588 1.55982697 -0.60537028 40.0
-1.28883004 0.77772164 1.17340040 40.0
-0.12415498 -1.09360123 -1.03561008 40.0
-0.90931451 -0.54689521 -1.03023171 40.0
-1.19412994 -1.10130548 1.12578666 40.0
1.36016643 0.72000903 -0.66493970 40.0
0.07252576 -0.24636908 2.30654764 40.0
1.40280056 0.16835390 0.09791307 40.0
-1.20925355 -0.90693063 1.24779904 40.0
-1.37323761 -1.21794403 0.11074717 40.0
1.37669587 -0.10821417 0.61156517 40.0
-0.85614800 -1.46477759 0.73888129 40.0
-0.92165798 1.18055904 -0.05885028 40.0
-0.26965967 -0.40323710 -1.03172314 40.0
-0.25335124 0.02020010 2.41371536 40.0
0.94519454 1.53758383 -0.74091089 40.0
-1.20535302 0.29861727 -1.01811659 40.0
-0.30126753 -1.51334393 0.66012019 40.0
1.33728015 0.99173427 0.24556479 40.0
-0.76212144 -0.40307790 -1.03172314 40.0
-1.41483605 0.04246653 -0.47912446 40.0
1.09505188 0.44643104 0.26805541 40.0
0.86572206 1.03486133 -1.16997278 40.0
-1.39573932 -1.07601619 0.88305414 40.0
0.07147219 -1.07490993 1.16252446 40.0
-0.45396984 1.48103464 -0.75186962 40.0
0.40465063 -0.69235814 1.33461964 40.0
1.02391660 -0.68099606 -1.04364836 40.0
0.07378481 0.51867139 -0.15317346 40.0
-0.39638954 -1.31946838 0.90020764 40.0
-0.14033486 1.57692921 -0.49396381 40.0
1.03274608 -0.10959397 -1.03268170 40.0
1.35051203 -1.21419072 0.79374748 40.0
-0.44148397 0.30108616 -1.03252149 40.0
-1.37654412 0.67942953 0.54231089 40.0
1.03040838 0.46203372 -1.03128088 40.0
-0.09243632 -0.86679667 1.27567828 40.0
-0.30129772 1.40106297 -0.75539261 40.0
0.07393296 -0.64269662 1.44620764 40.0
1.23853135 1.16582966 1.19474924 40.0
0.85113561 -0.91203052 1.25494778 40.0
1.38158345 -0.76732892 0.06387460 40.0
1.06147432 1.02034140 0.27408013 40.0
-0.26184222 -1.52591240 -0.64548028 40.0
-0.03709915 -1.52665997 -0.64548028 40.0
-1.19713020 1.38955700 -0.74877161 40.0
1.18693101 -0.95126832 1.22720444 40.0
0.07691374 -0.48148358 -1.03110778 40.0
0.88877344 1.37969732 -0.01035737 40.0
-0.60931957 1.56884623 -0.69203365 40.0
-1.41716647 -0.39835608 -0.19326697 40.0
-1.36776197 0.75931585 0.53802359 40.0
1.01892483 -0.72564739 -1.10731268 40.0
-1.41441321 -0.17409606 -0.48059013 40.0
-1.22528481 0.06654275 1.92770839 40.0
0.35090494 1.56890953 -0.69203365 40.0
-0.76467991 0.03279740 -1.03269935 40.0
0.98847485 0.80472296 -1.76108062 40.0
0.98847485 0.80472296 -1.76108062 40.0
0.95239532 0.51793945 -0.06814982 40.0
0.93203580 -0.68288845 -1.03932345 40.0
-1.14966190 1.57100880 -0.37129948 40.0
1.40242136 0.25404808 0.09733889 40.0
-0.88529521 1.03486133 -1.16997278 40.0
-1.13532591 -0.18440823 2.14760876 40.0
-1.39496243 -0.68148291 0.60729402 40.0
-1.00334609 -1.21014047 1.02535737 40.0
0.75664926 -0.87912136 -1.09392893 40.0
-1.35000539 1.06794763 0.09491259 40.0
-1.29680562 1.15117872 0.92951334 40.0
-0.35526663 0.62146777 -1.02998853 40.0
-0.57342345 0.98579085 -0.15264717 40.0
1.32418525 0.62779999 0.91625094 40.0
0.16354199 -1.56750286 -0.34679925 40.0
-1.35760546 0.75913697 -0.92485583 40.0
-0.12599595 0.77083367 -1.04541695 40.0
0.58823252 0.09326123 -1.03270233 40.0
-0.35924637 1.57601070 0.50585675 40.0
-1.29275036 0.73832542 1.17539334 40.0
0.59605831 -0.54736656 -1.03023171 40.0
1.40051174 0.33505988 -0.17394768 40.0
0.07727646 0.34005705 -1.03230631 40.0
0.10471534 -1.11784697 -1.03023458 40.0
0.49071079 -1.46130085 -0.90767127 40.0
-1.41227508 -0.31095806 -0.48277497 40.0
1.38524532 -0.91042608 -0.41767564 40.0
0.40502182 -0.64254242 1.44620764 40.0
1.34996927 0.91558784 -0.03097560 40.0
0.10450275 -1.05786979 -1.04104924 40.0
0.40224212 0.28568017 -0.12320840 40.0
0.10726013 -0.78913665 -1.03648686 40.0
-1.33267391 -0.91685492 1.21661615 40.0
-1.33072221 -0.54237056 -0.92560279 40.0
0.89173955 0.39395946 -1.03189552 40.0
1.28383458 -1.30956900 -0.13055290 40.0
-0.56944114 -1.03837872 1.18850374 40.0
-1.35257268 -0.60746616 1.26421249 40.0
-1.38874066 0.45569646 0.53392136 40.0
-1.37008512 -1.21419072 0.79374748 40.0
0.08253094 0.46373749 -1.03128088 40.0
1.38202131 -0.17409606 -0.70384085 40.0
1.33385372 0.99171472 -0.46900803 40.0
1.29605782 -0.59733337 1.40295863 40.0
-0.33400610 1.12670279 -0.95089185 40.0
1.12868237 -0.35117215 1.97834444 40.0
0.93135494 -1.32137048 -1.00414395 40.0
0.20218112 -1.50803709 -0.78640109 40.0
1.29994690 1.23136425 0.54180855 40.0
-1.41294909 0.33505988 -0.47904152 40.0
-0.49167621 -1.50772667 -0.65589625 40.0
1.14181840 -0.71950281 1.30313909 40.0
-0.45157394 1.24916184 -0.80505043 40.0
-0.42209706 -1.55124485 -0.46294257 40.0
0.14718789 1.55419898 1.29268467 40.0
-0.25912151 0.60554808 -0.15134911 40.0
1.31286669 1.29750264 -0.31738788 40.0
-1.33756196 -0.39789140 -0.92029583 40.0
1.38471580 0.62432730 -0.31886443 40.0
-0.09667309 -0.40327927 -1.03172314 40.0
0.20271918 1.57687640 -0.60196006 40.0
-0.59136671 1.57601368 1.12508225 40.0
0.57160658 0.60539132 -0.15134911 40.0
-0.25407854 0.90603924 -0.15248835 40.0
0.75061965 -1.05768883 -1.08445418 40.0
1.39871764 0.33505988 -0.31908002 40.0
-1.34090483 -0.23650837 -0.92068857 40.0
0.39282933 -1.07465386 1.16252446 40.0
-1.12967455 0.84077680 -1.81383348 40.0
-0.12599595 0.77083367 -1.04541695 40.0
-1.27924931 0.93395680 1.18456829 40.0
-0.35891441 1.57611883 -0.21713677 40.0
1.38242090 0.20358707 -0.70401430 40.0
-0.58911741 1.57676053 -0.60196006 40.0
-0.81941736 1.16367483 -0.89236331 40.0
-0.58210146 0.62138587 -1.02998853 40.0
0.56382686 -0.84115630 -1.04429817 40.0
-1.39022338 -1.14966214 0.10625564 40.0
-0.46306777 -1.56123281 -0.15274543 40.0
0.23510645 -0.99994743 1.21240664 40.0
-1.22181523 1.06978381 1.17466044 40.0
0.37937820 1.18197107 -0.14387386 40.0
0.21326539 1.57607055 0.50585675 40.0
-0.25836146 -0.78345585 1.30535793 40.0
-1.40630066 -0.86603874 -0.14109306 40.0
1.18651855 -0.03588582 -1.01829052 40.0
-0.88165891 -1.05839825 -1.25809157 40.0
0.78332400 0.65474689 -1.04021966 40.0
1.31863070 1.18446171 -0.31758845 40.0
-1.39640605 -1.11535394 -0.13705441 40.0
1.38130212 -1.04164958 -0.30149353 40.0
1.37022889 0.75929826 -0.31864098 40.0
-0.27046317 -0.17692675 -1.03261077 40.0
-1.38980186 0.75929826 -0.31864098 40.0
0.04269663 1.55427003 1.29268467 40.0
-1.41450608 0.25454849 -0.47910994 40.0
-1.08883286 0.94137383 0.27236575 40.0
-1.33295119 1.18454397 -0.46174619 40.0
1.36292017 -1.18419611 0.10862669 40.0
1.31530964 1.29750264 0.09325871 40.0
0.83468211 -0.24594821 2.30654764 40.0
0.90999389 -1.09626985 -1.44009471 40.0
-1.37812614 -1.06101644 1.06329834 40.0
1.17901194 0.62146628 -1.08243513 40.0
0.85658860 -0.75166869 1.30820656 40.0
-1.38412201 -0.61416173 -0.72969419 40.0
-0.42060539 0.74637544 -0.15216774 40.0
1.31174815 1.29750264 0.24608095 40.0
0.14772978 -1.54303539 0.35009468 40.0
-0.98533636 -0.57239360 1.63604677 40.0
1.28343058 0.55902821 1.17177951 40.0
-1.33153808 1.06794763 0.54000860 40.0
-0.99422032 -1.36965859 0.82422191 40.0
-1.40109718 -0.79740381 -0.42083633 40.0
0.21328607 1.57614315 0.86620837 40.0
-0.25713754 0.78753853 -0.15284178 40.0
1.23831224 0.37068921 1.14745939 40.0
1.27075791 1.46786714 0.93399203 40.0
-1.33648205 -0.30019340 1.39991558 40.0
0.61340451 1.51802707 1.20259476 40.0
-0.73283142 -0.72481668 1.30765295 40.0
0.37767684 1.22809613 -0.14290611 40.0
-0.54688168 1.12655318 -0.95089185 40.0
0.58492225 -0.48130366 -1.03110778 40.0
1.01314974 0.69578040 -1.47706807 40.0
1.15340614 -1.39038754 0.35462338 40.0
-0.87362331 -0.64163631 1.44620764 40.0
1.27341878 -0.77120483 -1.39250839 40.0
0.52994919 -1.48194337 0.73906279 40.0
-1.32480657 1.14751589 0.54148829 40.0
0.69170934 -1.39204574 -0.97769755 40.0
-0.95160890 -0.68288845 -1.03932345 40.0
-0.88234419 -1.09487903 -1.21948481 40.0
0.39996982 0.78743434 -0.15284178 40.0
-0.24274872 1.29328358 -0.14198953 40.0
0.23088662 -1.14473081 1.10039079 40.0
-0.05483141 1.57624137 -0.05192370 40.0
-0.55363071 1.29294538 -0.14198953 40.0
0.08838745 -1.55698335 -0.46294257 40.0
1.37721801 0.67942917 0.25658786 40.0
1.38194096 -1.04164958 0.63317174 40.0
-0.78129351 0.51842445 -0.15317346 40.0
-1.36199617 0.16755004 0.98993963 40.0
-1.13847649 1.31641734 0.83041120 40.0
1.39191484 -0.48215830 0.26276302 40.0
-1.13026559 1.19254112 -0.83639067 40.0
-0.25335124 0.02020010 2.41371536 40.0
-1.25919902 -1.26555765 0.92201167 40.0
-1.40641832 -0.86603874 0.09053125 40.0
0.86893409 0.84859085 -1.29487848 40.0
-1.06538379 -0.50161380 1.80672097 40.0
-0.41993019 -0.34101605 2.17121243 40.0
-0.36219430 0.69975632 -1.03646839 40.0
-0.85742927 0.13910690 2.17462778 40.0
1.22209692 -0.36595273 1.77996039 40.0
-1.41441321 -0.17409606 -0.48059013 40.0
-1.39539516 0.45851293 -0.69953275 40.0
-1.39030659 -0.68082464 -0.54317647 40.0
-0.09332377 0.34588709 -0.16377725 40.0
0.23325408 -1.07479942 1.16252446 40.0
0.21336876 1.57612944 1.12508225 40.0
-1.13921249 1.57162631 -0.60331839 40.0
1.38157630 0.29674795 -0.70392513 40.0
-1.39679098 0.67942917 0.25658786 40.0
1.33347547 1.02917314 -0.31796649 40.0
-1.19858503 0.62146628 -1.08243513 40.0
-0.94688243 0.02014572 2.41371536 40.0
0.82547683 0.02018570 2.41371536 40.0
0.71500337 1.12641883 -0.95132655 40.0
-0.90553486 -0.78759038 -1.18467247 40.0
1.22996163 0.66448301 1.16401422 40.0
-1.02743423 -0.74897796 1.30820656 40.0
-1.34202600 0.20151228 -0.92140502 40.0
-0.41549730 -0.17038424 2.38541818 40.0
-0.12448340 -1.13293684 -1.02562952 40.0
0.85232133 1.24801660 -0.80505043 40.0
1.14524841 0.69136685 -1.48879588 40.0
0.98362583 -1.19937181 -1.02379322 40.0
-1.19533265 1.41051209 1.25042140 40.0
-1.14827490 -1.25561857 0.95939845 40.0
-0.93371421 1.09408152 -1.03401852 40.0
0.42217767 -0.03634329 -1.03269935 40.0
0.55747938 1.00461853 -1.03038347 40.0
1.38194096 -1.04164958 0.63317174 40.0
-0.35891441 1.57611883 -0.21713677 40.0
1.29605782 -0.59733337 1.40295863 40.0
-0.04476893 -1.56787539 -0.34679925 40.0
-0.76103890 0.94552070 -0.15275256 40.0
-1.41088438 0.54158366 -0.17390926 40.0
-0.76841092 0.86649346 -0.15244776 40.0
-0.26003751 0.44854057 -0.15706298 40.0
-0.27031806 -0.23986845 -1.03245044 40.0
0.84775555 -0.50360078 1.83429551 40.0
-1.28983593 0.16902478 1.47668934 40.0
1.00587928 1.42867112 0.52478743 40.0
-0.77507824 0.84903479 -1.09781349 40.0
0.75116241 -1.09356058 -1.07238209 40.0
-1.38874066 0.45569646 0.53392136 40.0
-1.30689716 0.26332149 1.11925828 40.0
-0.60761565 -0.17687726 -1.03261077 40.0
-1.03383076 0.08358949 2.34417701 40.0
-0.27760884 -1.53967881 -0.53984517 40.0
1.33217108 1.02917314 0.24614684 40.0
-1.39035654 -1.14966214 0.61221004 40.0
-1.39920104 -1.07976615 -0.30266762 40.0
0.55687928 -1.09334075 -1.03561008 40.0
0.83722419 1.57041728 1.24162292 40.0
1.08642256 0.28438962 0.29482460 40.0
1.40288162 -0.03296584 -0.02997928 40.0
0.90183753 1.57482731 0.23475409 40.0
-0.23832339 1.57288587 1.24003601 40.0
0.15284638 -1.55677319 -0.46294257 40.0
1.23674607 0.49517730 1.15788937 40.0
-1.29981375 1.52861249 0.53709632 40.0
-1.28485310 0.81646258 1.17179871 40.0
-0.87070864 -0.91203052 1.25494778 40.0
0.79573667 -1.20292211 -1.01687372 40.0
1.13287044 1.47685015 -0.75192463 40.0
-1.27981019 -1.30770004 -0.75969809 40.0
1.33191085 -0.79696286 -1.23037851 40.0
-1.40390110 -1.00040174 0.36253682 40.0
-0.09859381 -1.23688126 -1.01197803 40.0
0.38240853 -1.56525612 -0.15274543 40.0
-0.92940456 -1.17427707 -1.06607068 40.0
1.38212097 -1.04164958 0.09891930 40.0
-1.30762827 0.40438229 1.15871727 40.0
0.09117453 -1.20328605 -1.01371276 40.0
-1.25923049 1.55894685 0.08569235 40.0
-1.39731276 -0.73143834 0.28752646 40.0
-1.01885819 -1.42638838 0.74946839 40.0
1.23962593 -1.26555765 0.92201167 40.0
1.12289762 -0.91579622 -1.82740676 40.0
1.18488669 0.33717966 -1.01790619 40.0
-0.91510946 1.28956819 -0.05696581 40.0
1.37875295 -0.68322086 -0.13129164 40.0
1.35020101 -0.79723066 -0.93499482 40.0
-1.19481337 -1.35871077 0.78367960 40.0
-1.40800810 -0.91042608 0.09333713 40.0
0.22967015 -1.17889643 1.06589663 40.0
-1.40390325 0.54197508 -0.47624999 40.0
0.87491244 -0.84036636 -1.25786650 40.0
0.03469021 1.57657290 -0.37129948 40.0
-1.39301717 -0.76732892 -0.54714954 40.0
0.85336918 -0.86553180 1.27567828 40.0
0.21058433 1.57646370 -0.37129948 40.0
0.25690010 1.24932790 -0.80505043 40.0
1.26822388 -1.11523056 -1.38822055 40.0
-1.34997225 -0.82771975 -1.26907361 40.0
1.38553631 -0.82842320 0.08604774 40.0
-0.99116623 1.39959061 -0.75539482 40.0
1.01403379 -0.77962804 1.30535793 40.0
-0.35160953 -1.01588178 -1.04423976 40.0
1.39724910 -0.10821417 0.26904401 40.0
-1.01384711 0.17451213 1.48764992 40.0
-0.88128477 1.09444916 -1.01518846 40.0
-0.76364964 0.33989692 -1.03230631 40.0
-1.38482213 -1.14966214 -0.43606415 40.0
-1.32040954 0.87967730 0.91404855 40.0
-0.04024088 -1.50859237 -0.78640109 40.0
0.03523133 1.57617962 0.50585675 40.0
0.84853131 -0.95676529 1.23431325 40.0
-0.21014753 -1.39339173 -0.97784674 40.0
-1.19412994 -1.10130548 1.12578666 40.0
1.38054669 0.33505988 -0.70381659 40.0
-1.24572790 -0.69142514 1.32204199 40.0
-1.34248626 1.14751589 -0.17356145 40.0
-1.41564715 0.45677537 -0.02999269 40.0
1.38684523 -0.86603874 0.09053125 40.0
-1.39337146 0.29454398 0.52431124 40.0
-0.09239171 0.21830934 0.29669040 40.0
1.35402369 -1.21794403 0.36562243 40.0
0.07190405 -1.52650344 -0.64548028 40.0
1.08376396 1.39618349 -0.75540364 40.0
-1.33472621 -0.47585604 -0.92267054 40.0
0.09861372 1.12681639 -0.95089185 40.0
1.29027832 -1.18338609 -0.92539477 40.0
1.13184118 1.57067859 -0.05192370 40.0
-1.13100874 1.23939586 -0.79696047 40.0
-1.36896801 0.91558683 -0.17373149 40.0
-0.08968159 1.06339931 -0.14824310 40.0
0.25502691 -0.54751378 -1.03023171 40.0
-0.14777830 -1.46270418 -0.90774119 40.0
1.09384370 0.51617247 0.27194491 40.0
-0.09248641 0.78761756 -0.15284178 40.0
-1.42108846 -0.23608874 0.09630336 40.0
-0.14774369 1.57295227 1.24003601 40.0
0.10781740 -0.77103686 -1.03552949 40.0
0.15284638 -1.55677319 -0.46294257 40.0
-1.32785988 -0.68052697 -0.92303157 40.0
0.05720259 -1.39353478 -0.97784674 40.0
-0.88518786 -1.13711941 -1.13550556 40.0
-0.35195002 -0.97108966 -1.04515576 40.0
-0.81530976 -1.20292211 -1.01687372 40.0
-1.25125229 1.31354368 1.20044971 40.0
-1.38043118 0.62417430 0.54162914 40.0
-1.09810674 -1.31498635 -0.99338150 40.0
-1.33699358 1.18446171 0.24788176 40.0
1.37078023 -1.14966214 0.36591235 40.0
-1.28315127 -0.91146940 -1.66950548 40.0
-0.73469865 -0.64237881 1.44620764 40.0
0.71447682 -0.69218206 1.33461964 40.0
-0.94688243 0.02014572 2.41371536 40.0
-0.92165798 1.18055904 -0.05885028 40.0
-1.40199769 -0.82842320 -0.41807920 40.0
-0.34308892 -1.53856134 -0.53993511 40.0
-0.12761132 0.69982648 -1.03646839 40.0
-1.31277120 0.91558683 -1.29285836 40.0
-1.33001292 1.23141861 -0.45860273 40.0
1.36016643 0.72000903 -0.66493970 40.0
-1.01981568 -0.80697346 -1.59442222 40.0
-1.38642979 -0.82842320 -0.71127033 40.0
0.83468211 -0.24594821 2.30654764 40.0
0.75192446 0.96840614 -1.07374060 40.0
-1.34179688 0.99173427 0.53837663 40.0
0.88732094 -0.48088813 -1.03110778 40.0
0.39369750 0.02019885 2.41371536 40.0
-1.34757400 1.06794763 -0.31784734 40.0
1.38489878 -0.62265170 0.06239360 40.0
-1.35009682 -1.21716285 -0.76002568 40.0
1.37669587 -0.10821417 0.61156517 40.0
1.23244321 0.99240100 -1.48944390 40.0
1.25844026 0.97256774 1.19006026 40.0
0.58336020 1.57595479 0.50585675 40.0
1.33578587 -1.25120640 0.76221359 40.0
1.19544029 1.05261934 -1.24537802 40.0
1.33810627 0.95421678 -0.46908194 40.0
-0.40564579 1.06315088 -0.14824310 40.0
1.11010134 0.84077680 -1.81383348 40.0
0.33352590 1.05775344 -1.02328920 40.0
0.76257116 0.39174396 -0.16122690 40.0
-0.12145031 -1.17225718 -1.01655352 40.0
1.38365853 -0.79740381 -0.30210620 40.0
-0.24735659 1.10127723 -0.14603063 40.0
1.39058626 -0.39796069 -0.48527104 40.0
-1.42197299 0.04526392 -0.17395562 40.0
-1.34179688 0.99173427 0.53837663 40.0
1.39041734 -0.55271405 -0.22648564 40.0
0.98140126 1.12305307 -0.95781952 40.0
-1.41682220 -0.10821417 0.26904401 40.0
0.23416577 0.08675746 2.40008354 40.0
-1.20462239 -0.81623930 1.28659534 40.0
-1.04395425 -0.61375970 -1.02894306 40.0
-1.39617574 -0.62116015 0.59942830 40.0
0.76256949 0.44837230 -0.15706298 40.0
-1.35257268 -0.60746616 1.26421249 40.0
0.74464047 0.30101344 -1.03252149 40.0
1.01421905 -0.11580809 2.35201526 40.0
-0.78452349 1.20107913 -0.84572351 40.0
0.07739505 0.20282853 -1.03269804 40.0
1.17755699 1.38955700 -0.74877161 40.0
-1.32235622 1.18446171 0.54171658 40.0
0.21339901 1.57613230 -0.05192370 40.0
1.36524904 -1.14966214 -0.43606415 40.0
0.40199733 -0.78334934 1.30535793 40.0
-0.87072164 -0.57489282 1.63604677 40.0
-0.09221330 0.82759595 -0.15268296 40.0
1.08310747 0.78379524 0.27227655 40.0
-0.25863868 -0.42954913 2.01002336 40.0
-1.01370180 -0.83642757 -1.68505609 40.0
-0.38210726 -1.37358308 0.83647472 40.0
0.97926289 -0.63888896 1.44620764 40.0
-0.20024557 -1.52609813 -0.64548028 40.0
-1.38414323 0.79804164 -0.31855357 40.0
0.75116241 -1.09356058 -1.07238209 40.0
1.31310070 -0.91685492 1.21661615 40.0
-1.03379214 -0.11580809 2.35201526 40.0
0.66511774 1.49298680 0.76792318 40.0
1.15216184 0.17173699 1.68601990 40.0
-0.11441697 -1.56771469 -0.34679925 40.0
1.23776865 1.55889583 0.23857392 40.0
1.02704942 -0.47963169 -1.03110778 40.0
-1.15587521 -0.80265075 -1.61348438 40.0
0.21496628 -1.37376869 0.83647472 40.0
0.75572568 1.07462943 -1.02789366 40.0
1.32830286 -1.08102310 -1.22547460 40.0
-1.39912224 -0.48177782 0.59351027 40.0
1.37713873 -0.17409606 0.60910392 40.0
-1.41772521 -0.39850506 -0.04635480 40.0
-1.17179668 -1.20665312 1.01710045 40.0
-1.38215005 -1.04164958 -0.71944797 40.0
-1.00289905 1.07336783 -1.16281784 40.0
-1.33324981 1.38195133 0.09219257 40.0
1.08824873 0.68702859 0.27387065 40.0
1.32214391 -0.38852406 1.36546779 40.0
-0.35986716 -0.78905523 -1.03648686 40.0
0.75207800 -1.11809945 -1.05985081 40.0
-0.94743854 0.54720747 -1.03528905 40.0
0.07723346 -0.31591716 -1.03216410 40.0
1.33527362 1.02917314 -0.17364454 40.0
-1.05239367 0.09298113 -1.03270233 40.0
-1.39358723 0.25244537 0.52443147 40.0
-0.39724997 1.22809613 -0.14290611 40.0
-0.60761565 -0.17687726 -1.03261077 40.0
-0.25685427 0.21828823 0.29669040 40.0
1.40060604 0.04429571 -0.31910902 40.0
-0.09329041 -0.72517449 1.30765295 40.0
0.07098800 0.98614728 -0.15264717 40.0
-0.10725102 1.40119755 -0.75539261 40.0
-0.88261473 -0.97089571 -1.29905295 40.0
1.24466920 0.65804529 -1.26319754 40.0
-0.91187853 -0.03629736 -1.03269935 40.0
-0.76327693 -0.31575829 -1.03216410 40.0
-0.14774369 1.57295227 1.24003601 40.0
0.46269161 -1.43146634 0.78703475 40.0
0.23424451 -1.03865540 1.18850374 40.0
-1.35109234 0.45891669 0.90468502 40.0
0.92786539 0.54720747 -1.03528905 40.0
1.35855293 -1.06101644 1.06329834 40.0
-0.25282720 -1.07479942 1.16252446 40.0
1.25661647 -1.25699699 -0.92767632 40.0
1.31043994 1.23141861 -0.45860273 40.0
-1.42199457 0.25404808 0.09733889 40.0
0.92730927 0.02014572 2.41371536 40.0
0.41778257 -1.48212373 0.73906279 40.0
0.47210309 -1.50772667 -0.65589625 40.0
0.24046500 0.39189050 -0.16122690 40.0
0.41251770 -1.56193674 -0.34679925 40.0
1.38320482 -0.62270105 0.26383936 40.0
-1.39648664 -0.73156083 -0.29727197 40.0
-0.78099763 0.34572417 -0.16377725 40.0
0.91009098 -0.97040552 -1.60376096 40.0
-1.30850935 -0.46224752 1.52979219 40.0
1.07300436 0.90172482 0.27262989 40.0
1.30941105 0.12107551 1.42332649 40.0
0.33419374 1.07473505 -1.01844203 40.0
-1.38278913 -1.18419611 0.60280544 40.0
0.56252831 0.62138587 -1.02998853 40.0
0.44774085 1.51815927 1.20259476 40.0
-0.93174952 1.03479457 -1.33906221 40.0
0.06841398 1.22838330 -0.14290611 40.0
0.07312775 0.74654901 -0.15216774 40.0
-1.27509916 1.01007390 1.19173157 40.0
0.93839633 -0.24485262 2.30654764 40.0
1.12671971 1.20832372 0.81177282 40.0
-0.14281428 1.57652569 -0.37129948 40.0
-1.31672418 0.95788878 0.92643237 40.0
-1.29299188 -0.77120483 -1.39250839 40.0
-0.91822129 1.22622907 -0.05788239 40.0
1.38365853 -0.79740381 -0.30210620 40.0
0.07261720 -0.91336256 1.25494778 40.0
-1.32898414 0.12107551 1.42332649 40.0
-1.35767937 0.95421678 -0.46908194 40.0
-1.41656697 0.20667359 0.25209051 40.0
-0.92593312 -0.61535978 -1.02894306 40.0
0.18449618 1.53875780 -0.74084562 40.0
-1.42218912 -0.10821417 0.09952059 40.0
-1.31340909 0.99540222 0.92686689 40.0
0.83468211 -0.24594821 2.30654764 40.0
-0.87465298 -0.82052749 1.29436445 40.0
1.39270186 -0.31095806 -0.48277497 40.0
0.07027391 -1.17901742 1.06589663 40.0
0.29218274 -1.20316255 -1.01371276 40.0
-1.36449337 0.11882670 1.06598699 40.0
-1.18828189 0.73593587 0.80162722 40.0
0.42218196 0.09327192 -1.03270233 40.0
1.39463770 -0.48082078 -0.20553543 40.0
