-0.44006968 -1.61868203 -0.35475779 40.0
-1.18726790 -1.40032434 -0.76869321 40.0
1.12339151 1.30971634 1.20790207 40.0
1.12771225 -0.28390458 1.46137428 40.0
-1.25025153 -1.34566343 -0.65536678 40.0
1.07587206 -1.09747827 0.80928618 40.0
0.33755410 -0.65686470 -1.11601233 40.0
-1.31674397 0.86817122 -1.19503665 40.0
-1.37339246 0.78326917 -0.08849210 40.0
1.05583549 -0.12235299 -1.08110797 40.0
0.35716635 0.98864001 -1.12424147 40.0
0.78333765 1.41182351 0.93560636 40.0
-1.09455931 0.56967700 1.54167712 40.0
-1.22308743 -1.00399530 0.84402782 40.0
1.30927730 0.03234607 -0.08892747 40.0
1.35806918 1.15250051 0.05235961 40.0
-1.32647431 0.10974623 0.72785252 40.0
-1.30093169 -0.19236784 -0.96937835 40.0
1.37273347 -0.54878896 0.01763500 40.0
-1.40852010 0.49030513 -0.25545263 40.0
0.90992129 -0.97709548 0.86037558 40.0
0.26059607 -0.70423394 1.07005727 40.0
1.38888168 0.44338238 0.05189132 40.0
-0.78042775 1.41182351 0.93560636 40.0
-1.00063968 -1.44035733 0.40494150 40.0
-0.29546607 -0.56787330 -1.11711204 40.0
-0.41400322 0.87614340 1.62161934 40.0
0.21631990 1.35307217 -0.93060559 40.0
0.51891774 1.42382598 0.07313796 40.0
1.03953612 -1.44520390 0.35441971 40.0
1.30045807 -0.12140380 -0.80544031 40.0
-1.31984460 -0.39079109 -0.47537673 40.0
-0.05996148 1.41758859 -0.62290537 40.0
-1.27308095 0.19213200 -0.17534752 40.0
1.21935809 0.29364771 1.23466039 40.0
0.43353418 -0.33408469 -1.10411680 40.0
0.74090374 0.11624191 -1.08322883 40.0
-1.38432324 -0.90789187 -0.33541143 40.0
-1.29888546 0.03265103 -0.17534715 40.0
-0.10309829 1.20671189 -1.10903823 40.0
1.26312613 -1.23081148 -0.97452378 40.0
-1.31929111 -0.32398647 -0.35577032 40.0
-0.85634661 -1.00604475 -1.23114514 40.0
1.37099826 -0.32443193 0.69113332 40.0
-0.54492712 -0.94891083 0.86666083 40.0
-0.40747023 -0.20605817 1.92287099 40.0
-1.07168949 0.44917169 -1.08098757 40.0
-1.28598726 0.28740153 0.59172714 40.0
-1.30919993 -0.19169146 -0.35555851 40.0
1.32121360 0.90844876 -1.19164479 40.0
-0.57431287 0.90481716 -1.12715709 40.0
1.36029756 0.98604149 -0.61440408 40.0
-0.34514230 -1.10418415 -1.11283827 40.0
0.23748410 -1.07399368 0.84395075 40.0
-0.53871399 1.39408195 -0.67576700 40.0
-1.02042413 0.64753395 1.64658654 40.0
1.31245363 -1.22901666 -0.63471019 40.0
-0.91740322 1.32456613 -0.89310825 40.0
-1.38200986 -0.87355012 -0.33145273 40.0
0.74323559 -0.12296922 -1.08310902 40.0
-0.71380168 0.82662988 1.63810778 40.0
0.70324546 -1.20962775 0.74199748 40.0
-1.37524474 -0.80015677 0.67345750 40.0
-1.37187672 0.74002230 -0.35331792 40.0
-1.38912773 -0.94194818 0.29250133 40.0
1.37576747 -0.63635218 -0.13066845 40.0
-0.43040389 -0.19660345 -1.10511255 40.0
-0.42628223 -1.22071636 -1.07930863 40.0
-0.08289978 -0.27405891 1.87154615 40.0
-0.04496906 -1.63511062 0.04755095 40.0
1.26258981 0.87197071 1.05685377 40.0
1.32721102 -0.04261943 0.90323484 40.0
-1.23506713 0.12884703 1.22424126 40.0
-0.89824748 -1.53107834 -0.32392657 40.0
-1.29470086 -0.19188453 -0.62747723 40.0
1.12698615 1.32758272 1.05427337 40.0
-1.29036188 0.36802664 0.75731254 40.0
-0.42798680 0.11725292 -1.10545337 40.0
1.30784309 1.15625489 0.96132940 40.0
-1.00863481 0.88820523 1.55839503 40.0
1.35040534 -0.12140337 0.58932072 40.0
-0.32204816 1.37483191 -0.85389173 40.0
1.35253608 0.98604149 -0.75903118 40.0
-1.37466717 -0.90789187 -0.57879847 40.0
0.47517896 -1.47571528 0.41749543 40.0
0.39327624 -0.95013541 0.87057555 40.0
0.42562360 -0.59826982 1.26565385 40.0
-0.73756230 -0.65565974 -1.08570874 40.0
-0.69224346 1.15985572 1.41718376 40.0
1.23951197 -1.07846808 -1.21866024 40.0
-0.11602097 0.86253893 -1.15756655 40.0
-1.34304214 0.74023265 -0.93402600 40.0
1.30288053 -1.28403425 0.43365464 40.0
0.66286874 1.42534900 0.94439602 40.0
1.26339960 0.28404284 -0.80607325 40.0
0.30618563 1.43470693 1.20820892 40.0
-1.32218933 0.03189286 0.44097933 40.0
-0.92279297 1.37371075 -0.58702624 40.0
-1.30969703 -0.04555452 -0.17624725 40.0
-0.24440511 -0.06314583 2.02616763 40.0
1.00922632 0.75797182 -1.43846774 40.0
-0.74032533 -0.12296922 -1.08310902 40.0
-1.38917196 -0.94195008 0.15823039 40.0
1.37553000 0.90844876 0.05213267 40.0
-1.00721872 1.22870588 -1.04461384 40.0
1.33893585 0.42311022 0.05188870 40.0
-1.39358747 0.49041921 -0.62894529 40.0
-0.72767079 1.36474609 1.25863409 40.0
0.08677252 1.00737286 1.56914163 40.0
1.37421346 -0.39109391 0.67458832 40.0
0.93922824 1.38750768 1.03224802 40.0
0.92346734 -0.56269574 -1.07614923 40.0
1.38459957 -0.80388075 -0.21658579 40.0
-1.06319511 1.21669602 1.33940434 40.0
0.44297957 -1.61868203 -0.35475779 40.0
0.59584326 1.44360924 -0.07518176 40.0
-0.85545725 -0.97056538 -1.25012052 40.0
1.05450749 -0.04583767 -1.08120358 40.0
-1.37730646 0.69854099 -0.35358489 40.0
-1.35732853 0.69940662 -0.77084512 40.0
-1.29470086 -0.19188453 -0.62747723 40.0
0.38187769 -1.21536398 0.74633354 40.0
0.69331861 0.01439908 1.99553823 40.0
0.95611209 -1.30893946 -1.05390930 40.0
1.37944806 -0.63666683 0.00968973 40.0
-1.33479917 1.06290352 -0.91806811 40.0
0.08411545 -0.84530634 0.89044815 40.0
-0.79635733 1.37468040 -0.67320567 40.0
-1.36328292 0.78326917 -0.47596025 40.0
-1.37435782 0.94746244 -0.08816095 40.0
-1.22343230 -0.85897005 0.86511016 40.0
0.69184369 -1.52419162 0.30222639 40.0
1.04537475 1.36801326 -0.03894730 40.0
1.07959008 -1.05330932 0.83346081 40.0
1.32058632 0.03189519 0.24976744 40.0
-0.55902159 -0.20588371 1.90929961 40.0
-0.24739988 1.30119967 -1.04859197 40.0
-0.04146968 -1.64997995 -0.22696550 40.0
1.27374649 0.28900465 0.05188664 40.0
-0.22171570 -1.41310298 0.52365488 40.0
-0.24792230 -0.20614322 1.93896019 40.0
1.35487366 1.15250051 0.50336730 40.0
-0.18571992 1.40261650 -0.70442212 40.0
-1.38487732 -0.63696939 0.58888334 40.0
0.45797592 1.44745505 0.95002300 40.0
-1.35535967 -0.39082551 0.02489701 40.0
-1.34828997 -0.83878541 -0.95276803 40.0
1.37966132 -0.97628635 -0.58588964 40.0
0.08681567 0.96553457 1.59469485 40.0
-1.31967020 0.69390517 0.84924060 40.0
1.29545701 -1.28726566 -0.38900924 40.0
0.97849268 -0.95869112 -1.55077326 40.0
-0.71485901 -1.02392745 0.85162675 40.0
0.76740593 -1.43689907 -1.03544641 40.0
-1.37932432 0.44186413 0.59764522 40.0
-0.08542990 -0.73758841 1.00877845 40.0
0.81879246 0.09419143 1.97537899 40.0
1.35856736 1.15250051 0.23512818 40.0
0.26481828 -0.19668198 -1.12196624 40.0
1.37885928 0.98604149 0.05219628 40.0
-1.21398079 -0.55752403 -1.05456507 40.0
-0.75434703 0.48042646 -1.08269823 40.0
0.97809041 1.38415277 0.24668977 40.0
1.37630248 0.78326917 -0.08849210 40.0
-1.30264747 0.19108638 0.58988053 40.0
1.30045807 -0.12140380 -0.80544031 40.0
-0.22687222 -1.34780550 0.61605293 40.0
1.09746957 0.56967700 1.54167712 40.0
-1.21530628 0.60096234 -1.06215036 40.0
0.84706742 1.07312036 1.47092879 40.0
-1.31858563 0.82635278 -1.18947077 40.0
1.22741413 0.63903022 1.14635968 40.0
1.16950750 -1.14554119 -1.04830098 40.0
1.41292334 0.49030513 -0.17524837 40.0
0.93771696 1.15380275 -1.08657908 40.0
1.36511326 -1.13824141 -0.19144593 40.0
0.08910615 -1.22357786 -1.10759091 40.0
1.09760082 1.09872532 -1.24591970 40.0
-0.93631834 1.38750768 1.03224802 40.0
1.28207934 -1.28719985 -0.74091834 40.0
1.12672293 -1.29730546 -1.03916264 40.0
1.36934149 -0.54845196 -0.12002642 40.0
0.08642197 1.08796585 1.50738752 40.0
1.08343744 0.62479198 1.53941929 40.0
-0.36193308 1.45307040 0.95267522 40.0
-0.74215508 -0.19602537 -1.08289278 40.0
0.38684484 1.45210850 -0.33524269 40.0
-0.52134192 -1.62106860 -0.06664247 40.0
-1.33789670 -0.12138008 0.24678817 40.0
1.17429602 -1.24755442 0.67596865 40.0
-1.28934610 1.25211000 0.23244339 40.0
-1.39166808 0.53170294 -0.62785643 40.0
-1.27035022 0.37725466 -0.17534697 40.0
-0.25789514 -0.66521859 1.14748228 40.0
0.79657382 -1.54769814 -0.06053931 40.0
-1.37267160 1.02452850 -0.08797629 40.0
1.25645614 -1.25260949 0.63547844 40.0
-1.37977099 0.69854099 -0.25483018 40.0
0.35257897 0.90549606 -1.14425063 40.0
0.77344042 -0.70066047 1.03617287 40.0
-1.08775651 -1.46487427 -0.37476641 40.0
0.05578491 1.45711768 0.96730101 40.0
1.29074168 0.98980486 1.00684047 40.0
-1.37517989 -0.83878541 -0.46989694 40.0
0.36740699 -1.41218853 0.52279800 40.0
-1.19392514 -1.40484345 0.28845376 40.0
1.33194780 0.74036139 -1.15181625 40.0
1.28218520 0.95123690 1.01572812 40.0
0.79655313 -1.54523492 -0.66036046 40.0
1.33072782 1.20619690 -0.08745655 40.0
-0.91178173 -0.90491962 0.86642879 40.0
-0.37416857 -1.58072889 -0.83194870 40.0
0.08464573 -0.13658063 2.00676203 40.0
-0.25190523 0.78880453 1.70531380 40.0
0.59185606 -0.73586595 0.99015969 40.0
1.40996706 0.46159282 0.24921177 40.0
0.56687123 -1.01074493 -1.11688495 40.0
-1.26758027 -1.34661245 0.04681680 40.0
1.06687021 0.36306226 -1.08122540 40.0
1.20891237 -1.34824324 -0.97255534 40.0
0.41609401 1.08653855 1.48723948 40.0
-0.70778430 -1.21551001 -1.05828238 40.0
-0.66191339 1.38516963 -0.67408091 40.0
1.38516939 -0.90789187 -0.40199104 40.0
-1.13443542 0.65445542 1.38880920 40.0
0.16981673 -1.60378230 -0.60262662 40.0
-0.27501401 -1.60867059 -0.51072919 40.0
0.11719919 -0.97617483 -1.15148377 40.0
1.32900226 -1.22901666 0.08140690 40.0
0.56332260 1.38291514 -0.75857449 40.0
0.28509811 -1.64816511 -0.12537427 40.0
1.32646143 0.78328723 0.82559246 40.0
-0.39311826 1.45858288 -0.07858797 40.0
-0.42254287 -0.73678952 0.99807781 40.0
0.92774016 0.85089678 -1.43841720 40.0
1.19742930 0.45695287 1.28913295 40.0
1.32727587 0.42315626 -0.35471025 40.0
0.42639029 -0.70380658 1.06331968 40.0
-0.85696572 0.53384894 1.80851614 40.0
-0.56762117 -1.57114661 -0.74804020 40.0
-1.28016222 0.70596772 -1.28025615 40.0
-0.44201353 -0.47893676 -1.10207486 40.0
-1.21783304 -1.09103870 0.80122882 40.0
0.39327624 -0.95013541 0.87057555 40.0
-1.41245365 0.49030513 0.05190685 40.0
0.52478284 1.46904826 0.42158005 40.0
-0.66105896 1.25251353 1.35157549 40.0
0.25853488 -0.50734884 1.44616520 40.0
1.07576621 0.47187054 -1.08069766 40.0
1.34697163 -1.04988873 -1.12142003 40.0
-0.79623216 -1.55704272 -0.49250001 40.0
-1.36282146 0.86819273 0.59600967 40.0
-1.37175143 0.86818278 0.43441722 40.0
-1.35097826 -0.12147416 0.71825242 40.0
1.38999319 0.44319475 0.24913508 40.0
-1.37861061 0.74002558 0.44249216 40.0
-1.37134600 -0.46365657 0.40031880 40.0
1.37553000 0.90844876 0.05213267 40.0
-1.18796575 -0.70184684 -1.12208295 40.0
-1.30094123 -0.04564839 -0.25610971 40.0
-1.31787348 -1.22901666 -0.38346678 40.0
1.21068227 0.27910456 -1.06052995 40.0
0.77786273 -0.73347640 0.97596157 40.0
1.40566254 0.58948964 0.25007203 40.0
0.60306919 0.48249233 -1.09070039 40.0
-0.82483554 0.34246737 1.88358378 40.0
0.94710708 1.13554764 -1.13192165 40.0
1.39042974 -1.05193317 -0.17470580 40.0
-1.33100748 -0.11777125 0.89473706 40.0
1.34613431 -0.55231565 -0.79980654 40.0
-0.51123250 -1.61624575 -0.20396000 40.0
1.37718177 1.02452850 0.23741408 40.0
0.84574580 0.86514020 1.60320747 40.0
-0.52009523 1.31683755 1.31114817 40.0
-1.36282146 0.86819273 0.59600967 40.0
-1.40662158 0.53129786 -0.25534037 40.0
1.38612223 -0.83878541 0.31228226 40.0
0.20841788 -1.47864401 0.41695848 40.0
-1.27914500 0.44277501 1.01783705 40.0
-1.30100667 -1.14124727 0.73524529 40.0
-0.79970694 -0.56508350 -1.07815993 40.0
0.39684692 1.43243015 -0.48191559 40.0
-0.26896489 1.44940507 0.85207355 40.0
-0.58635008 -0.77199924 0.92969310 40.0
1.35808873 1.02450454 -0.61356014 40.0
-1.34589612 -0.54869759 -0.48613513 40.0
-1.37960410 -0.83878541 -0.32024175 40.0
-0.93955237 1.05912185 -1.33289611 40.0
-0.90887821 0.50652105 -1.08014286 40.0
-0.22904930 -1.39605236 -1.08807266 40.0
0.40371907 0.25895512 1.95276248 40.0
0.57156342 0.91944396 1.58415508 40.0
-1.31292248 1.06418240 -1.10620975 40.0
0.27257803 1.45155215 0.78075415 40.0
0.79197574 -1.53327560 -0.82134563 40.0
1.36462462 -0.90789187 -0.80503184 40.0
-0.59309667 -0.77014208 -1.11063862 40.0
1.39070749 -0.90789187 0.46019301 40.0
1.34880638 -0.54869759 -0.48613513 40.0
-1.37675118 -0.97628635 -0.58588964 40.0
-1.24567163 0.68225181 -1.20964432 40.0
1.35836339 -0.97628635 -0.95135027 40.0
-1.34944284 1.10335946 -0.61306489 40.0
1.10242844 0.39389360 1.54125392 40.0
-1.32792974 -0.39063424 -0.35560456 40.0
0.55258524 -0.65646988 -1.09922266 40.0
1.38661373 -0.73853713 -0.14641362 40.0
-0.25634712 0.57141089 1.83638883 40.0
-1.12063444 1.02845240 1.38970208 40.0
1.15070760 0.59561133 1.37003899 40.0
-1.31687260 0.41673794 0.77098602 40.0
1.23800433 0.19085360 -0.62958348 40.0
-0.83046061 -0.20463908 1.89220309 40.0
1.38518405 0.53332329 -0.80072647 40.0
-1.14308476 -1.31224060 0.60200453 40.0
1.21828008 -0.39383951 -1.05828786 40.0
-0.59086078 1.13499486 -1.09343171 40.0
-1.37090147 0.69761473 0.61788756 40.0
1.08343744 0.62479198 1.53941929 40.0
1.31583238 1.06418240 -1.10620975 40.0
1.14058208 1.06698298 1.37215459 40.0
-0.52325475 1.42702556 1.19724786 40.0
0.48834163 -0.56753963 -1.10031056 40.0
1.37106848 0.44303906 -0.62946635 40.0
1.30435753 -1.28738832 0.06946813 40.0
-1.36425734 -1.01204216 -0.81100237 40.0
-0.30126268 1.49247909 0.53759778 40.0
0.44578892 -1.63483787 -0.06664247 40.0
1.05539787 1.35142887 0.48559311 40.0
0.23628412 -1.11910367 0.81912464 40.0
-1.33174026 0.90847069 0.77811390 40.0
-0.94538504 1.11854529 -1.19567847 40.0
-0.26092914 -0.04505812 -1.12228632 40.0
1.28452671 0.37670800 0.05188702 40.0
-1.22338772 -0.96397483 0.85391045 40.0
-0.56685299 1.08488882 1.47766602 40.0
-0.22380862 -1.45355546 -1.07529986 40.0
-0.24454275 -0.84490007 0.88675421 40.0
-0.78943777 -1.56304920 -0.41853565 40.0
0.25299680 0.42915094 1.89493799 40.0
-1.37991560 0.46190685 -0.80569774 40.0
1.35695267 1.15250051 -0.08762100 40.0
-1.04808462 0.19368908 -1.08123124 40.0
-0.09831692 -0.56813192 -1.13013697 40.0
-0.08115919 -0.06313554 2.03936744 40.0
0.25476056 1.04728973 1.52938175 40.0
-0.59075665 -0.33372951 -1.08990932 40.0
-1.20973849 -0.12195327 -1.06035423 40.0
-0.38845173 1.48681819 0.53710985 40.0
1.28787673 1.25211000 -0.25131395 40.0
-1.17138588 -1.24755442 0.67596865 40.0
0.07994103 -1.16410542 0.79272395 40.0
1.02460504 1.17809951 -1.06379867 40.0
-0.91740322 1.32456613 -0.89310825 40.0
-1.23775148 0.49604562 -1.05934310 40.0
0.55211413 0.17685154 1.97005951 40.0
-1.34842777 -0.46299672 -0.26595172 40.0
-1.35065567 -0.87355012 -0.95509082 40.0
-1.38981426 -1.01224089 -0.16609073 40.0
-0.97738290 -0.88895881 -1.57974482 40.0
1.30927730 0.03234607 -0.08892747 40.0
0.36740699 -1.41218853 0.52279800 40.0
0.69288856 -1.34053349 0.61176068 40.0
-0.66673326 1.42361999 0.77467024 40.0
-1.28783178 0.98980486 1.00684047 40.0
1.38327944 -0.86976576 0.65080619 40.0
1.39078486 0.46176210 -0.62932682 40.0
1.34074450 0.59731311 -0.95986784 40.0
-1.36705363 0.74002230 -0.47644258 40.0
1.36703241 -0.83878541 -0.68070364 40.0
-0.42874530 0.03627705 -1.10545337 40.0
1.37443697 0.90844876 -0.08824664 40.0
1.03070116 0.49681672 1.71075261 40.0
1.38770449 -1.04792082 0.60062337 40.0
-1.00416470 1.04616272 -1.42442524 40.0
0.25730497 0.67450118 1.78092921 40.0
1.27346766 0.74332803 -1.35379159 40.0
-0.57431287 0.90481716 -1.12715709 40.0
-0.16345666 1.45045841 0.85651290 40.0
-1.28216124 -1.19135821 0.69389743 40.0
-1.37434864 1.02452850 0.39131290 40.0
0.95305490 -0.65068501 -1.08232987 40.0
-0.67594481 1.43854892 -0.17506726 40.0
-1.38298106 -0.80388075 -0.09315633 40.0
-1.26900065 -1.34682906 0.25630859 40.0
0.74572897 -0.84051830 0.87570751 40.0
-0.45960456 0.55518693 -1.10351121 40.0
0.89407980 0.28510633 -1.08124661 40.0
-1.38051713 -0.63676822 0.20047522 40.0
-0.43062428 -0.33408469 -1.10411680 40.0
-1.30588615 -0.32490802 -0.96830630 40.0
-1.32412696 0.82637900 0.81503850 40.0
-1.27042007 -0.80585194 -1.40600979 40.0
0.21244824 -1.65139568 -0.02617560 40.0
0.09140162 0.48398137 -1.13483036 40.0
0.65228790 -1.38850296 -1.04984486 40.0
-1.05146670 0.03388071 -1.08122742 40.0
-0.26966777 1.45155215 0.78075415 40.0
1.19853127 -1.40735817 0.19283772 40.0
0.59662819 -1.57730663 0.17819284 40.0
-0.56431752 0.77343547 -1.11659014 40.0
1.22445190 1.28724694 -0.60628784 40.0
0.95611209 -1.30893946 -1.05390930 40.0
-0.24624591 0.34769684 1.93010843 40.0
-0.65995884 1.42534900 0.94439602 40.0
1.36525762 1.02452850 -0.47278434 40.0
-1.36839437 -0.90789187 -0.68834484 40.0
1.21001327 1.28092694 1.10399961 40.0
-0.84987885 -1.39694011 0.52154410 40.0
0.06287137 1.41758859 -0.62290537 40.0
-0.54950809 0.66728485 -1.10131729 40.0
-0.91934711 -0.13542278 1.91544974 40.0
-0.93474746 0.41847917 1.81915009 40.0
0.72354662 -0.41682118 1.58333457 40.0
0.58736354 -0.59754181 1.25580382 40.0
1.37425590 -0.46365657 0.40031880 40.0
1.34886515 -1.18045723 0.09120346 40.0
0.62869096 -1.47062004 0.41763386 40.0
1.31948948 -0.32420594 -0.80343950 40.0
0.05778796 -1.59027219 -0.79036248 40.0
0.79790968 -0.74943203 -1.10838509 40.0
1.33197737 -0.32362238 -0.26382485 40.0
1.30524158 1.20448446 -0.77685100 40.0
1.26258981 0.87197071 1.05685377 40.0
-0.59075665 -0.33372951 -1.08990932 40.0
1.37630248 0.78326917 -0.08849210 40.0
-0.72094166 0.67015117 1.74757171 40.0
1.10039544 0.31537145 1.55298615 40.0
1.21096969 1.29714715 0.64095461 40.0
-0.87099206 1.24168456 -1.04451907 40.0
-0.71266162 -0.34168404 1.71916056 40.0
-0.25634712 0.57141089 1.83638883 40.0
0.43991777 0.46012414 -1.10520983 40.0
1.08843315 -1.45825493 -0.61941952 40.0
-1.36705363 0.74002230 -0.47644258 40.0
0.41618529 -0.34300333 1.73771608 40.0
0.25648797 -0.41875398 1.61353874 40.0
1.03584695 -0.72465146 -1.20252967 40.0
-0.87216496 0.81209004 -1.23821628 40.0
-0.08451592 0.67490447 1.79208302 40.0
0.23379251 -1.33506989 -1.09425700 40.0
0.54861867 -1.14052081 -1.08786798 40.0
0.26416996 -0.12320355 -1.12218809 40.0
-1.36473918 0.78328288 0.60995150 40.0
-0.84086782 1.11260200 1.44272864 40.0
1.02983069 -1.32140934 0.61154103 40.0
0.47334707 -1.57524967 -0.82529587 40.0
1.33914161 0.82635278 -0.93631417 40.0
1.38692284 -0.93808711 0.63678020 40.0
1.34753251 1.10354960 0.71293449 40.0
-0.58563542 -0.79763329 -1.11481190 40.0
1.30288053 -1.28403425 0.43365464 40.0
0.38187769 -1.21536398 0.74633354 40.0
0.93986046 1.39028049 0.83647299 40.0
-1.15117574 0.75709987 1.36116588 40.0
-1.37433875 0.74002230 -0.25465074 40.0
-1.19746184 -1.40240741 -0.50186104 40.0
-0.89298433 -0.33119601 -1.07991171 40.0
1.37757730 -0.90789187 -0.57879847 40.0
1.37966132 -0.97628635 -0.58588964 40.0
-1.36132765 0.90844876 -0.47444704 40.0
-0.86552817 1.16156232 -1.07319283 40.0
-0.37281954 -1.58121502 -0.90316319 40.0
0.25611034 0.48540983 1.87440050 40.0
0.95646870 0.50550169 1.78867269 40.0
-0.18181366 1.43253219 0.06364711 40.0
-0.84426516 0.90934348 1.57672417 40.0
0.93056309 -1.50104237 -0.89020324 40.0
-0.72063637 -0.41682118 1.58333457 40.0
-0.81681615 0.25503644 1.92162681 40.0
1.21047688 -0.04617605 -1.06048000 40.0
-0.76482129 0.90342385 -1.14462185 40.0
-0.70877784 0.42621091 1.85873592 40.0
1.02419031 0.46518087 1.71874964 40.0
-1.33768773 -0.04632622 0.59064686 40.0
1.09746957 0.56967700 1.54167712 40.0
-0.56940705 0.73785299 1.71681178 40.0
-0.22558238 -1.64023376 -0.29923424 40.0
1.14234591 0.67734963 -1.17733181 40.0
1.38632631 -0.94195008 -0.40502381 40.0
-1.05132008 1.12630713 1.40405691 40.0
0.08680391 0.74001509 1.75340974 40.0
-0.68997830 -1.34053349 0.61176068 40.0
1.19339180 0.47923943 1.30289054 40.0
-1.12328601 -0.84673494 -1.56591952 40.0
0.94740945 1.02372348 1.50091374 40.0
1.26555383 -1.34622800 -0.21698822 40.0
-1.04395294 -0.70299178 -1.12887967 40.0
1.34528267 -0.04636613 0.72243541 40.0
0.57239538 0.96277952 1.56253314 40.0
1.35151613 -0.80388075 -0.94823235 40.0
1.02989483 -1.47621155 -0.06642450 40.0
0.95389825 0.65871137 1.70938945 40.0
-0.11066867 -1.14597309 -1.11423624 40.0
0.78940105 1.40883243 0.84640127 40.0
1.37488139 0.82635278 0.05207336 40.0
-0.61916101 -1.59303916 -0.19321994 40.0
0.45345595 1.25739169 -1.06813788 40.0
0.63258404 1.41730177 1.19605720 40.0
-0.76482129 0.90342385 -1.14462185 40.0
-0.35976064 1.13346267 -1.10983729 40.0
0.81972605 0.25503644 1.92162681 40.0
-1.25848126 0.37636849 -0.47864822 40.0
-0.38393459 1.45210850 -0.33524269 40.0
0.04787932 -1.63511062 0.04755095 40.0
-0.56865352 0.91944396 1.58415508 40.0
0.65228790 -1.38850296 -1.04984486 40.0
-1.09849775 -0.00535350 1.60191095 40.0
1.31342745 -0.32416061 -0.47563583 40.0
-0.08351208 1.08796585 1.50738752 40.0
0.51066160 -1.61852634 -0.12166311 40.0
0.41608259 -1.53880727 0.30138299 40.0
0.77806097 1.14839017 -1.07868171 40.0
-0.98509485 -0.49848488 1.37161946 40.0
-0.93385667 0.77063036 1.65808225 40.0
0.59084511 1.07807159 -1.10388315 40.0
1.36915851 -0.87355012 -0.68610573 40.0
-0.37652254 -1.39514947 -1.07158363 40.0
0.93075311 1.23222148 1.35038638 40.0
-0.08690625 0.28982800 -1.13539875 40.0
0.43165523 0.03627705 -1.10545337 40.0
1.32632160 -0.39082772 -0.80287337 40.0
1.30328810 -0.12109916 -0.35511267 40.0
-0.26966777 1.45155215 0.78075415 40.0
1.27461553 0.41481972 0.99685270 40.0
-1.38727462 -0.94195008 -0.26669690 40.0
-1.32647431 0.10974623 0.72785252 40.0
-1.36393225 1.10354960 0.51002783 40.0
-1.05840194 -0.56136942 -1.07608557 40.0
0.26658383 1.45524049 0.95738626 40.0
0.24646415 0.17739655 2.00095010 40.0
1.35490537 -0.63714850 -0.64017874 40.0
0.53592497 1.20667350 1.39337015 40.0
-1.13156903 -0.81146348 -1.51757967 40.0
-1.33714485 0.42081362 0.59602165 40.0
0.08853202 -0.70456517 1.07528019 40.0
1.32594681 0.73910284 0.83648533 40.0
-1.14659309 -0.72060317 -1.21159208 40.0
0.23404214 1.32866240 -0.99046183 40.0
-0.29906633 1.43149114 0.06774070 40.0
0.55816394 0.34679466 1.90062344 40.0
0.27551112 -1.58284640 -0.84376699 40.0
0.90362364 -1.06193817 0.83346081 40.0
0.87308037 0.76909196 -1.20968127 40.0
1.04647851 -1.47342718 -0.17461225 40.0
-1.35196352 1.15250051 0.50336730 40.0
-0.99067789 -0.06686042 1.84856296 40.0
1.16736603 -0.50892216 1.15779483 40.0
-0.99946678 1.10787368 -1.24063659 40.0
0.04385823 -1.65491796 -0.08477270 40.0
-1.34067178 0.42234758 0.43879184 40.0
1.02778697 -1.47716188 0.02489588 40.0
0.57088590 0.87479049 1.61081207 40.0
0.29425037 -1.64916730 -0.02186049 40.0
0.12098171 0.98884356 -1.13727641 40.0
-0.69033241 0.17590335 1.96210289 40.0
0.88147986 -1.26626670 0.68525112 40.0
0.91758120 -1.50395274 -0.95730633 40.0
-0.56689012 -1.10321689 -1.09628582 40.0
-0.91756481 -1.44990635 0.41711265 40.0
1.32129884 -1.05507553 0.79282165 40.0
-1.37470126 -1.05193317 -0.60072219 40.0
0.57231730 0.73785299 1.71681178 40.0
-1.32476807 -1.22534764 0.48305613 40.0
-1.03481138 1.04901099 1.45578027 40.0
1.36573160 0.86819273 0.59600967 40.0
-1.37175143 0.86818278 0.43441722 40.0
1.38722527 -1.01224089 -0.41614518 40.0
-1.33479917 1.06290352 -0.91806811 40.0
0.58086586 0.57003945 1.80876303 40.0
1.37379873 0.82635278 -0.08841091 40.0
-0.77962363 -0.79662389 -1.12400961 40.0
-1.10113490 1.11546862 -1.16717339 40.0
0.08962180 -0.04503822 -1.13535416 40.0
0.95305490 -0.65068501 -1.08232987 40.0
1.35137641 0.69959289 -0.93449581 40.0
0.36267054 1.13346267 -1.10983729 40.0
-0.74032533 -0.12296922 -1.08310902 40.0
-1.38597167 0.44338238 0.05189132 40.0
-1.37715828 0.74002230 -0.08857031 40.0
0.94740945 1.02372348 1.50091374 40.0
-0.59131759 -0.71368837 -1.10150099 40.0
1.39010847 -0.76989722 0.29077032 40.0
-1.37447250 0.78326917 0.05204399 40.0
0.86316103 -1.07231104 -1.17359376 40.0
0.90637845 -0.76666003 -1.18203104 40.0
1.34936512 -1.18045723 0.35937315 40.0
-0.39677382 1.47735775 0.62695259 40.0
-0.67424697 -1.57204640 -0.57517409 40.0
-1.38954139 -0.97628635 -0.15877166 40.0
0.91290218 -0.74699283 -1.15361595 40.0
1.03953612 -1.44520390 0.35441971 40.0
0.19074592 1.39138484 -0.78934878 40.0
0.24289559 -0.87983352 0.88171017 40.0
0.94622409 1.29951441 -0.95254821 40.0
-1.36816573 1.10354960 0.05230742 40.0
0.38284802 1.32769263 -0.97502327 40.0
1.02778697 -1.47716188 0.02489588 40.0
-1.25065494 -0.72400802 -1.23495793 40.0
1.23730612 0.28865901 -0.47865477 40.0
1.41387582 0.53120786 0.24975060 40.0
-0.69572711 1.29324806 -1.01134944 40.0
-0.90490812 -0.89491636 -1.45159817 40.0
-0.08492923 -0.50757521 1.45452595 40.0
-0.89686060 -1.10649967 0.80928618 40.0
0.20841788 -1.47864401 0.41695848 40.0
-0.25768581 -0.70423394 1.07005727 40.0
0.25535932 1.00679255 1.55983233 40.0
-0.04506890 -1.64214468 -0.31358913 40.0
0.23609655 1.26022971 1.37479973 40.0
0.27257803 1.45155215 0.78075415 40.0
-1.40662158 0.53129786 -0.25534037 40.0
1.18480229 -1.40050054 -0.87121260 40.0
0.04787932 -1.63511062 0.04755095 40.0
0.08945562 0.11749670 -1.13537884 40.0
0.30197659 1.43149114 0.06774070 40.0
1.37978327 -1.01224089 -0.59262669 40.0
-1.39063728 -1.01224089 -0.01390624 40.0
-1.36898327 0.94746244 -0.35170367 40.0
-0.56275845 -0.27355510 1.83164632 40.0
-1.34860730 1.15250051 -0.34957942 40.0
-1.07144272 1.34765482 0.38124508 40.0
-0.45506567 1.44745505 0.95002300 40.0
0.99455523 0.88668609 -1.58092475 40.0
1.24952269 0.10947614 -0.62958181 40.0
-0.11397726 0.73929948 -1.14046383 40.0
-1.25632274 -1.34592915 -0.47822502 40.0
-0.66673326 1.42361999 0.77467024 40.0
0.87882066 -0.82789934 -1.23552930 40.0
-0.34280190 0.69466162 -1.11892390 40.0
-1.01317608 -0.27133429 1.69236290 40.0
-0.42348039 -0.70380658 1.06331968 40.0
-0.69572711 1.29324806 -1.01134944 40.0
0.55054897 -1.53347886 0.30212650 40.0
0.48810092 1.35006094 -0.90333194 40.0
-1.34435213 -1.17665195 0.51983595 40.0
0.37682173 -1.61304569 -0.42781940 40.0
-1.37285745 -0.63635218 -0.13066845 40.0
-0.06079201 -1.55950201 -1.04949594 40.0
1.13421738 1.03528261 -1.43308198 40.0
0.76773155 0.90342385 -1.14462185 40.0
0.56885999 -1.12089670 -1.09185243 40.0
-1.35732853 0.69940662 -0.77084512 40.0
1.28787673 1.25211000 -0.25131395 40.0
0.71862334 0.73485321 1.71017563 40.0
0.23345053 -1.21614313 0.74962264 40.0
-0.65733105 -1.17335987 -1.07080066 40.0
-1.38999605 -0.73868829 0.43980062 40.0
-1.33835208 -0.25852060 -0.10729456 40.0
-1.37241364 1.06277871 0.23666945 40.0
-0.37993774 1.32769263 -0.97502327 40.0
-0.93138111 -1.50060773 -0.81078929 40.0
-1.35622871 0.78326917 -0.61829340 40.0
0.44297957 -1.61868203 -0.35475779 40.0
1.29812372 -0.12161095 -0.96982735 40.0
0.56257945 1.43232763 0.84538311 40.0
-0.71172446 -1.06829524 0.83397192 40.0
-0.25439507 0.67450118 1.78092921 40.0
-1.36507154 0.90846550 0.57568842 40.0
1.34358203 0.42234758 0.43879184 40.0
1.39457810 0.53170294 -0.62785643 40.0
-0.22303230 1.48498857 0.62961453 40.0
-0.11271452 1.16941929 -1.11213839 40.0
-1.36473918 0.78328288 0.60995150 40.0
0.41740775 0.92085987 1.59471500 40.0
1.34895647 0.82635278 -0.76328957 40.0
1.34228396 0.94746244 -0.93168980 40.0
0.57504249 -0.41804850 1.59013009 40.0
1.34710813 0.53484315 -0.96451372 40.0
0.72507936 -0.91025752 0.86698300 40.0
0.59246516 0.28884938 -1.09125280 40.0
-1.20563233 -0.72063088 0.91031069 40.0
-1.34147739 1.10259843 -0.76261532 40.0
-0.30231038 -1.55770099 -1.02119768 40.0
1.36996377 0.74002230 -0.47644258 40.0
1.32216680 -0.12062441 -0.17984805 40.0
-1.37427151 1.02452850 0.23741408 40.0
0.99011052 -1.12895846 -1.10454917 40.0
-1.20756674 -0.04617605 -1.06048000 40.0
1.34700763 0.52817667 0.82075423 40.0
-0.34207156 0.73837584 -1.12718034 40.0
0.25787482 -1.62651563 -0.36638147 40.0
-0.92767739 1.18243563 1.38718259 40.0
-1.41001320 0.49030513 -0.17524837 40.0
-1.02779126 0.49681672 1.71075261 40.0
0.77733707 0.98714882 -1.12374711 40.0
0.05319666 1.46691549 0.71672010 40.0
0.58124453 -0.50645751 1.42525828 40.0
-1.28813064 -0.04638024 -0.80593610 40.0
1.36830592 -1.13824034 0.23477232 40.0
-0.40192857 -0.84437615 0.88198930 40.0
-1.35711253 -0.25897139 0.43058556 40.0
-0.40192857 -0.84437615 0.88198930 40.0
-1.10514605 0.50213665 1.54424489 40.0
0.82722944 1.15184534 1.41590846 40.0
-1.35626137 -1.01199663 -0.95001084 40.0
-0.17003354 1.45980394 0.24677208 40.0
0.47682682 -1.59503925 -0.57651144 40.0
1.16098177 1.14610350 1.32636321 40.0
-0.85990876 1.35199726 1.25863409 40.0
1.30266905 1.06653643 1.00108480 40.0
-1.37524474 -0.80015677 0.67345750 40.0
-0.08177790 0.34792608 1.94250715 40.0
-0.58902353 -0.70292962 1.05398381 40.0
-0.18181366 1.43253219 0.06364711 40.0
-1.31292248 1.06418240 -1.10620975 40.0
-0.91807723 -0.87013865 0.87023014 40.0
-1.31349933 -1.22901666 -0.54118103 40.0
-0.41400322 0.87614340 1.62161934 40.0
0.45345595 1.25739169 -1.06813788 40.0
0.66286874 1.42534900 0.94439602 40.0
-0.49527189 1.42689037 -0.47708786 40.0
1.32632160 -0.39082772 -0.80287337 40.0
-1.14536023 0.71554708 -1.35215008 40.0
1.38144541 -0.80388075 -0.36242241 40.0
0.90071052 1.38857996 0.07302645 40.0
1.37347317 -0.83878541 -0.56828159 40.0
-1.37586224 -0.94195008 -0.58148134 40.0
-0.08389400 0.74001509 1.75340974 40.0
1.23470569 1.28950596 -0.08243329 40.0
1.23786736 0.44431853 -1.06027734 40.0
-0.68180948 0.61264658 -1.08840787 40.0
1.37815499 -0.80015677 0.67345750 40.0
0.58752120 1.45638859 0.62671274 40.0
-0.56639975 -1.07734847 -1.10207880 40.0
-1.28002119 1.25420916 0.66260427 40.0
-1.28606570 -0.74265105 -1.29326582 40.0
-0.65733105 -1.17335987 -1.07080066 40.0
1.38621211 -0.83878541 0.18229541 40.0
-0.42155686 1.39950144 -0.68163627 40.0
0.43225110 -0.12317552 -1.10533202 40.0
0.41691136 0.78820574 1.69173944 40.0
0.76773155 0.90342385 -1.14462185 40.0
0.25548804 0.96497655 1.58517444 40.0
-0.89440787 -1.13510334 -1.09340036 40.0
0.59991926 -0.75037467 -1.10932791 40.0
-0.84536177 0.72958320 1.70273077 40.0
-0.56041235 1.38291514 -0.75857449 40.0
-0.25008690 0.42915094 1.89493799 40.0
1.32439172 1.02480924 -1.13943529 40.0
-1.30954349 -1.22901666 -0.63471019 40.0
-1.32906735 -0.32362238 -0.26382485 40.0
-1.39842522 0.58953691 -0.25517780 40.0
-0.58534765 1.03329384 -1.10226715 40.0
0.65667343 1.31172061 1.30662680 40.0
-1.26192307 1.25062215 -0.76985037 40.0
-0.79165053 -1.31984019 -1.05390930 40.0
0.37418321 1.45596790 1.08938622 40.0
1.38692284 -0.93808711 0.63678020 40.0
-1.32493699 1.20619690 -0.25169992 40.0
1.19785833 -1.40698254 0.10257383 40.0
-1.22163916 -1.04728317 0.82588166 40.0
-0.97631204 -1.19988728 -1.05591607 40.0
1.34627867 -0.32383519 -0.10996719 40.0
-0.35657400 -0.79812509 -1.13177121 40.0
-0.17447008 1.43561459 -0.50065875 40.0
1.36842608 -0.25911200 0.70230347 40.0
-0.54989141 0.25847331 1.93891644 40.0
1.38295102 -0.87355012 -0.39811260 40.0
-1.38298106 -0.80388075 -0.09315633 40.0
-0.57988411 1.43719780 -0.33016387 40.0
-1.38790572 -0.73867506 0.18221533 40.0
-0.84242833 -0.34001231 1.70994329 40.0
1.20037174 -1.40240741 -0.50186104 40.0
1.22454917 -1.04728317 0.82588166 40.0
1.24665952 0.28911790 -0.35473269 40.0
-0.92418051 0.89384454 -1.45336032 40.0
0.88935834 -1.20235944 0.74160683 40.0
-1.32148159 1.02480924 -1.13943529 40.0
1.26291502 -1.34607792 -0.32446539 40.0
-1.36816573 1.10354960 0.05230742 40.0
-1.28253329 1.25211000 -0.34836051 40.0
-0.62704021 -1.54084063 -0.99828696 40.0
-1.37382722 -0.54889822 0.20945567 40.0
0.72936326 0.56765342 1.80164754 40.0
0.25611034 0.48540983 1.87440050 40.0
-0.20801777 -1.64805615 -0.21425198 40.0
-0.71476668 0.91578019 1.57821047 40.0
1.23375070 -0.82504934 0.87022793 40.0
1.00537503 1.00744355 -1.49089313 40.0
-0.89780027 1.38857996 0.07302645 40.0
-1.11878133 -0.21851835 1.52195573 40.0
-0.61361760 -1.59519219 -0.11026354 40.0
-1.31984460 -0.39079109 -0.47537673 40.0
1.29192448 -1.27037120 0.55210835 40.0
-0.26043418 0.11739025 -1.12231088 40.0
-1.21319592 -0.19320621 -1.06009483 40.0
-1.36518419 -0.63615823 -0.28858960 40.0
0.24650872 0.09636522 2.02437639 40.0
0.42446712 1.39950144 -0.68163627 40.0
-0.69040871 0.01439908 1.99553823 40.0
0.82944071 -1.20976698 -1.05627811 40.0
-1.36044383 -0.32428542 0.42235947 40.0
-0.06079201 -1.55950201 -1.04949594 40.0
1.30879629 -0.32490802 -0.96830630 40.0
-1.32647431 0.10974623 0.72785252 40.0
1.37047803 -1.03255427 0.73796415 40.0
1.28730929 -1.28719854 -0.64111477 40.0
0.18258713 -1.54187000 0.29849541 40.0
-0.57061911 1.46571159 0.53698790 40.0
-0.15252812 1.46619129 0.71446377 40.0
0.59190816 -0.12311806 -1.09111333 40.0
-1.31929111 -0.32398647 -0.35577032 40.0
1.33987617 -0.39027441 -0.26377994 40.0
0.94157505 -1.51459920 -0.55729234 40.0
0.99814773 0.75864738 1.62421548 40.0
0.66851634 -1.58589828 -0.27879247 40.0
0.79403585 -1.53362560 -0.95464981 40.0
-0.34576243 1.46317852 0.70909792 40.0
-1.26758027 -1.34661245 0.04681680 40.0
1.34192526 0.78326917 -0.93530834 40.0
0.97572935 -0.76504725 0.91225457 40.0
1.10404503 1.11546862 -1.16717339 40.0
-1.31604278 -1.22901666 -0.45611027 40.0
-0.05563014 -1.58360875 -1.00618660 40.0
-0.06483663 1.37661099 -0.87895876 40.0
1.33034563 0.03188798 0.58975405 40.0
-1.20175266 0.37259072 1.24961257 40.0
0.63258404 1.41730177 1.19605720 40.0
0.25548804 0.96497655 1.58517444 40.0
1.35767293 -1.05071163 -0.94981289 40.0
1.36269510 0.86817122 -0.47495705 40.0
1.36828053 1.06277871 -0.35058618 40.0
0.90784514 -1.03500962 -1.34366858 40.0
-1.36034751 -0.63648105 -0.38198894 40.0
0.87674415 0.85660809 -1.25729477 40.0
1.19861794 -0.59691489 1.03476226 40.0
0.06303720 1.43333948 0.06047346 40.0
-0.56388640 0.42807779 1.86615074 40.0
-1.34740019 1.02440870 -0.75799352 40.0
-1.35198605 -0.54859072 -0.36746550 40.0
1.24358308 0.19121300 -0.47865009 40.0
-0.88358736 1.39873815 0.90200937 40.0
-1.35368824 -0.73871428 -0.93765563 40.0
0.24646415 0.17739655 2.00095010 40.0
0.46971005 1.45034218 1.08602118 40.0
-0.07967428 -0.88025838 0.88536185 40.0
0.86171961 0.56346148 1.79232204 40.0
0.89651221 1.07258105 -1.19722676 40.0
-1.24437821 0.74196100 1.11321664 40.0
-1.38635981 -1.01224089 -0.34785798 40.0
0.71168774 0.42621091 1.85873592 40.0
1.35120022 -0.83878541 -0.95276803 40.0
0.04745638 1.48642743 0.63319886 40.0
-0.11684615 -0.83260769 -1.15156519 40.0
0.27257803 1.45155215 0.78075415 40.0
-0.47391656 -1.59503925 -0.57651144 40.0
-1.36528242 -0.92271084 0.77240640 40.0
-1.25355053 -1.33151686 0.47827029 40.0
1.35235310 1.10335946 -0.61306489 40.0
-0.54920387 0.17685154 1.97005951 40.0
-0.35969326 1.10885811 -1.11774123 40.0
0.68471980 0.61264658 -1.08840787 40.0
0.95305490 -0.65068501 -1.08232987 40.0
-0.34576243 1.46317852 0.70909792 40.0
1.37162161 -1.05173445 -0.70461911 40.0
1.00691807 1.12616587 -1.15847695 40.0
0.11357857 -1.14597309 -1.11423624 40.0
0.81931096 0.61013913 -1.08149254 40.0
-1.26178932 0.78563452 -1.41074693 40.0
-1.27035022 0.37725466 -0.17534697 40.0
0.93986046 1.39028049 0.83647299 40.0
1.29104054 -0.04638024 -0.80593610 40.0
1.38658082 0.69854099 0.05199142 40.0
-0.71253395 1.40671098 -0.47588074 40.0
-0.98011416 -1.05962634 -1.35770237 40.0
-1.33783460 0.59731311 -0.95986784 40.0
-1.29892969 -0.19190077 -0.47675520 40.0
0.43361083 -0.40334344 -1.10327411 40.0
-1.29521382 -0.12161095 -0.96982735 40.0
1.38343453 -0.94195008 -0.48579255 40.0
1.19887578 0.42624614 1.27117765 40.0
1.29293084 0.03255706 -0.25559932 40.0
1.34602487 0.65746790 -0.94694686 40.0
0.71682537 0.87129003 1.60472858 40.0
0.11719919 -0.97617483 -1.15148377 40.0
0.41965401 -0.41852286 1.60095227 40.0
1.38716388 -0.97628635 -0.40940422 40.0
0.39602816 1.45858288 -0.07858797 40.0
0.23351258 1.31977904 1.32870078 40.0
1.40550947 0.58934796 0.44215688 40.0
-0.35657400 -0.79812509 -1.13177121 40.0
-1.04246449 1.36801326 -0.03894730 40.0
-1.32341731 -0.04619813 0.05082452 40.0
-1.38913894 -1.05193317 0.12949388 40.0
-0.57004642 -1.58528566 -0.57517409 40.0
0.58026993 0.61201096 1.78612411 40.0
0.94246227 1.05912185 -1.33289611 40.0
-0.84821886 0.47850609 1.82933652 40.0
0.38284802 1.32769263 -0.97502327 40.0
0.93986046 1.39028049 0.83647299 40.0
0.66396886 1.25251353 1.35157549 40.0
-1.38920605 -1.05191612 0.26670495 40.0
0.69783288 -1.27394986 0.68556768 40.0
-0.49424344 1.45294750 -0.07586315 40.0
-1.38954139 -0.97628635 -0.15877166 40.0
0.57794166 -1.56460667 -0.95652634 40.0
-1.02560782 -1.47819126 0.10070497 40.0
0.43185383 1.47856462 0.42155048 40.0
-0.05410280 1.45337868 0.78725749 40.0
-1.26015842 0.37469807 -0.62958086 40.0
-0.07745263 -1.11965585 0.82225394 40.0
1.34627867 -0.32383519 -0.10996719 40.0
1.26339960 0.28404284 -0.80607325 40.0
1.32632160 -0.39082772 -0.80287337 40.0
-0.85214794 0.66529846 1.73856878 40.0
-1.27811372 -0.04631444 -0.47847870 40.0
-1.13123631 -0.35065037 1.38072610 40.0
-0.99164534 0.88668609 -1.58092475 40.0
-1.28820348 -1.28723168 -0.54940128 40.0
1.10156584 0.15121526 1.58603394 40.0
-1.34504056 0.86817122 -0.76226807 40.0
1.31471944 -0.71301204 -1.11043048 40.0
1.14827013 0.71554708 -1.35215008 40.0
1.35137641 0.69959289 -0.93449581 40.0
-1.40708339 0.46113065 0.43875065 40.0
-1.38773346 0.65140235 -0.25499502 40.0
-1.33842731 -1.18045723 -0.37944803 40.0
-0.27161661 -1.58333325 -0.91564077 40.0
0.06044717 1.46264482 -0.09361527 40.0
-1.01906300 -0.75740635 -1.36621606 40.0
0.71671158 0.82662988 1.63810778 40.0
0.23956062 -0.98810673 0.87158996 40.0
-1.38196206 0.44348279 -0.17532526 40.0
-1.28711796 0.28203896 0.94530189 40.0
-0.74039519 -1.52828920 -0.99827856 40.0
1.35231853 -0.32417360 0.02755279 40.0
-1.32485545 -0.71973610 0.82176822 40.0
-1.25103092 0.28955418 -0.25560194 40.0
-0.54086500 -1.02738321 0.85376298 40.0
1.38052714 -1.09094346 0.57805550 40.0
-1.38895905 -0.70103043 0.34944490 40.0
-0.26218334 -0.26635846 -1.12156999 40.0
0.69331861 0.01439908 1.99553823 40.0
1.35361302 -0.38745138 0.82133943 40.0
-0.25099054 -0.80971909 0.90102452 40.0
1.40214705 0.53129786 -0.47804633 40.0
-0.56856006 -0.86794317 -1.12461054 40.0
-1.32430112 -0.04261943 0.90323484 40.0
-0.11148138 -0.65717071 -1.12902784 40.0
0.96083534 0.59895402 1.73964500 40.0
0.98764712 -1.10661721 -1.17983866 40.0
0.41795763 0.73901230 1.72860050 40.0
-1.38727462 -0.94195008 -0.26669690 40.0
0.66396886 1.25251353 1.35157549 40.0
-0.51211226 1.42971122 -0.02606203 40.0
-1.22269642 -0.89312661 0.86103868 40.0
1.32375336 0.03567855 0.90905869 40.0
1.38661373 -0.73853713 -0.14641362 40.0
-1.36468863 0.65276819 -0.77994215 40.0
-1.36328292 0.78326917 -0.47596025 40.0
0.85505784 0.66529846 1.73856878 40.0
0.57765388 0.51676786 1.83547318 40.0
0.97839886 -0.92396951 -1.57852995 40.0
1.36525762 1.02452850 -0.47278434 40.0
-0.11531988 0.81773978 -1.15312648 40.0
0.12409131 -0.75119013 -1.13932824 40.0
-0.26218334 -0.26635846 -1.12156999 40.0
1.28474033 -1.04837823 -1.28420222 40.0
1.09760082 1.09872532 -1.24591970 40.0
-0.35060978 -0.83220822 -1.13836324 40.0
-1.19619370 -1.40578246 -0.11613863 40.0
0.51222563 -1.41031182 0.52207506 40.0
-0.42010048 -0.50705683 1.43537962 40.0
0.84517843 0.77821201 1.66940176 40.0
1.31978285 0.41673794 0.77098602 40.0
0.91620076 0.54826218 -1.07930827 40.0
1.01589561 0.69861335 -1.25209975 40.0
-1.36839437 -0.90789187 -0.68834484 40.0
-0.88920534 -0.04551244 -1.08120358 40.0
1.02392888 -0.33847901 1.59181249 40.0
-1.08920681 -0.69126290 0.98069388 40.0
1.06053555 -1.19249344 0.74160683 40.0
0.40321735 0.17721799 1.98419368 40.0
1.36745429 0.98604149 -0.47336695 40.0
0.08597836 0.42942345 1.90704298 40.0
-1.10244656 1.34047115 -0.22157517 40.0
0.04437994 -1.64997995 -0.22696550 40.0
-1.26604366 0.03184293 -0.47864878 40.0
0.71682537 0.87129003 1.60472858 40.0
-0.67943096 -1.55170596 -0.95677274 40.0
-1.36709774 0.86817122 -0.25401145 40.0
-1.23179543 1.28950596 -0.08243329 40.0
0.08961075 0.03642197 -1.13537884 40.0
-0.75352615 0.45737717 -1.08298874 40.0
0.70557624 -0.20543224 1.90165949 40.0
1.33870649 -1.16143119 0.65283012 40.0
-0.08389400 0.74001509 1.75340974 40.0
-1.28606570 -0.74265105 -1.29326582 40.0
1.28787673 1.25211000 -0.25131395 40.0
1.33770907 1.06290352 -0.91806811 40.0
0.74544472 -0.33281052 -1.08191133 40.0
-1.18163860 0.50753307 1.32015622 40.0
1.34613431 -0.55231565 -0.79980654 40.0
-1.38401294 -0.93808711 0.63678020 40.0
1.36703956 1.10354960 -0.25251508 40.0
0.25431696 1.08734262 1.49858892 40.0
0.65228790 -1.38850296 -1.04984486 40.0
0.38701710 1.46481800 -0.17912886 40.0
0.59185606 -0.73586595 0.99015969 40.0
-0.38393459 1.45210850 -0.33524269 40.0
1.37978327 -1.01224089 -0.59262669 40.0
-0.33791962 -1.47768438 0.41724959 40.0
-1.05747294 1.36354852 0.06900863 40.0
-0.86552817 1.16156232 -1.07319283 40.0
0.08677252 1.00737286 1.56914163 40.0
0.43676004 0.37224060 -1.10545135 40.0
-0.79970694 -0.56508350 -1.07815993 40.0
-0.94188708 0.98407096 1.53056574 40.0
1.28250265 0.11003086 -0.97014880 40.0
-0.26966777 1.45155215 0.78075415 40.0
-1.33474648 -1.09184980 -0.95868427 40.0
-0.57061911 1.46571159 0.53698790 40.0
0.27532354 -1.61520958 -0.43589431 40.0
-1.10464287 -0.82899469 0.87514174 40.0
0.36740699 -1.41218853 0.52279800 40.0
-0.64937800 -1.38850296 -1.04984486 40.0
1.39368808 -1.01214814 0.43671623 40.0
-0.16714576 -1.60972035 -0.52111644 40.0
1.37944806 -0.63666683 0.00968973 40.0
1.12809730 -0.79454756 0.88397551 40.0
-0.37391183 -1.61304569 -0.42781940 40.0
0.41795763 0.73901230 1.72860050 40.0
1.37146044 -0.70082289 -0.39161056 40.0
-1.03192580 0.54854459 1.68918455 40.0
-1.36044383 -0.32428542 0.42235947 40.0
-0.95225608 -0.76247740 -1.29222143 40.0
-0.93691278 -1.50978816 -0.64592808 40.0
-1.35833907 -1.13824141 -0.37342253 40.0
-1.35950840 -0.87355012 -0.80386102 40.0
0.04469126 -1.65332329 -0.03525671 40.0
1.30927193 -0.19196305 -0.80464685 40.0
-0.66884261 -1.58425856 -0.42213702 40.0
0.31147695 1.48299241 0.62791127 40.0
1.33072782 1.20619690 -0.08745655 40.0
-1.29213798 0.37404570 0.59403473 40.0
0.98293489 -1.02811301 -1.43749535 40.0
-0.41990614 -0.77297378 0.93551809 40.0
0.35930848 1.03169155 -1.11876893 40.0
-1.28778219 1.25211000 -0.08731061 40.0
0.42099413 0.67398095 1.76654112 40.0
0.38284802 1.32769263 -0.97502327 40.0
1.35856736 1.15250051 0.23512818 40.0
1.32951188 0.86819953 0.80115175 40.0
-1.11163199 -1.07882547 -1.27545738 40.0
0.90746605 0.42239556 -1.08113468 40.0
-0.73799348 0.11624191 -1.08322883 40.0
-1.04246449 1.36801326 -0.03894730 40.0
-0.93319196 0.70321351 -1.20663583 40.0
-1.37716269 0.64970404 0.61874485 40.0
-1.38131678 -0.73844290 -0.22947012 40.0
1.39290631 -0.73868829 0.43980062 40.0
-1.31612539 1.20661676 0.68325669 40.0
1.09191144 1.28714168 -0.93739480 40.0
-1.37080538 1.06277871 -0.08787713 40.0
-0.25357771 -0.41875398 1.61353874 40.0
0.74661618 1.16612828 -1.07112992 40.0
-1.35622871 0.78326917 -0.61829340 40.0
-0.25721830 -0.59862459 1.27459276 40.0
0.09004331 -0.26645645 -1.13463187 40.0
-1.32870388 1.15061903 -0.77225655 40.0
1.38282585 0.46190685 -0.80569774 40.0
-0.05470404 -1.58467829 -0.86863840 40.0
1.27354038 1.25181246 -0.61147290 40.0
1.06049025 -0.47165701 -1.07788587 40.0
1.08728945 1.35145247 -0.59096378 40.0
-0.08774677 0.37279564 -1.13537705 40.0
0.42375997 0.61299241 1.79855454 40.0
1.18480229 -1.40050054 -0.87121260 40.0
-0.90718544 0.47679704 -1.08069766 40.0
-1.05132008 1.12630713 1.40405691 40.0
-0.94682711 0.47356462 1.79915130 40.0
1.16382778 1.30804336 -0.82229435 40.0
-0.90455580 0.42239556 -1.08113468 40.0
-0.08542990 -0.73758841 1.00877845 40.0
0.21244824 -1.65139568 -0.02617560 40.0
1.32275450 -0.39079109 -0.47537673 40.0
-0.07526771 -1.34847963 0.61748832 40.0
0.16729625 1.45920181 1.10244977 40.0
0.85692722 0.51072693 1.81885779 40.0
-1.37933898 -0.90789187 -0.48258352 40.0
-1.34419823 0.53484315 -0.96451372 40.0
0.59584326 1.44360924 -0.07518176 40.0
1.34762597 -1.18045723 -0.05280995 40.0
-0.05996148 1.41758859 -0.62290537 40.0
1.19742930 0.45695287 1.28913295 40.0
0.97572935 -0.76504725 0.91225457 40.0
-1.06319511 1.21669602 1.33940434 40.0
0.37083861 -1.45261312 -1.05894828 40.0
-0.31438005 -1.63100946 0.05863246 40.0
1.18815362 -1.39330792 0.38552576 40.0
0.08378346 0.17753494 2.01393962 40.0
-1.13123631 -0.35065037 1.38072610 40.0
1.41564715 0.48979998 0.43967602 40.0
1.36725533 -0.70087200 -0.50832266 40.0
-1.33657062 0.90844876 -0.93444157 40.0
-1.36982346 -0.54878896 0.01763500 40.0
-1.32212114 -1.22901666 -0.20033826 40.0
0.66024131 -1.17335987 -1.07080066 40.0
-1.07164276 -1.46871936 -0.28189784 40.0
1.23299181 0.41393611 -1.06042087 40.0
1.36684239 1.10354960 0.51002783 40.0
0.89651221 1.07258105 -1.19722676 40.0
0.76099098 0.81537324 -1.13604808 40.0
-0.47391656 -1.59503925 -0.57651144 40.0
1.39160407 -1.05193317 -0.02402010 40.0
-0.45506567 1.44745505 0.95002300 40.0
0.71872175 0.95895720 1.55670106 40.0
1.20331764 -1.40349293 -0.34594664 40.0
-0.74957711 -0.97382516 -1.13714969 40.0
-1.38316154 -0.83878541 0.03012943 40.0
0.39327624 -0.95013541 0.87057555 40.0
-0.97018230 1.38074720 -0.33399871 40.0
1.32975328 1.20628083 0.49543941 40.0
-0.08774677 0.37279564 -1.13537705 40.0
0.41608259 -1.53880727 0.30138299 40.0
1.37718177 1.02452850 0.23741408 40.0
0.05578491 1.45711768 0.96730101 40.0
0.08136281 1.21007144 1.42066813 40.0
-0.40141720 1.16617775 1.43134511 40.0
-0.68542337 1.20332265 -1.06612670 40.0
1.17627263 0.88704187 1.29174662 40.0
-1.36171472 -0.90789187 -0.80503184 40.0
-0.61916101 -1.59303916 -0.19321994 40.0
0.95081472 1.39035380 -0.19165453 40.0
1.38676882 -0.80388075 0.22587681 40.0
-1.30252767 -1.28743160 0.30098185 40.0
-0.75501961 1.38831270 -0.58610594 40.0
-0.46679980 1.45034218 1.08602118 40.0
0.79403585 -1.53362560 -0.95464981 40.0
0.96829551 -1.46751487 -1.00983810 40.0
-1.38479447 -1.04792082 0.60062337 40.0
1.39010847 -0.76989722 0.29077032 40.0
0.95266801 1.06294072 1.47092879 40.0
-0.24454275 -0.84490007 0.88675421 40.0
-1.36532485 0.69871408 -0.62058342 40.0
1.36462462 -0.90789187 -0.80503184 40.0
1.26312613 -1.23081148 -0.97452378 40.0
-0.64266634 -1.59596491 -0.00350649 40.0
1.41346824 0.53129786 0.05192200 40.0
-0.79499972 -0.74943203 -1.10838509 40.0
-1.37893271 -0.70072865 -0.13774449 40.0
-0.94264275 1.09353864 -1.26886678 40.0
0.11719919 -0.97617483 -1.15148377 40.0
1.30385125 -0.04564839 -0.25610971 40.0
-0.99797118 0.96763992 -1.54089808 40.0
-1.30093169 -0.19236784 -0.96937835 40.0
-1.35440505 -0.46290338 -0.19290039 40.0
-1.34860611 -0.80388075 -0.94823235 40.0
0.39238685 -1.63230824 -0.28857350 40.0
-0.31438005 -1.63100946 0.05863246 40.0
-1.36982346 -0.54878896 0.01763500 40.0
0.05177131 1.48791540 0.42078301 40.0
1.35231853 -0.32417360 0.02755279 40.0
0.79790968 -0.74943203 -1.10838509 40.0
0.24649124 0.01495874 2.03524089 40.0
1.36046410 -0.80388075 -0.79444748 40.0
-1.00659072 0.71031559 1.62888896 40.0
1.27049041 -1.34661245 0.04681680 40.0
1.34062541 1.02455342 -0.92354339 40.0
-1.34249282 -1.18045723 -0.19733356 40.0
-0.25768581 -0.70423394 1.07005727 40.0
1.00691807 1.12616587 -1.15847695 40.0
-1.33661473 -1.18045723 -0.45078880 40.0
-0.82483554 0.34246737 1.88358378 40.0
-1.40235102 0.58953691 0.05194408 40.0
0.42301038 -0.50705683 1.43537962 40.0
-1.38321233 -0.83878541 0.31228226 40.0
0.74323559 -0.12296922 -1.08310902 40.0
1.30328810 -0.12109916 -0.35511267 40.0
-1.34022689 -1.18045723 -0.30546537 40.0
0.80284721 1.40930283 0.78376293 40.0
1.30385125 -0.04564839 -0.25610971 40.0
-0.62578106 -1.47062004 0.41763386 40.0
0.25787482 -1.62651563 -0.36638147 40.0
1.39078486 0.46176210 -0.62932682 40.0
1.29465723 0.19136013 0.24944003 40.0
-0.89147264 -0.79401207 -1.20997858 40.0
0.87201875 0.73298371 -1.17525542 40.0
-1.33902407 -0.19186907 0.03953253 40.0
1.36701107 0.94746244 -0.47392002 40.0
0.93572599 0.81281161 1.63371301 40.0
1.35148621 0.78326917 -0.76431090 40.0
1.20212293 -1.40292144 -0.42415145 40.0
-0.41400108 0.78820574 1.69173944 40.0
-1.36624861 -0.87355012 -0.68610573 40.0
-0.80270314 1.40998971 1.06999588 40.0
-0.37582430 -1.28001344 0.68908274 40.0
1.32145143 -0.55427384 -0.96076196 40.0
-0.65376318 1.31172061 1.30662680 40.0
1.40512371 0.46176752 -0.25552765 40.0
1.40417540 0.58953691 -0.08876882 40.0
0.46251446 0.55518693 -1.10351121 40.0
-0.97540408 1.38564086 -0.09640426 40.0
-0.56185484 0.73718446 -1.11004484 40.0
-1.05248761 1.35142887 0.48559311 40.0
0.09001157 -0.40373519 -1.13315749 40.0
0.08760199 0.51834726 1.87548339 40.0
1.36011541 -0.83878541 -0.80055976 40.0
-0.90490812 -0.89491636 -1.45159817 40.0
1.14525008 -0.42351064 1.27919006 40.0
0.07817797 -1.34847963 0.61748832 40.0
0.67755377 -1.40545571 0.52166796 40.0
0.96889567 -0.70685166 -1.11359179 40.0
-1.36687839 -0.76988804 -0.65554523 40.0
-1.31292248 1.06418240 -1.10620975 40.0
0.25730497 0.67450118 1.78092921 40.0
1.37185693 -0.39096981 0.55743074 40.0
-1.38822806 -1.01224089 -0.27597821 40.0
0.99734783 0.80107546 1.61189318 40.0
-0.27419132 1.25831306 -1.08458948 40.0
0.58854532 -0.79763329 -1.11481190 40.0
-1.32341158 -0.39082772 -0.80287337 40.0
-0.48142383 1.37948453 1.26397824 40.0
