0.38874018 -0.99977756 -1.15194058 30.0
0.61519504 1.47284675 0.31147560 30.0
-1.42420256 0.61673790 0.57072866 30.0
-0.47837889 1.44024360 -0.14079998 30.0
-1.37665439 -0.80175614 -0.60951811 30.0
-0.43787485 0.47752342 0.48011807 30.0
-0.69548839 -1.27757382 0.67284364 30.0
-1.35678887 -1.10124910 0.47849742 30.0
-1.29592657 1.29611468 1.04734159 30.0
-1.41231787 0.44148111 0.57287258 30.0
-1.25900853 -0.98260063 -1.48279822 30.0
-1.40714896 0.44066513 -0.06008724 30.0
-0.71888053 -0.99640965 1.10636973 30.0
0.35576987 1.21652269 -1.03326976 30.0
-0.88980836 -0.98397297 -1.30504501 30.0
0.13850547 -0.96622503 -1.15331900 30.0
0.44451210 0.09783374 0.48388332 30.0
0.56183016 1.34871840 1.41021252 30.0
0.72760934 -0.66575164 1.55128932 30.0
0.23645587 1.43837452 1.41261113 30.0
0.36103138 0.58568496 -1.13182616 30.0
-1.38798022 -0.12313369 0.56811309 30.0
-1.34006166 1.01787245 1.05928063 30.0
-1.08251083 -1.41800332 0.08325019 30.0
0.08013751 -1.63917232 -0.48910901 30.0
-0.19728005 -1.63295496 -0.45178089 30.0
-0.92990988 1.46010613 1.30315840 30.0
-1.36862218 0.03006123 -0.63992339 30.0
-1.05747855 0.64579791 -1.23145878 30.0
0.08657771 1.42388642 -0.32065409 30.0
1.01137817 1.19381547 1.36806953 30.0
1.40789354 -0.12313369 0.56811309 30.0
0.59289569 0.98529333 1.41806054 30.0
-1.16733241 0.65544307 -1.31893373 30.0
-0.08797802 -0.12696917 -1.13443959 30.0
0.43341404 1.35714316 -0.80306947 30.0
-1.34191751 1.10572529 -0.57347476 30.0
-1.05139899 -0.06709314 -1.13454628 30.0
-1.17036259 0.71492928 -1.50403035 30.0
1.02057028 -0.93116212 -1.64195430 30.0
0.92542505 -1.18720698 -1.11032474 30.0
1.16480517 0.43464524 0.68437076 30.0
-0.58238202 0.74920118 1.13664722 30.0
1.44430423 0.61678952 0.37503025 30.0
-0.70521861 -1.17563200 0.88991004 30.0
-1.27574790 0.83774233 -1.56253493 30.0
-1.34781277 -1.14590514 0.01848805 30.0
1.36482882 -0.94386750 -0.94549012 30.0
0.61318415 1.50814998 1.10826719 30.0
0.34353510 -1.62505281 -0.45178089 30.0
1.27627027 1.21485388 1.19837475 30.0
1.01921213 -1.00337899 -1.55867267 30.0
1.34602487 0.39445758 -0.96700102 30.0
-1.40930831 0.48418182 0.72699368 30.0
0.86344635 -1.20899475 0.80511308 30.0
0.96284759 -0.86609870 -1.49248004 30.0
0.10783684 -0.16957152 -1.13419843 30.0
1.35379457 -1.18733513 -0.34452224 30.0
0.88910419 0.57544756 -1.13399065 30.0
0.10441559 0.63358104 0.50804961 30.0
0.60146803 0.84992486 1.46484137 30.0
1.35440862 1.04870129 -0.89481574 30.0
-1.33650458 -0.83768260 -1.27932739 30.0
1.36579812 0.62175691 0.95882076 30.0
-1.42237735 0.66222411 0.57110143 30.0
-1.34146583 -1.18733513 0.34082329 30.0
1.37031317 1.16818583 0.50272852 30.0
0.90975273 -1.02089024 -1.28430557 30.0
-0.58525777 -0.71015704 1.46995974 30.0
1.06391346 -0.55277526 -1.12891996 30.0
-0.20249109 1.51250660 1.40417671 30.0
0.23415844 1.44057107 -0.14079998 30.0
-0.07824883 1.37740386 -0.71185172 30.0
-1.35109448 -1.10124910 -0.25778261 30.0
0.99814624 1.42689586 0.31261668 30.0
0.90146381 -0.82985246 1.19085622 30.0
1.40387130 -0.29901257 0.34234524 30.0
1.05668604 0.49948007 0.57506853 30.0
-1.38798022 -0.12313369 0.56811309 30.0
-1.31571841 1.30928612 -0.06460149 30.0
1.40094507 -0.39776656 0.50299263 30.0
0.58921802 1.47179210 1.41319716 30.0
0.70273983 0.23835008 0.52277130 30.0
0.89365685 -0.59076118 1.67745233 30.0
0.27479249 1.12421763 1.39968920 30.0
-1.27885187 -1.14597762 -0.97089344 30.0
1.39263880 -0.48065522 0.67355591 30.0
0.49643442 1.25904357 -0.96344340 30.0
-1.15949476 0.75821358 -1.58845997 30.0
0.29837158 -0.22807859 -1.13376737 30.0
-0.84353310 -1.20899475 0.80511308 30.0
-0.26185247 -1.30287766 -1.10095155 30.0
0.62610281 0.83905292 -1.15850043 30.0
1.42150092 0.55326223 -0.61836118 30.0
-1.19346142 -0.74747080 1.22829115 30.0
0.79927862 -0.25842199 1.23264384 30.0
1.29048872 0.87934941 -1.55541050 30.0
1.37793779 -0.76675630 -0.93077368 30.0
-0.37520224 0.79636824 -1.15371215 30.0
-0.54342246 -1.54720962 -0.57831210 30.0
0.72833413 0.51969892 0.51891446 30.0
-1.33657396 -1.14568019 -0.48266926 30.0
-1.41058958 0.70311475 -0.28867993 30.0
-1.38168275 -0.29405713 -0.08069957 30.0
0.62055707 1.01276457 -1.13019097 30.0
1.23275447 -0.05740727 0.83785146 30.0
1.40472317 -0.90800834 0.42420310 30.0
-0.11892609 -1.13974786 -1.12393320 30.0
0.28404707 0.80978698 1.41302133 30.0
-1.42237735 0.66222411 0.57110143 30.0
1.14719009 -0.96868539 1.09800446 30.0
1.00937700 -0.85881907 1.14434373 30.0
0.35803652 1.52554464 1.37683296 30.0
-0.55393213 1.37852621 -0.71185172 30.0
0.23444080 1.50605750 0.82786870 30.0
0.87114924 1.05205536 1.39255762 30.0
-1.13850176 1.40242100 1.19434071 30.0
0.08955555 -1.53996444 -0.04089906 30.0
-0.36920419 -0.96254331 -1.15331900 30.0
1.37669885 -1.10124910 0.31876600 30.0
-1.35435629 -0.87346506 -0.94440436 30.0
-0.89223874 1.00047398 -1.27026033 30.0
-1.34653401 0.81430775 1.11838424 30.0
0.60146803 0.84992486 1.46484137 30.0
1.35695434 1.22854364 0.72779000 30.0
0.59608841 0.94174719 1.43113744 30.0
-0.87919128 0.23340753 0.55913097 30.0
-0.95206070 1.44377792 0.59704602 30.0
-0.27076006 0.52856243 0.48245335 30.0
0.39787894 0.75122386 -1.14693999 30.0
0.79655468 -0.23620372 0.76975429 30.0
-0.55551124 -1.57552123 -0.29999858 30.0
0.77478021 -1.53894973 -0.52985835 30.0
0.78252918 -1.56817758 -0.39046577 30.0
-1.26737082 0.91965079 -1.52527010 30.0
-1.26544046 0.95950341 -1.47721791 30.0
-1.04854000 0.67998803 0.77257639 30.0
-1.20611274 -1.36441267 -0.61570418 30.0
1.39273643 -0.94241929 0.66021776 30.0
-0.57783216 -0.92620528 1.13748276 30.0
-1.30184984 -0.53924727 1.36723375 30.0
-0.74246454 -1.49718964 -0.04154561 30.0
1.01953506 -1.03903878 -1.49084973 30.0
0.27169517 -1.29831707 0.67284364 30.0
1.33147359 -0.83169448 0.93131644 30.0
1.40835118 0.03022471 0.15849425 30.0
-0.08442048 -0.51579809 1.85298467 30.0
1.29907143 1.09608912 -1.12800193 30.0
0.91215205 1.00047398 -1.27026033 30.0
-1.36411178 -0.29405713 -0.63855875 30.0
1.02484906 0.94100136 -1.60798812 30.0
-0.70608258 0.69203913 0.75907207 30.0
-1.33705378 -0.73500919 -1.19684744 30.0
-0.08253619 -0.28302255 1.18082380 30.0
-0.85034984 -1.27167130 -1.10095155 30.0
0.28027710 -0.14420572 0.51553088 30.0
1.39569890 -0.54269725 0.32374370 30.0
0.57240343 1.28804338 1.40856755 30.0
0.34156060 -1.58414149 -0.52985835 30.0
-0.98973477 -1.21688640 -1.10338855 30.0
0.72265506 -0.84615856 1.19085622 30.0
-1.25859487 -1.01824737 -1.42526007 30.0
-1.40677321 0.79152161 0.56626141 30.0
-0.25405678 1.32882094 -0.86429524 30.0
0.10142890 -0.01945845 0.47533104 30.0
-1.37863958 -0.21583642 -0.30800673 30.0
0.09232300 1.39754772 1.41149485 30.0
0.29837158 -0.22807859 -1.13376737 30.0
0.72882152 1.49603176 1.09816194 30.0
0.60503757 -0.50929272 1.85298467 30.0
-1.13051188 -0.92087692 -1.65873909 30.0
0.27169517 -1.29831707 0.67284364 30.0
-1.37571132 -0.63041896 0.11203369 30.0
1.39982271 0.95587623 0.76392335 30.0
-1.29319799 0.75003773 -1.49759948 30.0
-0.43097550 -0.85558957 1.19085622 30.0
-0.43943098 -0.67304218 1.55128932 30.0
-0.98555547 0.78077531 1.38366747 30.0
-1.38081348 -0.06788021 0.72757941 30.0
1.02739930 1.15272343 -1.12630403 30.0
-0.88657302 1.17406738 -1.09738576 30.0
-1.14877915 1.13372886 -1.12173283 30.0
-1.05747855 0.64579791 -1.23145878 30.0
-1.32279778 -0.94386750 -1.27705312 30.0
1.22081375 -0.23994589 1.79143310 30.0
-0.56168282 1.32961643 -0.86429524 30.0
-0.89514679 1.10855770 -1.17866397 30.0
0.44747415 -1.29661739 -1.10095155 30.0
-0.70161986 1.32421196 -0.86429524 30.0
0.09816214 1.37740386 -0.71185172 30.0
-0.11859215 -0.96622503 -1.15331900 30.0
-0.82058448 1.48125374 1.05774081 30.0
-1.19972873 -0.81602609 1.09580231 30.0
-0.89347994 -1.11732531 -1.19310558 30.0
-1.32579410 -1.14478052 -0.72166783 30.0
1.08646488 -0.65712553 1.49483287 30.0
-1.15949476 0.75821358 -1.58845997 30.0
-0.77825767 1.17961538 -1.08627486 30.0
0.60289365 0.80133110 1.41351855 30.0
0.97690690 -0.64864415 1.54076016 30.0
0.25869197 -1.44419622 -1.09321785 30.0
-1.30201137 -0.69308364 1.13570249 30.0
-0.75990236 -1.57865977 -0.45178089 30.0
-0.60194486 -1.12994599 -1.12393320 30.0
1.34794867 -1.03717935 0.92155945 30.0
0.76833159 1.42260659 -0.14079998 30.0
0.92831326 -1.39788759 -1.09315836 30.0
-1.01594150 0.87134135 1.40777576 30.0
0.80751789 1.04771769 -1.15413630 30.0
0.44786823 0.90134734 1.44550967 30.0
1.35492229 0.87600994 -1.28837776 30.0
-0.70608258 0.69203913 0.75907207 30.0
-1.38173425 0.95587415 0.15816332 30.0
-1.36853468 -0.06733466 -0.63986969 30.0
-0.82539064 1.37906623 -0.60025609 30.0
-1.40504265 0.74716574 -0.28819427 30.0
1.36082280 0.99825656 -0.90838069 30.0
-0.33812323 1.52554464 1.37683296 30.0
-1.34789324 1.16818583 -0.05854869 30.0
-0.11892153 -0.92853022 -1.15467548 30.0
1.36725223 -0.93790740 0.86089796 30.0
1.06247735 0.68835598 -1.40093613 30.0
-0.11892609 -1.13974786 -1.12393320 30.0
0.69532567 -0.56547624 -1.12891996 30.0
-1.31909740 -1.22919059 -0.54075694 30.0
1.02649784 -1.11866844 -1.23743021 30.0
1.40283012 0.79886049 0.98355675 30.0
-0.54135257 -1.54622257 -0.67551243 30.0
-1.37556148 0.99821973 0.36065313 30.0
1.37100768 -1.10124910 -0.25778261 30.0
1.22081375 -0.23994589 1.79143310 30.0
-0.96955848 1.30069220 -0.86403930 30.0
1.28072798 1.20880497 -0.82398659 30.0
-0.79818600 -1.52222669 -0.19169141 30.0
-0.07772075 -1.38538086 0.45647603 30.0
0.10282870 -0.86291414 1.19085622 30.0
-0.28518280 0.47054559 -1.13429904 30.0
-1.33316696 0.44241729 -0.96624708 30.0
0.44652674 0.24131308 0.49248436 30.0
-0.06335823 1.52502072 1.37683296 30.0
0.62079591 0.97079766 -1.13656616 30.0
1.33047152 -1.28732657 0.16571276 30.0
1.39603746 -0.63155001 0.31744722 30.0
-1.23911810 1.34007001 -0.49399051 30.0
-1.38591230 -0.22529481 0.54532731 30.0
1.37871313 0.87600994 -0.92734665 30.0
0.63437563 0.74726611 -1.14693999 30.0
1.15459108 0.96983486 -1.56534529 30.0
1.40789354 -0.12313369 0.56811309 30.0
-0.05965337 -1.57861614 -0.57831210 30.0
1.44381404 0.61680669 0.15788642 30.0
1.37194741 0.55741453 -0.94944215 30.0
-0.99929875 -1.00337899 -1.55867267 30.0
-1.33875608 1.22618604 0.50016880 30.0
1.38108790 1.04851770 -0.28501725 30.0
-0.55551124 -1.57552123 -0.29999858 30.0
0.98403335 -1.31723320 -1.09763563 30.0
0.56850696 -1.60667586 -0.45178089 30.0
1.40715325 -0.16296545 0.56149125 30.0
0.13883482 -0.92853022 -1.15467548 30.0
1.02055669 -1.17618263 -1.11217403 30.0
1.39787328 -0.47065774 0.48997712 30.0
1.15208948 1.39612913 0.32028979 30.0
0.45934430 -0.67304218 1.55128932 30.0
-0.41716167 -1.18893850 0.88991004 30.0
0.80412638 -0.25881499 2.13618779 30.0
-0.59528172 1.47284675 0.31147560 30.0
-1.32920313 1.23473859 0.88188457 30.0
1.40539968 -0.21583642 0.13557160 30.0
-1.42420256 0.61673790 0.57072866 30.0
1.28461218 0.56980968 0.87609977 30.0
-0.75486690 -1.53894973 -0.52985835 30.0
1.41713607 -0.80175614 0.09321245 30.0
-1.17849135 0.67903739 -1.40780604 30.0
0.37129751 1.50644302 0.82786870 30.0
-1.37329185 -0.53996217 -0.09154674 30.0
0.27381963 -1.23918688 0.80511308 30.0
0.44507784 -0.14421487 0.51553088 30.0
-1.06809568 0.56458473 -1.13856554 30.0
-1.35281134 -0.18422940 0.89831549 30.0
-1.31872189 1.21474802 -0.56130868 30.0
-0.60088259 0.97079766 -1.13656616 30.0
-1.20696962 -0.93818021 1.08689153 30.0
-0.95699352 -0.64864415 1.54076016 30.0
1.40849590 -0.80175614 -0.33601096 30.0
-1.28021646 0.64512879 -1.27684832 30.0
-1.32842636 1.27344334 0.49703801 30.0
-1.36775517 0.30493918 0.88101637 30.0
-0.60088259 0.97079766 -1.13656616 30.0
0.85691655 1.44406104 1.37801182 30.0
-0.25984514 -0.01975140 0.47533104 30.0
-1.06909728 0.49821907 -1.13352895 30.0
-1.36058688 1.10687399 0.50588816 30.0
-1.35852838 0.89571959 1.08790123 30.0
0.21976000 -1.60127616 -0.29999858 30.0
-0.89514679 1.10855770 -1.17866397 30.0
-0.31759089 -1.57455075 -0.81769139 30.0
1.39263880 -0.48065522 0.67355591 30.0
1.05340743 -0.72461128 -1.26552057 30.0
-1.37990952 0.95587623 0.76392335 30.0
-1.30793536 -1.28273880 0.30748540 30.0
-0.40031803 1.34928775 1.41021252 30.0
1.22375643 0.74894750 1.23601723 30.0
0.45411670 0.69383895 0.73267323 30.0
1.17376745 -1.37259984 -0.99740666 30.0
0.51194334 0.51418090 -1.13352895 30.0
-0.49203002 0.51418090 -1.13352895 30.0
-1.11573303 1.07840466 -1.30302179 30.0
-0.93769115 1.03147602 -1.38460290 30.0
0.80869281 0.92339671 -1.18278909 30.0
0.23595406 1.42452407 -0.32065409 30.0
-0.64700288 -1.53364360 -0.67561138 30.0
1.32038200 -0.43312550 1.52368927 30.0
1.17473531 0.48097727 0.68648249 30.0
0.93415314 -0.22289130 -1.13376737 30.0
-0.86378390 -0.37234792 2.05410337 30.0
0.13883938 -1.13974786 -1.12393320 30.0
1.41217387 -0.83768260 -0.11504170 30.0
-0.87440473 0.09306094 0.55069584 30.0
-0.69017673 1.28268623 1.40856755 30.0
0.14093417 -0.72734028 -1.13022840 30.0
1.38848197 1.04851770 0.50968987 30.0
-1.05860519 -0.72743756 1.34194517 30.0
-1.40098536 0.83456516 0.56118226 30.0
-0.29226923 1.25742126 -0.96344340 30.0
-0.97695541 1.26901758 -0.90699899 30.0
0.77221131 -1.52025998 -0.57831210 30.0
1.25198555 -1.29023159 -0.99205673 30.0
-0.58219439 -0.38213775 2.05410337 30.0
1.18793237 1.02265978 1.29984844 30.0
-0.45357838 -0.30908334 -1.13310385 30.0
0.82568115 -0.77660680 -1.15922058 30.0
-0.96955848 1.30069220 -0.86403930 30.0
-1.37123811 -0.63804889 0.61891717 30.0
-1.35938692 -1.05707026 -0.20433980 30.0
1.03379440 0.99877948 1.36867476 30.0
1.07774806 -0.76132500 1.26830685 30.0
-0.26865453 0.63084513 0.50804961 30.0
0.61519504 1.47284675 0.31147560 30.0
1.37723148 0.85550582 1.10345972 30.0
1.40789354 -0.12313369 0.56811309 30.0
1.31519282 0.72710186 1.12091494 30.0
-0.77664131 -0.23620372 0.76975429 30.0
0.29892084 0.18150671 -1.13459146 30.0
0.67364919 -1.57949150 -0.51126629 30.0
-1.38713205 -0.76682538 -0.33538270 30.0
-1.31155002 1.30511248 -0.28034970 30.0
0.39008901 -0.92499894 -1.15467548 30.0
0.13915190 0.89293134 -1.15843058 30.0
0.13893114 1.13108921 -1.11904955 30.0
1.42410910 0.39428991 0.16438217 30.0
-0.58601898 0.62513036 0.51498616 30.0
-0.06683451 1.43779230 1.41261113 30.0
0.27303091 1.35601151 -0.80306947 30.0
-1.30780888 1.25870657 -0.54599351 30.0
0.47492486 -0.12641808 -1.13443959 30.0
0.10758946 -0.31160456 -1.13310385 30.0
1.42410910 0.39428991 0.16438217 30.0
-1.08251083 -1.41800332 0.08325019 30.0
-0.08792351 -0.16957152 -1.13419843 30.0
-1.33270359 -1.22922981 0.04173250 30.0
1.34044552 1.27049589 -0.27880138 30.0
-1.37855828 -0.94302315 0.50375634 30.0
0.63736743 -0.75965548 -1.13883209 30.0
-1.17884111 0.94206458 1.31800234 30.0
0.38874018 -0.99977756 -1.15194058 30.0
0.69692856 1.34318864 1.41021252 30.0
-1.37584960 -0.55090255 0.47938231 30.0
0.89741015 -0.22799124 0.77893800 30.0
0.66474491 1.39253283 1.41149485 30.0
1.38848197 1.04851770 0.50968987 30.0
-0.59528172 1.47284675 0.31147560 30.0
-0.25189731 1.22748637 1.40580332 30.0
-0.57554907 -1.00269520 1.10636973 30.0
-1.38831151 -0.06733466 0.56963485 30.0
0.11568840 0.51909143 -1.13352895 30.0
-0.26397386 -0.85964501 1.19085622 30.0
-0.49838847 -1.51902151 -0.04089906 30.0
0.71764123 -1.34025204 -1.09764409 30.0
-0.70121431 -1.21942186 0.80511308 30.0
1.32861280 -1.09909773 -0.95931476 30.0
1.21918643 1.38371134 1.04055810 30.0
1.40139008 0.39276683 -0.63987201 30.0
-1.38831151 -0.06733466 0.56963485 30.0
-0.57947320 -0.26507723 2.13193226 30.0
-1.36867094 0.16674300 -0.63993138 30.0
-1.18188977 -0.45789593 -1.10898268 30.0
-1.36850488 1.04851770 0.35981971 30.0
1.38402772 0.70332265 -1.22891915 30.0
1.02676690 1.11920953 -1.20961237 30.0
0.38979483 1.09533572 -1.12854254 30.0
-0.70789218 -0.70579028 1.46995974 30.0
-0.99458152 -0.13120952 0.60347986 30.0
-1.34781277 -1.14590514 0.01848805 30.0
-1.39425623 0.87600994 0.15808605 30.0
-0.11846814 -1.04129744 -1.14713895 30.0
-1.22734606 -1.37056100 0.08687193 30.0
1.14863467 -0.99225610 -1.57273459 30.0
0.30340379 -0.47749621 -1.13085926 30.0
1.35615838 1.22618604 -0.05831379 30.0
-1.37535441 -0.40888557 0.70221698 30.0
-1.35854328 -0.83768260 -0.94064754 30.0
1.13219154 -0.13864109 0.70206493 30.0
0.28307173 -0.89718962 1.15228677 30.0
0.39107019 -1.15684247 -1.11681020 30.0
0.72760934 -0.66575164 1.55128932 30.0
0.90146381 -0.82985246 1.19085622 30.0
-1.16247118 0.85701782 1.34563673 30.0
-0.54796034 -1.60652614 -0.48910901 30.0
-1.33388126 -1.18733513 -0.34452224 30.0
-1.05219281 -1.48815393 -0.37492859 30.0
-1.00426364 -0.89490104 -1.64331079 30.0
0.23415844 1.44057107 -0.14079998 30.0
-1.01052701 -1.06433725 1.02352774 30.0
1.40694702 -0.73487854 0.46095610 30.0
-1.36412752 0.95587415 -0.57466537 30.0
-0.11901784 1.13108921 -1.11904955 30.0
0.82936299 0.50785816 -1.13352895 30.0
-0.98348629 1.25653160 1.37083375 30.0
-0.99233079 -0.02332468 0.55714214 30.0
-0.69127613 -0.23381400 1.82162035 30.0
-1.22452641 -1.37899017 -0.02914192 30.0
0.70702934 -0.27078450 1.20589077 30.0
1.20489073 -0.37897077 -1.11041093 30.0
1.31044972 1.31774771 -0.51644057 30.0
-0.93396091 -1.15202200 -1.14055324 30.0
0.61519504 1.47284675 0.31147560 30.0
-0.80131924 -0.80525523 -1.16833150 30.0
-0.72226799 1.21753442 -1.03382528 30.0
1.40010071 -0.16831543 0.72932208 30.0
-1.38629627 0.91616565 -0.05942111 30.0
1.38762343 -0.83620995 0.73684496 30.0
-1.33200932 -1.08143127 0.85489327 30.0
-0.65373582 -1.57949150 -0.51126629 30.0
0.26484111 1.34811687 1.41021252 30.0
0.10783684 -0.16957152 -1.13419843 30.0
1.37656498 -1.10124910 0.20367958 30.0
-0.74892980 -1.51941895 -0.67600715 30.0
-1.27297342 1.33497870 1.04584956 30.0
-1.15437233 -0.74973565 -1.43126297 30.0
-1.30259693 -0.76256388 1.02710807 30.0
0.82568115 -0.77660680 -1.15922058 30.0
-1.40586090 0.44077051 0.73102117 30.0
-0.89608824 -1.13843966 -1.15614069 30.0
-0.42152479 -1.09775758 1.02352774 30.0
-0.08792351 -0.16957152 -1.13419843 30.0
-1.28326702 0.79454350 -1.54359555 30.0
-0.28518280 0.47054559 -1.13429904 30.0
-1.39513659 -0.76682538 -0.11684924 30.0
-1.17036259 0.71492928 -1.50403035 30.0
0.84336650 1.46410286 0.60455239 30.0
-0.45515755 0.03527366 -1.13457561 30.0
1.15023088 1.21743119 -0.94538820 30.0
0.97690690 -0.64864415 1.54076016 30.0
1.07002890 0.66294736 -1.31203413 30.0
0.70525390 1.50516319 1.36749709 30.0
-0.37112916 1.15431321 -1.10630882 30.0
0.77846211 -1.57851291 -0.48910901 30.0
-1.32591248 1.27344334 -0.05820006 30.0
0.71406037 1.37280095 -0.71185172 30.0
0.28037423 -1.01242340 1.10636973 30.0
0.28697336 -0.38585111 2.05410337 30.0
0.94982320 1.46010613 1.30315840 30.0
-0.57317269 -1.04569817 1.07326913 30.0
-1.38062465 -0.12549308 0.72866005 30.0
1.25352919 -0.88519716 1.02602780 30.0
-0.26285541 -0.28243768 1.18082380 30.0
0.91350150 1.07648146 -1.21586633 30.0
1.40158749 -0.69640958 0.10649911 30.0
1.43168557 0.44166821 0.37942800 30.0
0.45842305 0.62745112 0.50804961 30.0
0.73522502 -0.92042142 1.13748276 30.0
-0.81358337 -0.74130291 -1.14411318 30.0
1.43230808 0.74716765 0.37448722 30.0
0.45383358 -0.26673380 2.13147664 30.0
-1.09853745 0.76783556 1.32514298 30.0
1.10686994 1.33572519 -0.70306975 30.0
1.40822840 0.79151070 -0.57797122 30.0
0.47249806 -0.39325550 -1.13217759 30.0
1.37805378 -0.45260689 -0.63732994 30.0
-0.89690185 0.87374365 -1.32331145 30.0
0.23445156 1.49160123 0.47307521 30.0
0.69891596 -0.02003591 0.50909668 30.0
0.21695843 -1.63280284 -0.48910901 30.0
0.72882152 1.49603176 1.09816194 30.0
-0.42917523 -0.28171217 1.18082380 30.0
-1.19052196 -0.16285948 -1.11242890 30.0
-0.25539199 -1.19466054 0.88991004 30.0
1.30261946 -0.74012840 -1.36633778 30.0
-0.79480177 0.83454698 -1.18992341 30.0
-0.98899126 -1.25295651 0.67164332 30.0
1.05383742 -1.45334220 -0.82524794 30.0
-0.25927550 0.99574620 1.41806054 30.0
-0.43222585 -0.81883121 1.25498378 30.0
-0.32053351 -1.56488693 -0.57831210 30.0
1.02763796 -1.14115667 -1.15349817 30.0
1.35801029 1.22618604 0.15828213 30.0
-1.39096081 -0.73487854 0.10389028 30.0
0.96284759 -0.86609870 -1.49248004 30.0
-1.00499809 0.82598972 1.42710769 30.0
-1.02424431 -0.78669804 -1.49677634 30.0
-1.35435629 -0.87346506 -0.94440436 30.0
0.82381785 -0.83904380 1.19085622 30.0
-1.38548636 -0.21583642 0.13557160 30.0
-0.77664131 -0.23620372 0.76975429 30.0
-1.38724005 -0.16296545 0.56149125 30.0
1.41493928 0.87601906 0.54846770 30.0
1.00546885 0.78077531 1.38366747 30.0
0.14093417 -0.72734028 -1.13022840 30.0
0.08606831 1.49123240 0.47307521 30.0
-1.28602660 -0.76999545 -1.43195736 30.0
-1.31716466 -1.18635440 -0.74726504 30.0
-0.05939300 -1.57760835 -0.67551243 30.0
0.10255225 -0.90060931 1.15228677 30.0
-1.36412752 0.95587415 -0.57466537 30.0
-1.41273737 0.48494950 -0.06043284 30.0
-1.33270359 -1.22922981 0.04173250 30.0
0.60270029 -0.74373990 1.40060842 30.0
1.19631946 0.70735240 1.06910443 30.0
0.81100154 0.87980556 -1.19140410 30.0
0.83451968 0.69380808 0.78516376 30.0
-0.57727569 -0.96381861 1.12628293 30.0
1.39569890 -0.54269725 0.32374370 30.0
1.33350956 -1.05378759 -1.19358373 30.0
-1.33842158 1.22665751 0.60645890 30.0
1.41002619 -0.87266111 0.43879905 30.0
-1.39010823 0.55088311 0.86567605 30.0
1.37788010 1.05394876 0.89733762 30.0
-1.39685369 -0.80167586 0.45083210 30.0
0.28466398 -0.82270294 1.25498378 30.0
1.39060235 -1.01621616 0.42541909 30.0
-0.96157664 -0.76568729 -1.34851551 30.0
-1.35035133 1.11417925 0.89055669 30.0
1.02409506 1.02123594 -1.47659886 30.0
0.34253266 -1.61069441 -0.51126629 30.0
1.39616537 -0.97918886 0.24380282 30.0
1.10686994 1.33572519 -0.70306975 30.0
1.31946480 -0.33390340 1.62063169 30.0
-0.56984580 -0.66129625 -1.12772405 30.0
-1.33875608 1.22618604 0.50016880 30.0
-1.36122370 -0.69686592 -0.61912465 30.0
0.55840862 -1.55676138 -0.81769139 30.0
0.41258186 1.39678657 -0.59996587 30.0
1.35308015 0.44241729 -0.96624708 30.0
-1.17884111 0.94206458 1.31800234 30.0
-0.91633672 0.55408174 0.56109470 30.0
-1.31381798 0.16760476 -0.96709841 30.0
0.80881822 -1.12440920 -1.13776672 30.0
-0.42459875 0.09783374 0.48388332 30.0
-1.00562811 -1.01889980 1.07326913 30.0
-0.59327078 1.50814998 1.10826719 30.0
1.35089445 1.22389841 -0.28221461 30.0
-0.38055614 0.71441603 -1.14024508 30.0
0.95760447 1.03147602 -1.38460290 30.0
-0.82345319 1.47174120 0.80353987 30.0
-0.65388715 -1.54419363 -0.97026491 30.0
-0.56263858 1.50485885 1.40417671 30.0
0.60594934 1.51555133 1.30200088 30.0
-0.44189885 0.52571958 0.48245335 30.0
1.37368000 -0.30865827 1.07167375 30.0
-0.42861387 1.29758942 -0.90699899 30.0
1.37272453 -0.18422940 0.89831549 30.0
1.17581308 -0.77795237 -1.50855744 30.0
-0.43594322 -0.38401300 2.05410337 30.0
-1.29612148 1.31995952 0.87746608 30.0
0.87853771 1.42785192 0.08482401 30.0
-0.58576357 -1.17458928 -1.11027443 30.0
-1.21104348 0.61745793 -1.16248691 30.0
0.08198386 1.51222157 1.40417671 30.0
0.37143436 1.46122658 0.08482401 30.0
-0.59820479 1.45382583 0.08482401 30.0
0.90213728 -1.55332434 -0.47432631 30.0
-1.38652313 -0.83768260 -0.33577690 30.0
-1.12966466 0.34544393 0.68064380 30.0
-0.99233079 -0.02332468 0.55714214 30.0
-1.38386893 -0.31387880 0.52245677 30.0
1.39787304 -0.45677742 0.32905266 30.0
1.24333775 -1.35275602 0.21808504 30.0
0.82381785 -0.83904380 1.19085622 30.0
1.33257055 -0.16153799 -0.96605247 30.0
-1.32375991 0.77118891 1.13145387 30.0
-1.13031757 1.21743119 -0.94538820 30.0
-1.37048984 -1.01621616 0.19613235 30.0
0.29792926 -0.31047925 -1.13310385 30.0
0.60210776 -0.38213775 2.05410337 30.0
-1.04234815 0.61279190 0.59195405 30.0
0.92659962 -0.86602503 1.15228677 30.0
-1.39092076 -0.87326413 0.29338571 30.0
-1.25367510 0.45741484 0.87687415 30.0
1.40044188 -0.37432539 0.12789224 30.0
1.42021942 0.83473265 0.71320230 30.0
-1.37553084 -0.97920889 0.07613301 30.0
1.32455146 -1.28609216 -0.27617583 30.0
1.31311119 0.75003773 -1.49759948 30.0
1.35492229 0.87600994 -1.28837776 30.0
-0.08000584 -1.19927311 0.88991004 30.0
-1.27601874 -1.09219408 -1.16241944 30.0
-1.00445127 1.08860528 -1.29675663 30.0
-1.38018751 -0.16831543 0.72932208 30.0
1.42495584 0.74716574 -0.28819427 30.0
-0.52860278 -1.43012893 -1.09321785 30.0
-0.20855404 -1.57369852 -0.18978600 30.0
-0.70789218 -0.70579028 1.46995974 30.0
1.11781895 -0.24489851 1.29509282 30.0
-1.39513075 -0.83758223 0.29147142 30.0
-1.27818763 1.34710431 0.12869462 30.0
1.39652455 0.87600994 -0.57637215 30.0
0.79817104 1.17961538 -1.08627486 30.0
-0.94934654 -0.82888532 -1.45381200 30.0
-1.30254650 1.31484234 0.72014171 30.0
1.38829517 -0.73487854 -0.60974991 30.0
-1.32650149 -0.90881222 -1.28988481 30.0
0.79242587 0.09479123 0.54579574 30.0
0.39789069 -0.78403980 -1.14027286 30.0
0.13883938 -1.13974786 -1.12393320 30.0
-1.14231980 0.84682071 -1.67009830 30.0
-0.62811959 1.41833198 -0.32065409 30.0
1.33218420 0.30739921 0.95772576 30.0
-0.71888053 -0.99640965 1.10636973 30.0
-1.36417663 -1.05707026 0.37615547 30.0
-1.29823077 -0.20694947 1.03471005 30.0
0.08000602 -1.62483704 -0.51126629 30.0
1.42021942 0.83473265 0.71320230 30.0
-0.43392023 -0.26673380 2.13147664 30.0
-0.60171229 0.92835802 -1.14981556 30.0
-1.41245902 0.74717331 0.56850713 30.0
0.28242004 1.29615986 -0.90699899 30.0
0.88127649 -1.51024532 -0.97265035 30.0
-1.39727700 0.70545769 0.86487788 30.0
0.10783684 -0.16957152 -1.13419843 30.0
-0.69844848 -0.37973851 2.05410337 30.0
0.26063290 -1.46799266 0.18608579 30.0
1.40822840 0.79151070 -0.57797122 30.0
1.21043515 -0.16285948 -1.11242890 30.0
-1.40997040 0.74716574 -0.05995655 30.0
-0.74246454 -1.49718964 -0.04154561 30.0
0.37141830 1.48047101 0.31147560 30.0
0.85616821 -1.26672316 0.67260349 30.0
-0.43812126 -0.51164097 1.85298467 30.0
-0.70209551 -0.50628829 1.85298467 30.0
-0.32306349 -1.57448089 -0.96977276 30.0
0.62079591 0.97079766 -1.13656616 30.0
-0.91447103 -0.77180409 -1.23501885 30.0
-0.70737243 -0.88308209 1.15228677 30.0
1.32973480 -1.28776932 0.05626832 30.0
1.09554875 1.43406498 1.06525767 30.0
-0.21452752 1.49814880 0.60941821 30.0
1.32973480 -1.28776932 0.05626832 30.0
-1.10998750 -0.03690527 0.65905613 30.0
0.63559657 0.03477964 -1.13457561 30.0
-0.26580328 -0.26817644 2.13147664 30.0
1.34582579 1.27344334 -0.05820006 30.0
1.23479533 -1.37034929 -0.36622992 30.0
1.07046378 -0.16438180 -1.13419843 30.0
-1.34849226 1.17054343 0.73227262 30.0
-0.59528172 1.47284675 0.31147560 30.0
0.98205346 1.36564779 -0.60141724 30.0
-1.40981460 0.74765140 0.72718841 30.0
1.35023642 0.91616565 -1.27260196 30.0
0.47940516 0.41927084 -1.13447380 30.0
0.93404293 0.50944960 0.56762391 30.0
-0.99437433 -0.22534087 0.78212547 30.0
0.62055707 1.01276457 -1.13019097 30.0
-0.37374803 -0.84883285 -1.15202844 30.0
1.40000999 -0.69731444 0.46428415 30.0
0.89566219 -0.13041115 0.59908396 30.0
-0.47609442 1.49724269 0.60941821 30.0
-0.24865198 -1.38002491 0.45647603 30.0
-1.00065684 -0.93116212 -1.64195430 30.0
-1.21284103 -0.05740727 0.83785146 30.0
0.95345199 -0.97608721 -1.48878908 30.0
1.15737772 -0.71885341 -1.27703702 30.0
1.44093633 0.55147833 0.56865406 30.0
-1.14948106 -0.81232667 -1.57769239 30.0
0.92483795 0.46270579 0.56492007 30.0
0.27181062 1.22748637 1.40580332 30.0
-0.92548949 -1.46851754 -1.05642045 30.0
-1.00493574 0.94100136 -1.60798812 30.0
1.40702367 0.16914427 0.73855710 30.0
-0.71531171 -0.92042142 1.13748276 30.0
1.30101693 -0.80450410 -1.48821521 30.0
1.42706227 0.44066513 -0.06008724 30.0
0.90984398 -1.54346836 -0.37312275 30.0
-1.37605643 -0.63494331 0.47016871 30.0
-0.62389827 -0.47314373 -1.13085926 30.0
1.40242338 0.83455330 -0.57717818 30.0
1.39256322 0.30205858 -0.63991940 30.0
-0.97950172 0.66987103 -1.26534951 30.0
-0.33812323 1.52554464 1.37683296 30.0
1.06845331 0.67998803 0.77257639 30.0
-1.33338976 1.06938553 1.05561948 30.0
1.44197357 0.61680669 -0.06029303 30.0
-0.99929875 -1.00337899 -1.55867267 30.0
-1.10676837 1.34374058 1.30904186 30.0
-0.79661053 -0.84074855 -1.17945957 30.0
-0.61448121 -0.78036052 -1.14027286 30.0
-1.36607599 1.04851770 -0.05896237 30.0
-0.11699428 1.18233383 -1.08349741 30.0
0.90049094 -1.54017413 -0.49931535 30.0
-1.37129796 0.95974773 0.91191012 30.0
1.29736793 0.83694780 1.24712515 30.0
1.13807642 1.10552073 -1.22045982 30.0
-0.69023097 1.45968199 1.40616024 30.0
0.27530530 -1.19466054 0.88991004 30.0
-0.69998389 1.50341260 1.29040051 30.0
-1.33308160 -0.69941753 -0.93413711 30.0
-1.40419590 0.39428991 0.16438217 30.0
1.29593205 -1.09219408 -1.16241944 30.0
-0.78421307 -0.25881499 2.13618779 30.0
-1.15437233 -0.74973565 -1.43126297 30.0
-1.35109448 -1.10124910 -0.25778261 30.0
0.37454104 1.43909669 1.41261113 30.0
0.88765478 0.83617485 1.45729458 30.0
0.08021716 -1.63932514 -0.45178089 30.0
-1.20611274 -1.36441267 -0.61570418 30.0
1.41700184 0.83536834 0.84154499 30.0
-1.36411178 -0.29405713 -0.63855875 30.0
-0.61451668 -0.22597630 -1.13376737 30.0
0.52544075 1.41037929 -0.47056949 30.0
0.59733975 -1.29023051 -1.10095155 30.0
-1.32803535 -1.03717935 0.92155945 30.0
-1.31763816 0.30349010 -0.96707880 30.0
1.35089445 1.22389841 -0.28221461 30.0
0.79647422 0.23641130 0.55427510 30.0
-0.89054626 -1.05707121 -1.25631893 30.0
-0.99855673 0.22653680 0.56491315 30.0
0.72304147 -0.80982763 1.25498378 30.0
-0.55964929 1.35653353 -0.80306947 30.0
-0.87840146 -0.65314627 1.55128932 30.0
-0.24017556 1.39585292 -0.59996587 30.0
0.92542505 -1.18720698 -1.11032474 30.0
-0.70274168 -0.84615856 1.19085622 30.0
0.47249806 -0.39325550 -1.13217759 30.0
1.35492229 0.87600994 -1.28837776 30.0
-1.37571132 -0.63041896 0.11203369 30.0
0.76833159 1.42260659 -0.14079998 30.0
0.12719943 1.21545887 -1.03326976 30.0
-0.37797737 -0.78403980 -1.14027286 30.0
1.40129590 0.91616565 -0.28675249 30.0
-1.38480997 -0.90800834 0.42420310 30.0
0.27801591 -1.10302377 1.02352774 30.0
1.40164733 0.95587415 0.15816332 30.0
1.39121115 0.95974773 0.91191012 30.0
-0.41860351 1.07488501 1.40010440 30.0
1.02055669 -1.17618263 -1.11217403 30.0
-1.41782725 0.70310950 0.57020050 30.0
-1.38458741 -0.87177628 0.56075251 30.0
-0.59327078 1.50814998 1.10826719 30.0
-0.10349145 -1.22097254 -1.10599923 30.0
-0.77364939 -0.13408715 0.58971947 30.0
0.82381785 -0.83904380 1.19085622 30.0
0.47249806 -0.39325550 -1.13217759 30.0
-0.87900472 -1.16144955 -1.12379503 30.0
-0.33200979 1.51285994 1.40417671 30.0
1.31470633 -1.26666081 0.45835587 30.0
-0.84831399 1.28177631 -0.90699899 30.0
-0.89223874 1.00047398 -1.27026033 30.0
0.32999304 -0.57076597 -1.12891996 30.0
-0.56457382 -1.18310094 0.88991004 30.0
0.63442999 -0.22597630 -1.13376737 30.0
0.21527475 -1.57248831 -0.57831210 30.0
-1.41690123 0.66255611 0.73190659 30.0
-0.88993061 -1.54346836 -0.37312275 30.0
1.33755147 0.30349010 -0.96707880 30.0
0.80638528 0.37640607 0.55366880 30.0
-0.27739868 -0.39501414 -1.13217759 30.0
-0.42966294 -0.89294744 1.15228677 30.0
-0.93428797 -1.04859746 -1.39712644 30.0
1.08079648 -1.48082030 -0.25650916 30.0
-1.05147040 0.03243081 -1.13457561 30.0
-0.34176901 -1.56609106 -0.18978600 30.0
-0.61570597 0.17897142 -1.13459146 30.0
1.33482194 -1.20948243 0.59814978 30.0
-0.27984115 0.32658327 -1.13456774 30.0
1.36287880 -1.05648124 -0.67107224 30.0
1.17743909 -0.90183514 1.09896433 30.0
1.33257055 -0.16153799 -0.96605247 30.0
1.15237463 -1.20317042 -1.08728755 30.0
0.93558758 -0.12520224 -1.13443959 30.0
-0.44221029 0.56699622 0.47592416 30.0
-1.36867094 0.16674300 -0.63993138 30.0
1.14886582 -1.02770162 -1.50250649 30.0
1.30101693 -0.80450410 -1.48821521 30.0
-0.25628772 1.08048069 1.40010440 30.0
1.40916216 0.03038534 0.37600580 30.0
0.68096930 0.51140708 -1.13352895 30.0
1.36730409 0.79151070 -1.28415763 30.0
0.83513862 1.33177674 1.40266573 30.0
0.10288289 0.81322205 1.41302133 30.0
-0.60019284 -1.06898308 -1.13895333 30.0
0.23452583 1.46061504 0.08482401 30.0
-0.92635477 -1.49840605 -0.16954888 30.0
-0.71974766 -0.95778799 1.12628293 30.0
-1.41782725 0.70310950 0.57020050 30.0
-1.38138270 0.91616565 -0.28675249 30.0
1.06391346 -0.55277526 -1.12891996 30.0
0.73559886 0.97853947 1.41806054 30.0
-0.28168970 0.42173308 -1.13447380 30.0
1.03121948 0.36322799 0.56869680 30.0
-0.88983935 -1.02089024 -1.28430557 30.0
-1.36058688 1.10687399 0.50588816 30.0
0.08609348 1.46012199 0.08482401 30.0
0.92784220 0.78245974 -1.29378152 30.0
-0.95699352 -0.64864415 1.54076016 30.0
0.62871248 1.43411362 -0.14079998 30.0
-0.72226799 1.21753442 -1.03382528 30.0
1.43681455 0.66255611 0.73190659 30.0
-1.15437233 -0.74973565 -1.43126297 30.0
-0.94934654 -0.82888532 -1.45381200 30.0
-1.36193490 -0.76658130 0.78078598 30.0
1.09554875 1.43406498 1.06525767 30.0
0.28914016 -0.67617726 1.55128932 30.0
-1.02758408 1.44509137 1.20040786 30.0
-0.27801597 -0.31047925 -1.13310385 30.0
-1.38648582 0.91617608 0.78609693 30.0
0.93076098 -0.38624784 -1.13217759 30.0
-1.33746910 -1.18733513 -0.18556960 30.0
-0.88438046 -1.55346429 -0.43551093 30.0
1.07739186 0.64579791 -1.23145878 30.0
0.45778820 0.47752342 0.48011807 30.0
-0.93066186 -0.55771369 -1.12891996 30.0
1.08671689 0.45301947 -1.13429904 30.0
0.42023137 1.34928775 1.41021252 30.0
0.91681516 0.87374365 -1.32331145 30.0
1.36780643 1.16818583 -0.05854869 30.0
1.33350956 -1.05378759 -1.19358373 30.0
-1.37068188 -1.01621616 0.31494099 30.0
-0.26075009 0.95175797 1.43113744 30.0
-1.35203421 0.55741453 -0.94944215 30.0
1.17940795 0.75821358 -1.58845997 30.0
-1.13746428 -0.71885341 -1.27703702 30.0
0.62136298 1.08966613 -1.12854254 30.0
-0.78421307 -0.25881499 2.13618779 30.0
1.38460112 1.00240171 0.90379661 30.0
0.10441559 0.63358104 0.50804961 30.0
1.41040385 -0.87346506 0.10351093 30.0
-1.25900853 -0.98260063 -1.48279822 30.0
-1.37990952 0.95587623 0.76392335 30.0
-0.86425263 -1.50763226 -0.82393306 30.0
0.60567695 -1.17458928 -1.11027443 30.0
0.27012292 1.37822711 -0.71185172 30.0
1.34809661 1.27378893 0.60222316 30.0
-0.19459343 -1.57148468 -0.67551243 30.0
-0.69023097 1.45968199 1.40616024 30.0
-1.39539337 -0.83728069 0.44556144 30.0
0.43851689 1.07488501 1.40010440 30.0
0.61502171 1.48429942 0.47307521 30.0
1.41134155 -0.80156296 0.58399034 30.0
0.80959159 1.11594307 -1.13097143 30.0
-1.19927311 1.38371134 1.04055810 30.0
1.39400375 -0.76682538 -0.60936821 30.0
-1.27772927 -1.06081426 0.96334112 30.0
-1.06447625 -0.50074857 1.80367947 30.0
0.62055707 1.01276457 -1.13019097 30.0
1.38829517 -0.73487854 -0.60974991 30.0
-0.94849950 0.82145339 -1.50420070 30.0
0.70696598 -1.35793006 0.45647603 30.0
-1.07362032 1.39034903 -0.13846131 30.0
-0.19704512 -1.63280284 -0.48910901 30.0
-0.95606112 -0.79391837 -1.40303731 30.0
1.03708899 0.81312340 -1.62992227 30.0
1.38150764 -0.94386750 -0.62400860 30.0
-0.43875036 -1.61699069 -0.45178089 30.0
-1.32375991 0.77118891 1.13145387 30.0
0.23376974 1.51585257 1.10826719 30.0
-0.85256535 -1.12265611 0.95978612 30.0
1.34602487 0.39445758 -0.96700102 30.0
-1.38733327 -0.76677656 0.58880150 30.0
-1.39999270 0.39307141 -0.05933497 30.0
-0.57317269 -1.04569817 1.07326913 30.0
-0.26143366 -0.25836954 0.69909060 30.0
1.01428771 -0.22534087 0.78212547 30.0
-0.86774147 0.83617485 1.45729458 30.0
1.35866940 1.22618604 0.50016880 30.0
0.83451968 0.69380808 0.78516376 30.0
-1.39010823 0.55088311 0.86567605 30.0
-0.43787485 0.47752342 0.48011807 30.0
1.16223311 0.84682071 -1.67009830 30.0
0.88127649 -1.51024532 -0.97265035 30.0
0.23445156 1.49160123 0.47307521 30.0
1.40503442 -0.16107377 -0.07364003 30.0
-1.33200932 -1.08143127 0.85489327 30.0
1.39610279 -0.97912854 0.36165938 30.0
1.33146322 1.30511248 -0.28034970 30.0
0.22487772 1.47888350 1.41319716 30.0
-1.26698804 -1.18923545 0.72526550 30.0
0.54857856 -1.21044374 -1.10599923 30.0
-0.76738739 -0.22461799 -1.13376737 30.0
0.14210606 -0.76611382 -1.13883209 30.0
1.42668641 0.79152161 0.56626141 30.0
-0.36954305 -1.10742748 -1.13086355 30.0
-1.38326812 -0.90881222 -0.10481349 30.0
-1.00297832 1.05706990 -1.38915682 30.0
-0.35136166 -1.52548540 -1.06537294 30.0
-1.32835031 1.27344334 0.35562396 30.0
1.38762343 -0.83620995 0.73684496 30.0
0.14147587 0.75441432 -1.14693999 30.0
-0.25311759 1.35601151 -0.80306947 30.0
1.39576280 -0.55090255 0.47938231 30.0
1.37426949 -0.87346506 -0.94440436 30.0
-0.81143260 1.39323008 -0.47091094 30.0
0.82506347 -0.69992107 1.46995974 30.0
1.30318046 0.79454350 -1.54359555 30.0
-0.19984667 -1.60127616 -0.29999858 30.0
-1.38341272 -0.29405713 0.13045011 30.0
-1.33500898 0.87600994 -1.28837776 30.0
-0.84100831 0.74446678 1.15488327 30.0
0.29067335 0.52856243 0.48245335 30.0
0.70696598 -1.35793006 0.45647603 30.0
-0.26323467 0.85900360 1.46484137 30.0
-1.32716441 1.27517211 0.72388011 30.0
0.60594934 1.51555133 1.30200088 30.0
-1.32611156 0.39445758 -0.96700102 30.0
1.01224411 -0.02332468 0.55714214 30.0
1.40789354 -0.12313369 0.56811309 30.0
1.01953506 -1.03903878 -1.49084973 30.0
-1.34276235 1.16703701 -0.28522998 30.0
-0.42917523 -0.28171217 1.18082380 30.0
1.40918267 -0.73487854 -0.11481009 30.0
0.96527439 -0.25363553 2.13006186 30.0
1.40822840 0.79151070 -0.57797122 30.0
0.97604561 0.77551997 -1.46188200 30.0
-0.40817836 1.28871262 1.40856755 30.0
1.06396127 -1.44682074 -0.54313618 30.0
0.44680002 -0.25800818 0.69909060 30.0
-1.40419590 0.39428991 0.16438217 30.0
-1.38081348 -0.06788021 0.72757941 30.0
-1.09560037 -0.93129081 1.11893654 30.0
-1.42420256 0.61673790 0.57072866 30.0
-0.38271153 0.68804622 -1.13494909 30.0
-0.74246454 -1.49718964 -0.04154561 30.0
-0.56749243 -1.13949299 0.95978612 30.0
-1.38231277 0.95587432 0.36193866 30.0
-1.30903709 -1.28776312 -0.03257635 30.0
-1.00825536 1.03937328 1.36237061 30.0
1.40000999 -0.69731444 0.46428415 30.0
-1.30938029 -0.29501572 -0.96481961 30.0
-1.00685358 1.11920953 -1.20961237 30.0
0.28431225 -0.24202707 1.81022644 30.0
0.67338300 1.40444541 -0.47056949 30.0
-0.09010596 0.47260183 -1.13429904 30.0
1.40110910 0.16674300 -0.30147883 30.0
-0.41933146 -1.14510703 0.95978612 30.0
1.10521662 -1.44293594 -0.04026685 30.0
-0.92548949 -1.46851754 -1.05642045 30.0
-1.39437592 0.16940960 0.58038795 30.0
-1.40543270 0.61733586 -0.59730089 30.0
-0.55515075 0.58260655 -1.13182616 30.0
-1.38713205 -0.76682538 -0.33538270 30.0
-0.42516449 -0.14421487 0.51553088 30.0
-1.30982149 -1.28776932 0.05626832 30.0
1.23479533 -1.37034929 -0.36622992 30.0
0.96215743 1.13048816 -1.18160272 30.0
-0.08469633 -0.67870444 1.55128932 30.0
-1.38831520 0.79151070 -0.57797122 30.0
1.34847486 -1.05593729 -0.94936275 30.0
-0.91866952 0.31619158 -1.13456774 30.0
-0.60350263 -1.15130877 -1.11681020 30.0
0.37129751 1.49857354 0.60941821 30.0
-1.30474758 1.25008750 1.04802060 30.0
-1.36123848 -0.37432539 -0.63809246 30.0
0.86206341 1.14791298 1.39477611 30.0
-0.59062451 0.56433523 0.48321593 30.0
0.08282243 1.47846377 1.41319716 30.0
-1.35601711 -1.10124910 0.07666617 30.0
-0.77936524 -0.25842199 1.23264384 30.0
-1.32650149 -0.90881222 -1.28988481 30.0
1.39242244 -0.94386750 -0.34437561 30.0
1.36840570 1.17054343 0.73227262 30.0
1.40080154 -0.94386750 0.09917294 30.0
1.26497793 0.41116655 0.87629783 30.0
-0.99146485 1.19381547 1.36806953 30.0
1.16480517 0.43464524 0.68437076 30.0
-0.70737243 -0.88308209 1.15228677 30.0
0.63559657 0.03477964 -1.13457561 30.0
-0.83333272 -1.32941997 -1.09764242 30.0
-1.11816299 1.10552073 -1.22045982 30.0
1.40123546 -0.94376701 0.27541780 30.0
-0.69127613 -0.23381400 1.82162035 30.0
-1.05055046 -0.16438180 -1.13419843 30.0
-1.37562072 -0.45215064 -0.08327617 30.0
-0.56964457 0.23985437 0.49854121 30.0
-1.39539337 -0.83728069 0.44556144 30.0
0.97517997 -0.58685189 1.66739428 30.0
-1.33624518 1.22618604 -0.05831379 30.0
1.41504383 -0.83758223 0.29147142 30.0
-0.77953792 1.38068283 1.40394807 30.0
0.96848643 -0.78803563 1.24439836 30.0
-1.31273043 1.31074607 0.15135048 30.0
1.39489770 0.99821973 0.15820518 30.0
0.64803296 1.41833198 -0.32065409 30.0
-0.32306349 -1.57448089 -0.96977276 30.0
-1.38168275 -0.29405713 -0.08069957 30.0
0.29086682 0.57001066 0.47592416 30.0
0.10022283 1.08499157 1.40010440 30.0
0.56659478 1.21784222 -1.03326976 30.0
-0.71760082 0.74697781 1.14659142 30.0
0.55840862 -1.55676138 -0.81769139 30.0
-0.98899126 -1.25295651 0.67164332 30.0
1.19438887 0.98257107 1.30630708 30.0
1.31576097 0.03360023 0.92772883 30.0
0.85142136 1.36194694 -0.71166396 30.0
0.14308494 0.69098330 -1.13494909 30.0
1.34969115 -1.22528028 0.43464097 30.0
-0.07645810 1.34717262 1.41021252 30.0
0.09802702 1.28696907 1.40856755 30.0
0.49603093 1.49076092 0.47307521 30.0
-1.36122370 -0.69686592 -0.61912465 30.0
-0.76886785 0.17733333 -1.13459146 30.0
-0.97950172 0.66987103 -1.26534951 30.0
1.41938365 0.79326659 0.85420036 30.0
0.08028913 -1.62842810 -0.39046577 30.0
1.39313817 0.99837691 0.75386381 30.0
1.40080154 -0.94386750 0.09917294 30.0
-0.86136317 -1.51024532 -0.97265035 30.0
-0.78421307 -0.25881499 2.13618779 30.0
-1.39240766 0.87600994 -0.05955949 30.0
0.87544751 -0.94968265 1.12628293 30.0
-1.02562308 -1.41024411 0.15799694 30.0
-1.38361347 0.88022351 0.94921279 30.0
1.16115367 -0.84875458 -1.63071513 30.0
0.08000602 -1.62483704 -0.51126629 30.0
1.21946120 -0.51881158 1.67378879 30.0
-1.19346142 -0.74747080 1.22829115 30.0
-0.57044280 -1.09238517 1.02352774 30.0
-1.11193633 -0.22508377 0.87003630 30.0
-0.24492781 1.34811687 1.41021252 30.0
1.43561769 0.48478249 0.56838644 30.0
1.08707952 0.72642833 1.09918976 30.0
0.97517997 -0.58685189 1.66739428 30.0
-1.10401726 1.40473354 0.47697547 30.0
0.69891596 -0.02003591 0.50909668 30.0
-1.41806102 0.61680508 0.73140323 30.0
1.26497793 0.41116655 0.87629783 30.0
1.28245091 -0.91194850 -1.55254579 30.0
1.24112391 -1.38208938 -0.11624309 30.0
0.10428187 0.48249653 0.48011807 30.0
-0.70763284 1.06187224 1.40010440 30.0
-0.12156657 -0.78700584 -1.14027286 30.0
-1.25900853 -0.98260063 -1.48279822 30.0
0.95420128 -1.04859746 -1.39712644 30.0
-0.89695096 1.14014208 -1.14045298 30.0
-1.37553084 -0.97920889 0.07613301 30.0
0.10160474 -0.14419833 0.51553088 30.0
0.43924481 -1.14510703 0.95978612 30.0
-1.33704114 1.22854364 0.72779000 30.0
-1.27818763 1.34710431 0.12869462 30.0
-1.38009679 -0.69731444 0.46428415 30.0
-0.48045737 1.43806922 1.41261113 30.0
0.49600771 1.50507188 0.82786870 30.0
-0.58098871 -0.77887148 1.32809258 30.0
1.39788461 0.92005074 0.92743576 30.0
1.32345247 -0.45404935 -0.96188611 30.0
1.40169752 0.03035278 0.72851813 30.0
1.12927461 1.36179507 -0.47723499 30.0
0.45912337 -1.60624647 -0.39046577 30.0
0.55840862 -1.55676138 -0.81769139 30.0
-0.06290910 1.47846377 1.41319716 30.0
0.95387423 -1.15202200 -1.14055324 30.0
1.02677739 1.42390478 1.31199372 30.0
1.37096119 0.66940981 0.98020190 30.0
-0.55551124 -1.57552123 -0.29999858 30.0
-0.08132248 0.99991721 1.41806054 30.0
-0.62860709 0.46539241 -1.13429904 30.0
1.33863509 1.21474802 -0.56130868 30.0
-1.05747855 0.64579791 -1.23145878 30.0
0.47508779 0.18025173 -1.13459146 30.0
-1.35250926 -0.73453283 -0.92462599 30.0
1.36267555 1.16703701 -0.28522998 30.0
-0.61075819 0.64038587 -1.13066030 30.0
-0.35138422 1.50644302 0.82786870 30.0
-0.27900752 0.18150671 -1.13459146 30.0
0.23442683 -1.53288984 -1.06537294 30.0
0.21976000 -1.60127616 -0.29999858 30.0
-1.36771023 -0.83620995 0.73684496 30.0
0.86344635 -1.20899475 0.80511308 30.0
-0.91770411 -0.71336001 -1.14833641 30.0
-0.60238045 1.12148070 -1.11904955 30.0
1.40288258 0.70313364 -0.92014039 30.0
0.73243755 -1.08551121 1.02352774 30.0
-1.39049053 -0.87346506 0.10351093 30.0
-0.60446024 -0.88280094 -1.15563142 30.0
-0.71592242 -1.03913045 1.07326913 30.0
-0.94299001 0.86603779 -1.52118909 30.0
-0.98555547 0.78077531 1.38366747 30.0
-0.33200979 1.51285994 1.40417671 30.0
-1.14925218 -1.12317514 -1.15380132 30.0
1.32929337 -0.29501572 -0.96481961 30.0
-0.82345319 1.46410286 0.60455239 30.0
0.37143436 1.46122658 0.08482401 30.0
0.39037305 1.12680078 -1.11904955 30.0
-1.15567529 1.11636543 1.30122042 30.0
-1.38458741 -0.87177628 0.56075251 30.0
1.25198555 -1.29023159 -0.99205673 30.0
0.93543345 0.62304127 0.58723456 30.0
-1.42420256 0.61673790 0.57072866 30.0
1.38404083 -1.05707026 0.54073548 30.0
0.08583714 1.51558125 1.10826719 30.0
-1.02758408 1.44509137 1.20040786 30.0
1.30466795 -1.28560984 -0.78575534 30.0
1.22688293 -0.93818021 1.08689153 30.0
-0.55551124 -1.57552123 -0.29999858 30.0
-1.14489174 0.43464524 0.68437076 30.0
0.39102429 0.88918763 -1.15843058 30.0
-1.31584954 -0.86550647 0.89682847 30.0
-0.80618817 -0.73298758 1.40060842 30.0
-0.57632095 0.38131607 0.49025521 30.0
-0.12102085 -0.72734028 -1.13022840 30.0
0.23445156 1.49160123 0.47307521 30.0
1.36772609 -1.14590514 0.01848805 30.0
-0.93723696 -1.10843670 -1.27600527 30.0
1.35299480 -0.69941753 -0.93413711 30.0
-0.41501248 1.33008814 -0.86429524 30.0
-1.22757196 1.36381233 0.71713966 30.0
-0.07240970 1.39754772 1.41149485 30.0
-1.00426364 -0.89490104 -1.64331079 30.0
0.21695843 -1.63280284 -0.48910901 30.0
-0.94849950 0.82145339 -1.50420070 30.0
-1.00426364 -0.89490104 -1.64331079 30.0
-1.38132226 -0.94376701 0.27541780 30.0
-0.59020555 0.52293730 0.48974508 30.0
1.37426949 -0.87346506 -0.94440436 30.0
0.42809173 1.28871262 1.40856755 30.0
0.84336650 1.46410286 0.60455239 30.0
1.40858150 -0.73487854 0.31039849 30.0
-0.93066186 -0.55771369 -1.12891996 30.0
1.40539968 -0.21583642 0.13557160 30.0
0.39010242 -1.13537300 -1.12393320 30.0
-0.57044280 -1.09238517 1.02352774 30.0
1.35859454 1.22618604 0.35725152 30.0
1.39553392 -0.45215064 -0.08327617 30.0
0.82968014 -0.75600743 -1.15281022 30.0
-0.57554907 -1.00269520 1.10636973 30.0
-1.02562308 -1.41024411 0.15799694 30.0
0.13207848 -0.66686642 -1.12772405 30.0
0.85436380 1.34027326 -0.80281347 30.0
-0.99866116 -1.07173252 -1.41397655 30.0
-0.45515755 0.03527366 -1.13457561 30.0
-1.38458741 -0.87177628 0.56075251 30.0
0.08492707 1.52313733 1.30200088 30.0
-1.39340413 0.83455330 -0.28748536 30.0
1.15538180 0.92957217 -1.62463987 30.0
1.40678072 0.16697189 -0.05967145 30.0
-0.81522536 1.33177674 1.40266573 30.0
-1.30938029 -0.29501572 -0.96481961 30.0
-0.96538007 0.57034975 -1.13663721 30.0
0.56907916 -1.59600210 -0.39046577 30.0
-1.32375991 0.77118891 1.13145387 30.0
-0.38055614 0.71441603 -1.14024508 30.0
-0.56651324 1.06917632 1.40010440 30.0
-1.05011559 0.66294736 -1.31203413 30.0
1.21930826 -0.67749888 1.37422705 30.0
0.59308606 -1.04569817 1.07326913 30.0
-0.77664131 -0.23620372 0.76975429 30.0
-0.19536142 -1.57248831 -0.57831210 30.0
-0.21654256 1.43837452 1.41261113 30.0
0.10944551 -0.47923291 -1.13085926 30.0
1.37793779 -0.76675630 -0.93077368 30.0
0.27381963 -1.23918688 0.80511308 30.0
1.40694702 -0.73487854 0.46095610 30.0
0.58642662 1.06917632 1.40010440 30.0
0.91073865 -0.94735467 -1.31618392 30.0
-0.99233079 -0.02332468 0.55714214 30.0
0.26008886 1.39585292 -0.59996587 30.0
1.32764781 -0.79724681 0.97631007 30.0
1.39583552 0.39400294 0.87702209 30.0
-0.92990988 1.46010613 1.30315840 30.0
0.37016079 -0.66438037 -1.12772405 30.0
-1.02672350 0.45301068 0.57245511 30.0
1.25038934 1.35838985 0.48453823 30.0
-1.00493574 0.94100136 -1.60798812 30.0
-1.19159806 0.17005803 -1.11290646 30.0
-1.37123811 -0.63804889 0.61891717 30.0
1.42530632 0.79187697 0.72274345 30.0
1.40164733 0.95587415 0.15816332 30.0
-1.30938029 -0.29501572 -0.96481961 30.0
-1.38062465 -0.12549308 0.72866005 30.0
1.40288258 0.70313364 -0.92014039 30.0
1.25153100 0.32211423 0.87332147 30.0
0.40262482 0.68804622 -1.13494909 30.0
-0.42355430 -1.05083132 1.07326913 30.0
1.32192457 -0.69308364 1.13570249 30.0
0.23108549 1.52337861 1.30200088 30.0
-0.70121431 -1.21942186 0.80511308 30.0
-1.10705483 -1.30275941 -1.08395576 30.0
0.81985998 0.78791893 -1.18172371 30.0
-1.06195223 -0.69542462 1.41267860 30.0
-0.84353310 -1.20899475 0.80511308 30.0
0.28630286 -0.75083929 1.40060842 30.0
0.44786823 0.90134734 1.44550967 30.0
-0.36988151 1.09533572 -1.12854254 30.0
-0.78154546 -0.22637376 1.83378088 30.0
1.17743909 -0.90183514 1.09896433 30.0
0.08606464 1.49780643 0.60941821 30.0
-0.26841319 -0.51394266 1.85298467 30.0
0.81474978 -1.43292832 0.18430382 30.0
-0.98348629 1.25653160 1.37083375 30.0
-0.06614660 -1.53885865 -1.06537294 30.0
-1.18497729 -0.37897077 -1.11041093 30.0
-1.05011559 0.66294736 -1.31203413 30.0
1.37871313 0.87600994 -0.92734665 30.0
1.29907143 1.09608912 -1.12800193 30.0
0.39557776 0.64379686 -1.13066030 30.0
-0.34598330 1.52367795 1.30200088 30.0
1.38108790 1.04851770 -0.28501725 30.0
-0.76453161 -0.38916585 -1.13217759 30.0
0.93587804 0.03334409 -1.13457561 30.0
0.37131479 1.49205840 0.47307521 30.0
1.34809661 1.27378893 0.60222316 30.0
-1.15949476 0.75821358 -1.58845997 30.0
-0.47837889 1.44024360 -0.14079998 30.0
0.51194334 0.51418090 -1.13352895 30.0
-0.08359527 0.70068491 0.73267323 30.0
1.38750124 -0.90591568 0.68777490 30.0
