-1.07741117 -1.06166565 0.58797330 15.0
1.35132957 -0.05726186 -0.33465046 15.0
0.90828276 -1.12295198 -1.19003224 15.0
1.30169094 -0.95486152 -1.10859406 15.0
-1.46284389 -0.73992568 -0.36027783 15.0
0.53016764 0.71938473 -1.05865026 15.0
-1.43482733 -1.02612841 0.01436502 15.0
-1.44341731 -1.23682725 -0.36796662 15.0
-1.45542002 -0.81111956 -0.36012083 15.0
1.16698360 -1.14584768 0.54779631 15.0
0.50917959 -1.54692805 0.03241732 15.0
-1.44735003 -0.91907740 -0.14722215 15.0
0.73231357 0.45760447 -1.03742313 15.0
-1.46126699 0.53939545 0.52628845 15.0
0.91188914 1.20364451 1.48551834 15.0
-1.06620812 -0.36177760 1.49494469 15.0
-1.04056883 -1.52912962 -0.11222420 15.0
1.25705731 -0.84859866 -1.26735318 15.0
-1.16327965 1.41644096 0.29956183 15.0
-1.07582724 0.10885850 -1.01360929 15.0
-1.29220319 0.67362809 1.28998435 15.0
1.28170037 1.36414337 -0.17179038 15.0
0.99123853 -0.35287127 -1.01243293 15.0
0.02771976 1.40142059 0.76880950 15.0
1.39362752 0.76226211 0.19459346 15.0
-1.20244014 -1.41706657 -0.95858055 15.0
1.35230160 0.80732447 -0.82197446 15.0
-1.17716575 -0.39677337 1.33160877 15.0
-0.87331104 -0.15154831 1.67926633 15.0
1.26918745 -1.06348181 0.52444452 15.0
1.38360107 -0.77877766 0.26232827 15.0
1.39702082 -0.58145195 0.29497346 15.0
0.65593851 0.17430380 1.73467851 15.0
-1.04157567 -1.51998580 -0.04360410 15.0
-0.62225193 0.56647873 1.75618041 15.0
0.03381123 -0.36007303 -1.07735968 15.0
0.17454928 -1.51497269 0.26284626 15.0
0.89031798 -0.22160047 1.63773870 15.0
-0.36096039 0.93842214 -1.09126914 15.0
0.36876607 0.41343087 -1.06104612 15.0
-0.61552680 0.86001986 1.77364004 15.0
-1.46366405 -0.81111956 0.14499666 15.0
0.56287366 -0.51123369 -1.04682684 15.0
-1.28120804 1.13237381 -1.09324157 15.0
-0.78780919 -0.05717364 -1.03788280 15.0
0.85805082 0.36645418 -1.02563512 15.0
-0.11329331 -1.58608425 -0.57130373 15.0
-1.40952492 1.09857273 -0.54642671 15.0
-1.04049098 1.42693603 -0.07580356 15.0
-1.30895829 1.29924941 -0.83432823 15.0
-0.67283583 -1.28761518 -1.02431309 15.0
-0.27253738 -0.81806839 0.69813150 15.0
-1.02503026 -1.49349892 -0.96019316 15.0
-1.44177353 -0.34722203 0.32970357 15.0
-1.40869856 -0.95486152 -0.84516710 15.0
-0.14574142 1.10736537 -1.07567406 15.0
0.70401764 0.19737844 -1.03790796 15.0
0.52752268 0.73795640 -1.06143141 15.0
-0.42780438 1.44537950 -0.40050566 15.0
0.72642934 -1.06782639 -1.08225060 15.0
-0.74881285 -1.58082223 -0.28085157 15.0
-0.61068535 -1.32586300 0.50184929 15.0
-0.26272279 -0.29689902 1.63760865 15.0
-0.41550842 1.44383430 0.36948597 15.0
-1.40002084 1.05884588 -0.80964619 15.0
-0.27070558 -0.44855487 1.44744599 15.0
0.03363179 -0.78117555 0.74386239 15.0
-1.09162569 0.78212374 1.71491826 15.0
-1.37076545 -0.41671070 0.74712110 15.0
1.28363764 -1.23908150 -0.86789560 15.0
0.90330952 0.34356830 1.72354770 15.0
-1.45153832 0.43810949 0.34403810 15.0
-1.38080144 -1.19561923 0.48567063 15.0
0.03075699 0.35422426 1.78319001 15.0
-1.43178976 -0.99035007 -0.34864393 15.0
-0.86999279 -0.07584825 1.69511890 15.0
1.35175407 -1.02612841 0.14376326 15.0
-1.44986725 -0.91907740 0.04151590 15.0
1.36436152 0.97841758 0.31647453 15.0
-0.43673557 -0.96827853 0.63359058 15.0
1.00463724 0.82565749 1.71932614 15.0
0.97269344 -1.00863075 -1.39486122 15.0
-0.27312165 -0.78113520 0.74192125 15.0
-0.90559250 1.44036782 0.15811677 15.0
0.67733753 1.43965757 -0.23735598 15.0
-0.78719670 -0.74288893 0.79148597 15.0
1.35043335 1.05871606 0.02514336 15.0
-0.60534722 1.04295361 1.77793193 15.0
-1.05794656 -0.97244507 -1.41938388 15.0
0.90828276 -1.12295198 -1.19003224 15.0
0.82462138 0.98440439 1.76374578 15.0
1.36304319 -0.77477336 0.52819890 15.0
1.33875227 0.27830619 -0.59896427 15.0
-1.43434095 -0.34722203 -0.33965290 15.0
0.88507760 -0.15058559 1.66592622 15.0
-0.90478796 1.33505356 -0.99723095 15.0
-1.34592569 -1.48397851 -0.61480522 15.0
-0.26357967 1.45035064 -0.57741988 15.0
0.78482276 0.08864772 1.71531475 15.0
0.02894379 -1.46948671 0.38516796 15.0
1.26200283 -0.57745504 0.85449374 15.0
-0.44393870 -0.70664197 0.88600951 15.0
-0.58221400 -1.56597376 -0.91518152 15.0
-1.19229805 1.06934214 -1.28091800 15.0
-0.29495239 1.30636036 -1.04478300 15.0
0.99070895 0.87012613 -1.40976715 15.0
-0.14657263 0.69076610 -1.07517719 15.0
1.35836661 -0.13561285 0.34562856 15.0
1.22905862 1.39155364 -0.20159307 15.0
-0.61982554 -0.78011364 0.73656154 15.0
-1.42996001 -1.06359291 0.23911589 15.0
-0.27383757 0.02811552 -1.07142198 15.0
0.67609066 1.44546056 0.22965419 15.0
-1.19268489 1.02976894 -1.34197211 15.0
-1.38938189 0.80734318 0.85805732 15.0
1.39036512 -0.67302692 -0.17988929 15.0
-0.96316892 0.00402405 1.69203198 15.0
1.07237160 -0.32731140 1.41174912 15.0
-1.44412208 0.41242751 0.19369453 15.0
0.34252381 -1.40012908 0.45985737 15.0
-0.37221405 0.71944737 -1.06892264 15.0
1.33247375 -1.17487776 0.41024363 15.0
-1.22624171 1.03821039 1.55833483 15.0
1.00617075 0.59984207 1.70594418 15.0
0.99589169 0.14866021 1.66103983 15.0
-0.81800354 1.29748213 -1.01185608 15.0
-0.88422638 -1.55897844 -0.65549290 15.0
-1.40444410 -0.67865598 -0.84404385 15.0
0.51774585 1.44858634 0.18371300 15.0
1.35211825 -1.19488502 0.18795966 15.0
-1.36334562 -1.46596408 -0.02118685 15.0
-1.37834084 1.33267689 0.16771320 15.0
1.05809748 0.64799362 1.68007386 15.0
1.02507567 -0.59170157 -1.00908279 15.0
0.18557276 0.43190098 1.77323878 15.0
0.72719485 -0.99348491 -1.09145260 15.0
-1.46371043 0.48362234 -0.14593013 15.0
-0.27372542 0.49215874 1.77248764 15.0
-1.02668166 1.36006725 -0.97331285 15.0
0.02918156 -1.58193326 -0.69218314 15.0
-0.42393813 1.20407283 1.62314904 15.0
-0.54339665 1.25165379 -1.03767109 15.0
0.16988213 1.42489648 0.62115711 15.0
0.36888775 -1.33355880 -1.03336346 15.0
-0.14805703 0.80110723 -1.08892798 15.0
1.35712707 -0.95085561 0.42955118 15.0
1.29238057 -0.87727636 0.58203316 15.0
1.35043335 1.05871606 0.02514336 15.0
0.53772700 0.62630528 1.75905824 15.0
0.17647588 -1.58599901 -0.56667250 15.0
0.88420844 -0.75337547 -1.04894698 15.0
1.28251946 0.43661937 0.85225761 15.0
-0.11271367 0.09097287 1.76022887 15.0
-0.27376619 -0.13900484 -1.07131100 15.0
0.97764552 1.07952261 -1.28719819 15.0
-0.66684097 1.30442655 -1.02362692 15.0
-0.59357584 1.17321551 -1.04949105 15.0
-0.27191326 -0.85605669 0.66996551 15.0
-0.78845263 -0.70248806 0.87989217 15.0
0.03344085 -0.81811076 0.69985241 15.0
1.35887837 -0.05726186 0.19388936 15.0
-1.44071066 0.97841340 -0.32279328 15.0
-0.14856556 -0.79640603 -1.08214903 15.0
-0.43544829 -1.00565577 0.62139326 15.0
-1.47719133 -0.67302692 0.27752444 15.0
1.37657332 0.89580405 0.34025329 15.0
-0.82509965 -0.84478283 -1.07719553 15.0
-0.42393813 1.20407283 1.62314904 15.0
0.99108887 -0.21222450 -1.01330924 15.0
-0.59327465 1.45195162 -0.73885477 15.0
-0.58339489 0.09075128 1.73284101 15.0
1.11546385 -0.89137089 -1.39377415 15.0
-1.37361515 0.72760725 -1.15891492 15.0
0.91110718 1.19474411 -1.03016758 15.0
0.03256745 -0.96840239 0.63701814 15.0
-1.45151937 -0.74029517 -0.58269322 15.0
-0.14856556 -0.79640603 -1.08214903 15.0
-1.44735003 -0.91907740 -0.14722215 15.0
1.37678456 -0.81111956 -0.18784252 15.0
1.34311187 0.41115588 0.52237982 15.0
-1.44363248 0.41260472 0.02482020 15.0
0.93546033 0.83765984 1.74137819 15.0
0.85262918 -0.80639720 0.69169337 15.0
0.93068159 0.92915928 1.74864149 15.0
-0.96858889 0.45316315 -1.02515912 15.0
1.36244869 -0.41671070 -0.33949995 15.0
-1.28786147 0.76620382 1.29056799 15.0
0.03031109 1.39359927 -1.03667867 15.0
-1.33659589 -1.13975012 -1.01064467 15.0
0.89856672 -0.29080126 1.59059477 15.0
1.34766185 0.72183168 -1.02970457 15.0
1.20778000 0.72297543 1.29003596 15.0
0.17118575 1.40133882 0.76674390 15.0
0.67851627 1.44087493 -0.08519269 15.0
0.92166501 0.87858617 -1.32274318 15.0
1.33867836 0.35447964 -0.59895504 15.0
-1.44144845 -1.33553624 -0.19721597 15.0
-0.62053764 -0.28861600 -1.04921019 15.0
0.56287366 -0.51123369 -1.04682684 15.0
-0.58424777 -0.07607891 1.71233332 15.0
-1.41274488 -1.10483289 -0.42045176 15.0
0.52398318 -1.04348171 0.60482752 15.0
1.14988017 0.10957639 1.27202702 15.0
-1.42695665 0.41115588 0.52237982 15.0
0.69067591 0.94864023 1.77198517 15.0
0.17704783 -1.53795660 0.13436316 15.0
-0.30924112 -0.60473758 -1.06671917 15.0
1.33416212 0.93776125 -0.82370871 15.0
0.82100117 1.02752709 1.75972056 15.0
1.33416212 0.93776125 -0.82370871 15.0
1.38781321 0.54040688 -0.33306685 15.0
1.36269045 -0.88285261 -0.35842028 15.0
0.04122251 0.56695896 -1.07680321 15.0
1.30646145 -0.91907740 -1.10924816 15.0
-0.42636859 -1.40012908 0.45985737 15.0
1.26589429 -0.81369311 -1.22319436 15.0
-0.36498895 -0.84589601 -1.07998002 15.0
1.27076674 0.35235670 0.85159743 15.0
-0.59218705 1.10720634 -1.05825293 15.0
0.03053610 1.16917622 1.70843530 15.0
1.16944540 -0.73925209 -1.03516746 15.0
0.06251218 -0.91963512 -1.09619462 15.0
-1.01400113 1.05747128 1.73190045 15.0
0.65790701 -1.57195401 -0.66480559 15.0
-1.41914999 1.14105582 0.02521637 15.0
-1.46284389 -0.73992568 -0.36027783 15.0
-0.35961336 1.10730004 -1.06852245 15.0
0.53016764 0.71938473 -1.05865026 15.0
-1.12452722 0.43248516 1.67101347 15.0
1.14471436 0.77262104 -1.29347706 15.0
-1.24015820 0.28070912 1.27921271 15.0
-1.42782807 1.09857273 0.29998836 15.0
0.82462138 0.98440439 1.76374578 15.0
1.38094008 0.60692233 -0.58353835 15.0
0.75568616 0.73689139 -1.05967557 15.0
0.35974208 0.62722254 1.76954889 15.0
-0.35964769 -1.13906217 -1.06833601 15.0
-1.45064938 -0.91907740 0.29091176 15.0
1.33965456 -0.13561285 0.52351725 15.0
-0.61789650 -1.26853383 0.53136337 15.0
-0.92594171 0.48366854 1.73401856 15.0
0.82066125 1.43422604 -0.23098190 15.0
0.65593851 0.17430380 1.73467851 15.0
-1.35133553 1.18997490 0.65335327 15.0
1.27796173 -1.19416881 -0.86075974 15.0
1.29763067 0.97842389 0.81498957 15.0
0.92370498 0.41927162 1.72084284 15.0
1.35638452 0.39326212 -0.14599407 15.0
-0.78193492 0.81051069 1.75986338 15.0
0.88420844 -0.75337547 -1.04894698 15.0
-1.07390571 -0.28345633 -1.01296413 15.0
-1.43532574 0.27830619 -0.33430907 15.0
0.17704783 -1.53795660 0.13436316 15.0
0.18584703 0.95523632 1.80218601 15.0
-1.31473827 1.39601851 0.15786992 15.0
0.74370831 -0.75692570 -1.04922509 15.0
-1.48231578 0.71903795 0.19476624 15.0
0.65759104 1.26797140 1.33273709 15.0
1.10963511 0.98915368 -1.38896024 15.0
-1.29422712 1.37132072 -0.79238605 15.0
-1.19578636 0.94808090 -1.41830969 15.0
-0.26482794 1.12888229 1.75317776 15.0
1.29453838 1.33280349 0.26535463 15.0
0.03214236 1.00077927 1.81039894 15.0
0.52684051 -1.32586300 0.50184929 15.0
0.03653806 0.43370214 -1.07836425 15.0
-0.77898014 -0.69704056 -1.04484034 15.0
1.23383665 -1.02872813 -1.26310444 15.0
0.03243682 -1.32772911 0.50441778 15.0
0.52150244 1.04295361 1.77793193 15.0
-1.09001565 0.59984207 1.70594418 15.0
-1.41460109 0.80732447 -1.08553874 15.0
-1.26597285 -0.56146747 1.04934072 15.0
1.38560665 0.80732447 -0.14544922 15.0
-1.43930531 -0.20928448 -0.15614901 15.0
0.87440044 0.84012073 -1.16622698 15.0
1.34010196 0.10561369 0.52364284 15.0
0.51765311 -0.84583288 -1.06962788 15.0
0.18679926 0.90836948 1.79885244 15.0
0.36021340 0.56731606 1.76664877 15.0
0.82588500 0.42433810 1.73474741 15.0
0.93546033 0.83765984 1.74137819 15.0
1.27076674 0.35235670 0.85159743 15.0
-1.15368330 1.33884788 0.71254957 15.0
-1.41451931 -1.00610209 0.47278821 15.0
1.09165704 -1.15047085 -1.09471226 15.0
0.50742900 -1.58860648 -0.28714025 15.0
1.31493795 -0.58497792 -0.84993768 15.0
0.22539635 -0.60473758 -1.06671917 15.0
-0.87774330 -0.22331452 1.65078914 15.0
0.66782510 -1.54603910 -0.05248141 15.0
-1.10886467 0.55194199 -1.01189995 15.0
1.39309549 0.76226133 0.02493872 15.0
1.08755326 1.41924214 -0.53930068 15.0
-1.06620812 -0.36177760 1.49494469 15.0
-1.05594015 -1.11382580 -1.23741174 15.0
-1.04016066 1.43154836 0.12561610 15.0
-1.36307466 0.18867728 -0.85864300 15.0
-1.23506868 0.69658720 -1.08535671 15.0
0.50912911 0.98218018 -1.07372046 15.0
0.34252381 -1.40012908 0.45985737 15.0
-0.43673557 -0.96827853 0.63359058 15.0
-1.35509002 -0.34722203 0.78470594 15.0
0.03363179 -0.78117555 0.74386239 15.0
-0.61125237 0.95379961 1.78109133 15.0
0.17911534 1.39351797 -1.02972198 15.0
-1.34024179 1.19267690 -0.82411402 15.0
-1.06815219 0.91455656 -1.42831373 15.0
1.37059104 -1.27923977 0.11742136 15.0
0.03214236 1.00077927 1.81039894 15.0
-1.00550985 0.87858617 -1.32274318 15.0
-1.44071066 0.97841340 -0.32279328 15.0
-1.38391030 0.93778408 0.83795464 15.0
0.17730741 1.23696065 1.52819026 15.0
-0.11666691 0.90842360 1.80610144 15.0
0.78614807 -0.07584825 1.69511890 15.0
-0.58492070 1.21376085 -1.04043221 15.0
0.87539822 -0.84078538 -1.14075017 15.0
-1.44255006 -0.05726186 0.34664154 15.0
1.33951819 1.01861262 -0.54792809 15.0
0.34416676 1.12878680 1.74309742 15.0
0.97784966 1.03978932 -1.34617066 15.0
-1.44039071 -0.84648204 -0.57596689 15.0
1.13953257 -1.34728670 -0.96071643 15.0
-0.59246051 1.42118299 -0.96620125 15.0
1.03555119 -0.37426889 1.44681919 15.0
1.34250438 -1.02612841 -0.36174956 15.0
1.24030280 1.02151287 -1.25872052 15.0
-1.39060307 -0.49414402 -0.85456645 15.0
-0.48260942 0.56687355 -1.05936849 15.0
1.33995473 0.41260472 -0.59885013 15.0
0.98430735 0.91455656 -1.42831373 15.0
0.34589633 1.44936836 0.14964843 15.0
0.03016056 1.45302415 -0.76130164 15.0
-0.95184666 0.88671231 -1.18385375 15.0
-1.42452645 0.27762523 0.52360958 15.0
0.27765214 -0.91958702 -1.08894050 15.0
-1.41980350 1.14105582 0.29701564 15.0
0.80900759 -1.56775904 -0.27415732 15.0
0.03005412 1.42298019 -0.99323201 15.0
1.39432669 -0.58145195 -0.17015132 15.0
-1.20402265 -1.53567541 -0.38813442 15.0
0.70336568 -0.21494743 -1.03759968 15.0
1.34545147 -0.73583007 0.58925533 15.0
1.40104997 0.60540658 0.19451107 15.0
0.27715409 -1.18826199 -1.05664504 15.0
0.03132393 1.08699644 1.79193175 15.0
-0.11943039 -1.33373237 -1.05047786 15.0
-0.11282634 0.17584723 1.77110779 15.0
-0.78594118 0.69157130 1.75248706 15.0
-1.05658114 -1.04511178 -1.35277677 15.0
0.28588638 -0.78157586 -1.07221258 15.0
1.27719796 -1.48259509 -0.16655101 15.0
-1.44159341 -0.20928448 0.18688092 15.0
-0.59122461 -1.06917465 -1.07150984 15.0
1.35800600 0.41260472 -0.14598459 15.0
-0.37068701 0.73802054 -1.07172394 15.0
-1.45058298 -0.91907740 0.35037157 15.0
-0.11770485 0.62731618 1.78697503 15.0
1.36967075 0.80732447 -0.55113286 15.0
1.30354953 1.29585528 0.17909972 15.0
-1.08738637 -0.79886395 -1.24502492 15.0
-1.43967664 -0.27914423 0.00744492 15.0
-0.25877613 -1.46940792 0.38501936 15.0
-1.29006386 1.10197258 1.16179383 15.0
0.16997640 1.43758535 0.48387298 15.0
0.02963543 -1.53803945 0.13325277 15.0
-1.44281423 0.35431984 0.19388744 15.0
-0.42925325 1.44313347 -0.24833384 15.0
0.94118541 -1.49349892 -0.96019316 15.0
0.03334922 -1.22598052 0.55363202 15.0
1.32319701 1.19206262 -0.14434831 15.0
-0.41772345 -0.07610095 1.72246230 15.0
1.20069158 1.14289427 1.09087873 15.0
1.35049605 -0.34722203 -0.33965290 15.0
-0.78780919 -0.05717364 -1.03788280 15.0
-0.75286889 1.38445878 -0.99712902 15.0
-1.44164562 1.01861298 0.18445367 15.0
0.80038154 -1.55897844 -0.65549290 15.0
-1.18697333 1.41765511 0.13048039 15.0
1.30169094 -0.95486152 -1.10859406 15.0
-1.35043132 1.36603498 0.33245772 15.0
-0.78731841 -0.35810331 -1.03670931 15.0
0.66496801 -1.58082223 -0.28085157 15.0
0.81455088 -0.36463654 1.53062224 15.0
0.95664620 1.42693603 -0.07580356 15.0
0.03124779 1.44957685 0.14711235 15.0
1.07943487 1.41644096 0.29956183 15.0
1.11641896 -1.53103411 -0.51780635 15.0
-0.53512514 -1.24733853 -1.03753245 15.0
1.27796173 -1.19416881 -0.86075974 15.0
-1.43596315 -1.19488502 0.18795966 15.0
-1.15368330 1.33884788 0.71254957 15.0
1.35880888 0.10561369 0.34517217 15.0
-0.44287032 -0.28892228 -1.06046617 15.0
-0.76118231 1.43965757 -0.23735598 15.0
-0.11116932 1.43766987 0.48451802 15.0
1.34008479 -0.93483251 0.49531993 15.0
-1.35251975 0.27719992 0.85084689 15.0
-1.47719133 -0.67302692 0.27752444 15.0
0.51774585 1.44858634 0.18371300 15.0
-0.97116613 1.23205256 -1.00765359 15.0
-1.06176126 1.14448667 -1.14483273 15.0
1.34333706 1.09857273 0.02517758 15.0
0.70460790 -0.70248806 0.87989217 15.0
-0.90292037 1.43998992 0.23254444 15.0
0.73231357 0.45760447 -1.03742313 15.0
-0.11727930 0.47182354 1.77897584 15.0
-0.81800354 1.29748213 -1.01185608 15.0
1.26738453 -1.48700464 -0.49693415 15.0
1.35760379 -1.33553624 -0.19721597 15.0
0.67341286 0.35151160 1.74643373 15.0
0.22539635 -0.60473758 -1.06671917 15.0
1.28552830 -1.29355645 0.43689677 15.0
-1.11939597 -0.37426889 1.44681919 15.0
1.36680460 -0.91907740 0.29091176 15.0
-0.89005888 1.24323583 -1.01703346 15.0
-1.04310250 0.70779043 -1.07896936 15.0
-0.14761986 -0.75795341 -1.07495582 15.0
0.98247677 1.35090053 0.74132627 15.0
-0.82939935 -0.81601042 -1.06979454 15.0
-0.44429874 -0.63689923 1.04828012 15.0
1.10161114 1.41206121 -0.21894971 15.0
-0.27340654 -0.28894070 -1.07075179 15.0
-1.43427825 1.05871606 0.02514336 15.0
1.14239693 1.03821039 1.55833483 15.0
-0.92440253 -0.99117297 0.61911750 15.0
0.93004501 0.97347426 1.74954641 15.0
-0.59195447 1.44312739 -0.87890875 15.0
-1.43473089 -1.19488502 -0.08410905 15.0
0.18288459 -1.46026576 -1.02798295 15.0
-0.25839406 -1.51497269 0.26284626 15.0
0.51287889 -1.39833868 0.45943084 15.0
-0.11509258 1.44957685 0.17986712 15.0
-0.66684097 1.30442655 -1.02362692 15.0
0.69617611 0.85533786 1.76458931 15.0
0.94065464 -1.48059165 0.26838866 15.0
1.22976124 1.39623249 0.19789661 15.0
0.35853213 -0.78107727 0.73913407 15.0
1.26636803 -0.20928448 0.82705981 15.0
0.94122565 0.67705733 1.72949255 15.0
-0.27182540 -1.39056158 -1.03940988 15.0
-0.43014470 1.08684003 1.77444541 15.0
-0.43448249 1.00063491 1.79268801 15.0
-1.47922766 0.53978723 0.34590289 15.0
-0.93647403 -0.80639720 0.69169337 15.0
-1.44817770 -0.77877766 -0.57533455 15.0
0.67341286 0.35151160 1.74643373 15.0
-1.45082629 -1.23682725 -0.02656062 15.0
0.50253832 -0.15285315 1.69623625 15.0
-1.46761417 0.66981888 0.52969211 15.0
1.25328588 -1.48162973 -0.75390464 15.0
-0.98715436 0.34356830 1.72354770 15.0
-1.45422053 -1.27923977 0.01379841 15.0
0.35902557 -0.28892228 -1.06046617 15.0
-1.20951664 -0.77259046 -1.17794633 15.0
-1.25290489 -0.49708983 -0.98054785 15.0
-1.28420997 -1.47820079 -0.88091779 15.0
-0.36096039 0.93842214 -1.09126914 15.0
-0.27064404 0.90836948 1.79885244 15.0
-1.37953448 1.29580057 -0.32817119 15.0
-1.43939364 -1.27920008 -0.52141315 15.0
-1.45027804 -0.91907740 0.39198786 15.0
1.15383768 0.39794791 -0.98355967 15.0
-1.31491673 1.39247286 -0.04981403 15.0
-0.11558369 1.04457843 1.80622935 15.0
-0.64652908 0.50705767 -1.04887903 15.0
-1.02571785 0.60962790 1.72716415 15.0
0.02968906 -1.59105921 -0.43371597 15.0
-0.25807455 -1.56810939 -0.91731161 15.0
-0.99212760 -1.12295198 -1.19003224 15.0
1.23305082 -1.10018969 -1.16435003 15.0
1.21259689 1.02253413 1.24809265 15.0
1.01841128 0.42187902 -1.01339495 15.0
0.95295042 0.72601074 -1.13027120 15.0
-0.90588129 1.43840230 0.05017652 15.0
0.71903086 1.21206021 -1.03156602 15.0
-0.42306378 1.44428813 -0.88884592 15.0
-1.02727139 0.00013950 1.67074382 15.0
0.50964940 -1.55364549 -0.05705750 15.0
-1.23223817 -0.05329849 1.25927734 15.0
-1.41973424 1.14105582 0.18205893 15.0
1.36133265 -0.95486152 0.05989734 15.0
0.83130044 0.89347476 1.75959706 15.0
0.03018927 -1.55584741 -0.06575788 15.0
-1.37093604 -0.80456489 0.62289184 15.0
-0.58301264 -1.51291227 0.26459628 15.0
0.93546033 0.83765984 1.74137819 15.0
1.30624795 1.19069242 -0.56843609 15.0
0.84344447 -0.95436794 0.63103706 15.0
0.95633477 -1.51352084 0.04344348 15.0
1.05418885 0.12542711 1.56196404 15.0
-1.20036793 0.90567756 -1.42498326 15.0
0.03102906 1.44918215 0.22422467 15.0
0.33996043 -1.54891706 0.02953720 15.0
-1.37260234 1.14147592 -0.80937350 15.0
1.36794972 0.93776125 -0.14513874 15.0
-1.08727491 0.46947479 1.69908237 15.0
-0.80287570 1.21206021 -1.03156602 15.0
-0.78307021 -1.26237893 0.53155971 15.0
-1.20026386 -1.53103411 -0.51780635 15.0
0.98632866 -1.18373549 -1.02871585 15.0
1.36967075 0.80732447 -0.55113286 15.0
0.34589633 1.44936836 0.14964843 15.0
1.09433758 0.45498198 1.57639790 15.0
-1.22438943 1.07778645 1.51122522 15.0
-1.36333930 0.76576698 -1.22122896 15.0
0.45128039 -1.24733853 -1.03753245 15.0
0.42109376 -0.60469383 -1.05646265 15.0
0.66364437 0.63247144 -1.04736638 15.0
-1.34973907 -0.81369311 -1.22319436 15.0
-1.08729446 1.18903577 1.46730471 15.0
1.37518144 -0.77877766 -0.36031610 15.0
0.80609024 1.43128753 -0.85714585 15.0
0.69990098 0.75928676 1.75551665 15.0
0.53669286 -0.28861600 -1.04921019 15.0
1.11130452 -1.52720189 -0.63625544 15.0
0.79539979 -1.55647945 -0.78067851 15.0
-1.47188878 0.80732626 0.19426604 15.0
1.32400131 -1.38495445 0.27563629 15.0
-1.45385349 -0.41671070 0.32123521 15.0
0.72640532 -1.03050458 -1.08875167 15.0
1.05391932 1.30122864 0.87009943 15.0
1.02220738 -0.74148262 -1.05493701 15.0
-1.22605371 -0.28141591 -0.98291636 15.0
-0.35904813 -1.03188109 -1.08587015 15.0
0.50917959 -1.54692805 0.03241732 15.0
-1.47165811 0.54040688 -0.33306685 15.0
-1.20937490 -1.52512181 -0.17237179 15.0
1.33825052 -0.27914423 0.51180726 15.0
1.14404535 -0.13639940 -0.98350340 15.0
1.35882747 0.18794462 0.34484175 15.0
1.21301281 1.39618099 0.29284370 15.0
1.35849094 0.10561369 0.02481594 15.0
0.88161874 0.68584734 -1.04293346 15.0
-0.11396024 -1.56521559 -0.13740753 15.0
0.04543537 -0.60476810 -1.07386172 15.0
0.88662547 1.36544335 0.75349379 15.0
-0.62157172 0.62630528 1.75905824 15.0
-1.22789025 -0.13639940 -0.98350340 15.0
1.35957253 -1.23682725 -0.36796662 15.0
-0.93650264 0.19517176 -1.02564025 15.0
-1.03122854 -1.50311077 0.14513320 15.0
0.34093156 1.39340103 -1.01973224 15.0
0.66290194 -1.58102012 -0.41048259 15.0
-1.01400113 1.05747128 1.73190045 15.0
1.13378990 0.81629449 -1.36028683 15.0
-1.40890288 1.19206262 0.02526594 15.0
-1.44653523 -0.88285261 -0.35842028 15.0
-1.40444410 -0.67865598 -0.84404385 15.0
-0.94289541 1.09971571 -1.12784600 15.0
-1.45123219 -0.84648204 -0.35965112 15.0
-0.44362083 0.19903880 -1.06113505 15.0
1.31617606 1.05884588 -0.80964619 15.0
0.94698399 -0.77077293 -1.10259211 15.0
-0.81512606 -1.18666422 -1.04164445 15.0
-0.91796583 0.84715277 1.75549364 15.0
-1.07455385 0.87012613 -1.40976715 15.0
1.28391433 1.36634707 0.21556810 15.0
-0.91579348 -0.44256970 1.41866779 15.0
-0.11353383 -1.59105921 -0.43371597 15.0
-0.90588129 1.43840230 0.05017652 15.0
1.27845573 -1.47248304 -0.10081369 15.0
-1.44555020 -0.95486152 0.38829279 15.0
1.30643094 0.53891647 0.85629016 15.0
1.15217495 0.19166197 1.27618468 15.0
-1.29999793 -0.48856264 0.98844200 15.0
0.65427995 -1.56938660 -0.79008079 15.0
0.98668474 0.41133648 1.69957840 15.0
1.36591589 -0.87884700 0.44409421 15.0
1.35104644 0.97842133 0.47741076 15.0
0.19518536 0.41346887 -1.07133603 15.0
1.38547158 -0.58145195 0.42418787 15.0
-1.30895829 1.29924941 -0.83432823 15.0
0.51607281 1.44819224 0.22719389 15.0
0.50012290 -1.46741188 0.38495627 15.0
0.18850513 -1.27024782 0.53363210 15.0
-0.42858180 1.44897377 0.22582205 15.0
0.33771461 -1.52724993 -0.99179751 15.0
-1.43483889 -0.13561285 -0.33603042 15.0
-0.97416288 -0.22160047 1.63773870 15.0
-1.05658114 -1.04511178 -1.35277677 15.0
-0.58978349 -1.52528989 -0.98875511 15.0
-0.26582649 1.44949126 0.14815336 15.0
1.33868504 0.10561369 -0.59895581 15.0
1.30646145 -0.91907740 -1.10924816 15.0
-1.47058988 -0.67302692 0.38408634 15.0
1.31437290 0.54289919 -0.85317987 15.0
0.70882934 0.37014446 -1.03790271 15.0
0.93514585 1.42191923 -0.84632015 15.0
0.33387867 -0.07610095 1.72246230 15.0
1.36383545 0.85221756 -0.55051309 15.0
0.59001315 0.56603694 -1.04812086 15.0
-0.93649381 0.11039132 -1.02563679 15.0
1.37000859 -0.41671070 0.32123521 15.0
-0.11747658 -0.78117555 0.74386239 15.0
1.23911202 1.06131160 -1.20898187 15.0
1.22511351 1.29924941 -0.83432823 15.0
1.39123845 0.76226133 -0.14554812 15.0
1.25601649 1.29167986 0.50931787 15.0
0.67341286 0.35151160 1.74643373 15.0
0.34028590 -1.55564356 -0.06063053 15.0
1.13230276 -0.81993848 -1.29704988 15.0
0.58899105 -1.28761518 -1.02431309 15.0
-1.07390571 -0.28345633 -1.01296413 15.0
-0.28403500 0.50786102 -1.07041550 15.0
1.33870876 1.05871606 0.44923988 15.0
-1.41138852 -1.19374657 -0.66287726 15.0
0.36021438 0.51979929 1.76386905 15.0
0.90737754 -1.09018147 -1.23664224 15.0
-0.93643874 -0.05719444 -1.02561533 15.0
0.99108887 -0.21222450 -1.01330924 15.0
1.31148672 1.24801409 -0.14414078 15.0
-0.44361690 0.02810848 -1.06113160 15.0
1.11859524 -1.41706657 -0.95858055 15.0
0.33989474 -1.56501055 -0.13140789 15.0
-0.58492070 1.21376085 -1.04043221 15.0
0.17826685 -1.57966232 -0.20207536 15.0
0.35977212 0.11297152 -1.06113160 15.0
0.74941963 -0.79532182 -1.06461322 15.0
0.51524991 1.12719977 1.73281014 15.0
-0.93275821 1.28582883 -0.99978036 15.0
1.37899911 -0.73992568 -0.36027783 15.0
-0.42975965 1.44908333 0.11390983 15.0
-1.20627129 1.20524478 -0.96472150 15.0
0.69513530 -0.69704056 -1.04484034 15.0
0.70984572 -0.43022078 -1.03595579 15.0
0.39922088 -1.28925741 -1.03537619 15.0
1.33475232 -1.10495210 -0.25451744 15.0
0.18741815 -0.89389545 0.65469962 15.0
0.18601991 -0.96835154 0.63561124 15.0
-0.11598713 1.00077927 1.81039894 15.0
-0.75725764 0.35151160 1.74643373 15.0
0.97273636 -1.04511178 -1.35277677 15.0
-1.39408875 0.93776125 -1.10601866 15.0
0.17973492 1.45035064 -0.57741988 15.0
-1.36786091 -0.94867021 0.56409460 15.0
-0.83498454 0.76324499 -1.06857681 15.0
1.09223688 1.15281808 -1.07617605 15.0
0.99166423 -0.13710591 -1.01350248 15.0
1.38626349 0.76228207 -0.32443574 15.0
-1.36307466 0.18867728 -0.85864300 15.0
-0.34349304 -0.69794434 -1.06572425 15.0
-0.93311465 -1.20406985 -1.02902246 15.0
-1.19930863 -0.89137089 -1.39377415 15.0
1.34611511 -1.06359291 0.23911589 15.0
0.95283234 1.43149567 0.23388825 15.0
0.42109376 -0.60469383 -1.05646265 15.0
0.85964727 -0.42703813 -1.02370250 15.0
0.36888775 -1.33355880 -1.03336346 15.0
-0.93301666 -0.62806147 1.03628564 15.0
1.36847615 -1.27923977 -0.15829018 15.0
0.93514585 1.42191923 -0.84632015 15.0
-1.44130838 -0.34722203 0.00344012 15.0
0.56268430 0.50705767 -1.04887903 15.0
0.18471912 1.00072002 1.80312824 15.0
-0.12461071 1.30643690 -1.05181551 15.0
0.27622291 0.98226398 -1.08410227 15.0
0.85992235 -0.95159250 -1.18536079 15.0
1.36014152 0.41189596 0.34377334 15.0
1.23342061 -1.06477869 -1.21794176 15.0
0.70882934 0.37014446 -1.03790271 15.0
-1.02703869 -1.54550421 -0.64688277 15.0
0.35531265 -0.89382839 0.65254152 15.0
-0.81310087 -1.16531837 -1.05228627 15.0
0.94010669 0.74346447 1.73246777 15.0
-1.26483321 -0.68035567 -0.98368096 15.0
-1.02727139 0.00013950 1.67074382 15.0
0.84622377 -0.91786337 0.64014894 15.0
0.32719693 1.40122139 0.76377767 15.0
0.51524991 1.12719977 1.73281014 15.0
-1.10414612 1.08380640 1.68127549 15.0
-1.04596853 -1.42786539 -0.98076940 15.0
1.21038222 1.37132072 -0.79238605 15.0
-1.44177353 -0.34722203 0.32970357 15.0
0.91268253 0.96660370 -1.32943749 15.0
0.88218647 0.42626023 -1.02542067 15.0
0.18988064 0.49215874 1.77248764 15.0
0.52672201 0.43120521 1.75257337 15.0
0.50998795 -0.29656306 1.61895621 15.0
0.73252630 -0.91836947 -1.09177637 15.0
-0.60843307 0.99921894 1.78201950 15.0
1.25930178 -1.40991247 -0.88385373 15.0
0.94596326 0.75199330 -1.18446100 15.0
-1.42259717 0.27830619 -0.59896427 15.0
-0.99122226 -1.09018147 -1.23664224 15.0
1.37136257 -0.88285261 0.34122789 15.0
-0.26105669 -1.59097350 -0.42977247 15.0
1.27574635 0.41025096 0.85143650 15.0
-1.47131288 -0.73983324 0.26617116 15.0
1.16906011 -0.49708983 -0.98054785 15.0
-0.95184666 0.88671231 -1.18385375 15.0
-0.78785515 0.02754541 -1.03790450 15.0
0.99778616 -1.01955891 0.60203731 15.0
0.97209531 -1.11382580 -1.23741174 15.0
1.21173549 1.32920992 0.55634588 15.0
-0.95824534 0.84012073 -1.16622698 15.0
0.88161874 0.68584734 -1.04293346 15.0
1.32909322 0.61175841 -0.84557843 15.0
-0.42987075 1.44737291 0.03924373 15.0
-1.44629347 -0.41671070 -0.33949995 15.0
-0.14690311 -0.88163960 -1.09318233 15.0
0.70483160 0.51607966 1.74452198 15.0
0.84301549 -1.16480625 0.56440306 15.0
0.54230517 -0.43211737 -1.04790723 15.0
1.33951819 1.01861262 -0.54792809 15.0
-1.08530331 -0.98141992 0.61655986 15.0
-0.26211160 -1.57966232 -0.20207536 15.0
0.70882934 0.37014446 -1.03790271 15.0
1.33868504 0.10561369 -0.59895581 15.0
-1.37840021 0.48187420 0.85409874 15.0
1.27913761 -0.05725560 -0.85857165 15.0
-1.09018171 -0.23659122 1.57607353 15.0
1.36437368 0.48254630 0.52439231 15.0
0.53749001 0.49137759 1.75183344 15.0
0.96875906 -0.62211001 1.02948511 15.0
-0.11705297 -1.39063609 -1.04608059 15.0
-0.26582649 1.44949126 0.14815336 15.0
-0.92140031 0.46361697 1.73341167 15.0
-0.26732934 1.04451668 1.79897952 15.0
0.03031109 1.39359927 -1.03667867 15.0
1.27950084 -1.46596408 -0.02118685 15.0
0.97772783 -0.93595815 -1.42047012 15.0
0.50816649 1.06663251 -1.05751240 15.0
0.03556264 0.41349539 -1.07850158 15.0
0.35902557 -0.28892228 -1.06046617 15.0
1.36350524 -0.91907740 -0.14722215 15.0
-1.44164562 1.01861298 0.18445367 15.0
-1.31290352 1.39155364 -0.20159307 15.0
1.30376196 -1.10380518 -0.84092438 15.0
0.53016764 0.71938473 -1.05865026 15.0
-1.45390785 -0.41671070 0.16912705 15.0
-1.16388571 1.13720334 1.54110312 15.0
-1.39533150 1.24801409 -0.14414078 15.0
1.15951109 -1.01347959 0.58701020 15.0
-1.29558039 1.32920992 0.55634588 15.0
1.22511351 1.29924941 -0.83432823 15.0
-0.94376713 -0.95159250 -1.18536079 15.0
-0.26969180 0.95523632 1.80218601 15.0
0.95305747 0.67950153 -1.04098606 15.0
-0.61517948 -0.89271426 0.65063405 15.0
1.40103650 0.66987032 0.34788856 15.0
-0.73812479 -1.56938660 -0.79008079 15.0
-1.02507055 0.67705733 1.72949255 15.0
0.34009334 1.20407283 1.62314904 15.0
1.10293508 1.41792297 0.16554560 15.0
0.85632116 -1.06269324 -1.15854335 15.0
-1.35858548 -1.02204502 0.53827494 15.0
-1.42415726 0.18787505 0.52346826 15.0
1.34145367 -1.23583448 -0.68289310 15.0
0.68979365 0.42870647 1.74367976 15.0
1.06291652 -0.25926182 1.46828294 15.0
-0.44133130 0.47175112 1.76164711 15.0
-1.40956187 1.19206262 0.29454499 15.0
-0.42975965 1.44908333 0.11390983 15.0
-0.41861954 1.27654934 1.34578323 15.0
1.12344229 -1.53548956 -0.26259473 15.0
-0.11820015 0.37298006 -1.07858634 15.0
-1.21614754 -0.81993848 -1.29704988 15.0
0.84055769 -0.99117297 0.61911750 15.0
-0.99464375 1.08978570 -1.22654819 15.0
-0.86849445 1.30179191 1.10718679 15.0
0.94319385 -1.54550421 -0.64688277 15.0
1.39245629 -0.67302692 -0.01096061 15.0
1.14421451 -1.20466053 -0.96916366 15.0
-0.11399772 1.20424509 1.63877106 15.0
-1.05690587 -1.08098054 -1.29860318 15.0
1.10182309 -1.52495384 -0.76431942 15.0
0.55976582 0.46025109 -1.04938567 15.0
-1.13887525 1.25768220 1.06382823 15.0
0.03386649 0.19907404 -1.07859170 15.0
-0.78867459 0.56329137 1.74725974 15.0
0.89957952 0.71438378 -1.06071031 15.0
0.35658401 0.81613272 1.77944529 15.0
0.81159741 -1.52666903 0.04061228 15.0
1.16698360 -1.14584768 0.54779631 15.0
0.50791037 -0.99473375 -1.07661402 15.0
1.37863731 -0.77877766 0.42930967 15.0
1.36350524 -0.91907740 -0.14722215 15.0
-1.18669653 -1.03612924 -1.34782851 15.0
1.29453838 1.33280349 0.26535463 15.0
0.03251095 0.95529312 1.80945206 15.0
-1.35133553 1.18997490 0.65335327 15.0
-0.90114510 1.43645418 -0.37986517 15.0
-1.47130883 0.80732447 0.02496569 15.0
-1.37004256 -1.28233790 -0.87422544 15.0
-1.00719869 1.13753498 1.65211809 15.0
0.18679926 0.90836948 1.79885244 15.0
0.33956963 1.42277741 -0.97681439 15.0
0.17556076 1.27665663 1.35297728 15.0
-0.89627880 -1.53327477 -0.04746832 15.0
1.35536003 1.01861262 -0.14491683 15.0
1.39702082 -0.58145195 0.29497346 15.0
-1.18338478 0.50047565 1.57855117 15.0
-0.58221400 -1.56597376 -0.91518152 15.0
0.55976582 0.46025109 -1.04938567 15.0
-0.46127960 0.50781548 -1.06013250 15.0
1.01920557 1.04333186 1.71106052 15.0
0.53772700 0.62630528 1.75905824 15.0
-0.41703311 0.00569668 1.73322880 15.0
-0.57158232 1.43640983 0.48234287 15.0
1.30553293 0.97841340 -1.09368265 15.0
-1.47705460 0.54016238 -0.14587662 15.0
1.33247375 -1.17487776 0.41024363 15.0
-0.59120798 -1.03180289 -1.07547545 15.0
1.35852790 -0.13561285 0.19154930 15.0
0.06200046 1.14373982 -1.07354617 15.0
0.92003745 1.42576754 0.37150532 15.0
0.79900932 1.21700978 1.49700475 15.0
1.39611363 0.71903777 -0.14563361 15.0
1.10308421 -1.07187128 -1.29225743 15.0
0.86954200 -0.87625086 -1.16252065 15.0
0.84926981 -1.20406985 -1.02902246 15.0
-1.30925345 1.39623249 0.23880839 15.0
-1.40869856 -0.95486152 -0.84516710 15.0
0.74555463 -0.81601042 -1.06979454 15.0
0.35628691 -1.39045465 -1.02983105 15.0
1.21038222 1.37132072 -0.79238605 15.0
0.84622377 -0.91786337 0.64014894 15.0
1.33975601 -0.84648204 -0.83113879 15.0
1.10308421 -1.07187128 -1.29225743 15.0
1.34333706 1.09857273 0.02517758 15.0
0.73670381 -0.88042986 -1.08625793 15.0
0.70482975 0.56329137 1.74725974 15.0
-1.03127515 -0.74747133 -1.05441380 15.0
-1.03082883 -0.77077293 -1.10259211 15.0
-1.02727139 0.00013950 1.67074382 15.0
-1.28786147 0.76620382 1.29056799 15.0
-1.22605371 -0.28141591 -0.98291636 15.0
1.30149281 0.89582163 0.85226911 15.0
-0.11765599 -0.36007303 -1.07735968 15.0
0.03280127 -0.93132532 0.64645725 15.0
0.86051178 0.97549218 -1.18303025 15.0
0.18806848 -0.85605669 0.66996551 15.0
-1.44418895 -0.67302692 0.52527356 15.0
0.06272786 0.69076610 -1.07517719 15.0
1.35852790 -0.13561285 0.19154930 15.0
-1.06192815 1.31513679 0.89317495 15.0
-1.20951664 -0.77259046 -1.17794633 15.0
-0.43014470 1.08684003 1.77444541 15.0
0.18288459 -1.46026576 -1.02798295 15.0
-0.60088658 1.44235957 -0.24331851 15.0
0.28285450 0.80105913 -1.08171010 15.0
-0.42413068 -1.55564356 -0.06063053 15.0
-0.79747212 -1.20992625 -1.03213298 15.0
-1.36554515 1.36414337 -0.17179038 15.0
-1.30095983 1.33677638 -0.82607770 15.0
1.11194158 0.94808090 -1.41830969 15.0
0.26907632 -1.21155715 -1.05120790 15.0
-0.81264561 1.14196897 -1.05898595 15.0
1.12803590 -1.16836798 -1.01507080 15.0
-1.24404728 -0.63086921 0.95733851 15.0
-0.60982680 -1.00439227 0.61972547 15.0
0.99589169 0.14866021 1.66103983 15.0
-0.60161734 1.44830167 0.11614149 15.0
-1.27487636 1.28819740 0.68482226 15.0
1.27474070 -1.02204502 0.53827494 15.0
0.93259495 0.88349682 1.74543989 15.0
0.17647588 -1.58599901 -0.56667250 15.0
1.38626349 0.76228207 -0.32443574 15.0
-0.93649381 0.02679716 -1.02563679 15.0
-1.42037451 -1.14967704 -0.16395791 15.0
0.98032743 0.95735002 -1.42141545 15.0
0.78482276 0.08864772 1.71531475 15.0
-0.59322536 1.44661582 0.28584549 15.0
-0.78749436 0.48857251 1.74294519 15.0
0.73031217 0.43046841 -1.03768659 15.0
0.66237414 -1.52834773 0.14114395 15.0
1.20999610 0.94171047 1.28832865 15.0
0.72925603 -1.16531837 -1.05228627 15.0
0.73065948 -0.50893432 -1.03488350 15.0
0.28285450 0.80105913 -1.08171010 15.0
1.36304319 -0.77477336 0.52819890 15.0
-0.98342437 0.71438378 -1.06071031 15.0
-1.46970284 -0.49255499 -0.16368410 15.0
1.35276473 0.67519641 -0.83008212 15.0
0.50253832 -0.15285315 1.69623625 15.0
0.67198074 -1.39152300 0.46016264 15.0
-1.28786147 0.76620382 1.29056799 15.0
-1.01176047 1.09834313 1.70157790 15.0
-0.91193855 0.93962055 1.76283169 15.0
-0.11705297 -1.39063609 -1.04608059 15.0
1.12157452 1.29096961 0.81339437 15.0
-0.92594171 0.48366854 1.73401856 15.0
0.04130860 -1.28942502 -1.05251539 15.0
-0.11400533 1.45302415 -0.76130164 15.0
1.05394185 -0.11578245 1.52862442 15.0
1.35164320 -1.02612841 0.34292579 15.0
0.35259137 0.95515490 1.79175270 15.0
1.34994006 -1.25924838 0.37505460 15.0
-0.76208824 1.44585252 0.18649699 15.0
-0.59383267 -0.29656306 1.61895621 15.0
-0.35993108 1.14367259 -1.06640530 15.0
0.06052568 1.21393430 -1.05763364 15.0
0.85309738 -1.25161874 0.53209835 15.0
0.82174772 1.44036782 0.15811677 15.0
-1.43122745 -0.86282432 0.51692098 15.0
0.91388297 -1.17126119 -1.08125901 15.0
-0.60161734 1.44830167 0.11614149 15.0
0.35643908 -0.85599267 0.66769737 15.0
-0.59160501 -1.10580111 -1.06474924 15.0
-1.05794656 -0.97244507 -1.41938388 15.0
1.27921689 0.02459487 -0.85864019 15.0
0.70396441 -0.05717364 -1.03788280 15.0
-0.42987075 1.44737291 0.03924373 15.0
0.33166364 1.44383430 0.36948597 15.0
-1.45971358 -0.84648204 0.26241300 15.0
-0.59659272 0.69066381 -1.05776215 15.0
0.53840852 0.51902544 1.75342202 15.0
0.93819308 0.79369861 1.73673689 15.0
-1.44228876 0.76245713 -0.81877303 15.0
-0.60214317 -0.75785828 -1.05754328 15.0
-0.91514528 0.89347476 1.75959706 15.0
1.33654964 1.09857273 -0.32182282 15.0
-0.81027412 -1.06782639 -1.08225060 15.0
-1.40002084 1.05884588 -0.80964619 15.0
0.51524991 1.12719977 1.73281014 15.0
-0.11460176 0.35422426 1.78319001 15.0
-0.78762555 -0.13848870 -1.03779590 15.0
-1.29384089 0.94171047 1.28832865 15.0
-1.45027804 -0.91907740 0.39198786 15.0
-0.64205515 0.43297622 -1.04965103 15.0
-0.36973116 -0.78157586 -1.07221258 15.0
-1.48457849 0.66991949 0.02489417 15.0
0.70396441 -0.05717364 -1.03788280 15.0
-0.11771426 0.29340333 -1.07860601 15.0
-0.11347727 -0.22588249 1.69338667 15.0
-1.14165080 0.80609542 1.68853199 15.0
-0.75013977 -1.56978238 -0.18783452 15.0
-1.09001565 0.59984207 1.70594418 15.0
0.68357557 -1.12784314 0.57713878 15.0
0.02881305 -1.57934892 -0.80922526 15.0
-1.44155490 -0.91907740 -0.35572070 15.0
1.39504445 0.54016238 0.02484951 15.0
1.09223688 1.15281808 -1.07617605 15.0
1.37519765 0.76236528 -0.55297220 15.0
-1.42335522 -1.10495210 0.11009325 15.0
0.03386009 0.62731618 1.78697503 15.0
-1.42995262 -1.06359291 0.16958919 15.0
-0.43406323 -1.04479754 0.60637999 15.0
1.30646145 -0.91907740 -1.10924816 15.0
1.37668395 0.76226765 0.52875036 15.0
0.18205655 1.44749570 0.03694673 15.0
1.08755326 1.41924214 -0.53930068 15.0
-0.46127960 0.50781548 -1.06013250 15.0
1.32059932 -0.67865598 -0.84404385 15.0
-1.39408875 0.93776125 -1.10601866 15.0
-1.15969992 -1.51684439 -0.88024831 15.0
-0.60214317 -0.75785828 -1.05754328 15.0
-0.58923542 -0.22563775 1.66731954 15.0
-1.18697333 1.41765511 0.13048039 15.0
-1.03690231 0.67950153 -1.04098606 15.0
1.31295419 -0.49255499 0.69212759 15.0
0.33246937 -1.56798828 -0.91696554 15.0
0.51793295 1.44659340 0.04204914 15.0
-0.86866760 0.08864772 1.71531475 15.0
-0.62157172 0.62630528 1.75905824 15.0
1.21173549 1.32920992 0.55634588 15.0
-0.77363855 0.42870647 1.74367976 15.0
-1.16327965 1.41644096 0.29956183 15.0
0.03344823 0.76469004 1.79252565 15.0
0.51067543 0.93834192 -1.08083558 15.0
0.69123191 -0.96244490 0.63127750 15.0
0.59001315 0.56603694 -1.04812086 15.0
0.17865475 1.45293844 -0.75572103 15.0
-1.38181210 -0.99035007 -1.09786177 15.0
0.95090705 -1.55435359 -0.39600408 15.0
1.26658642 1.36603498 0.33245772 15.0
0.06421548 -0.81712520 -1.08335376 15.0
-1.00754976 0.41927162 1.72084284 15.0
1.28977025 0.72760725 -1.15891492 15.0
-0.82755315 -0.75692570 -1.04922509 15.0
1.07598674 0.98179966 1.69623399 15.0
1.16236722 -0.34323993 1.14846206 15.0
-1.37834084 1.33267689 0.16771320 15.0
-0.36006767 0.98226398 -1.08410227 15.0
-1.42978871 0.97841340 -0.54861146 15.0
-0.88918322 -1.51583660 0.14435981 15.0
0.42109376 -0.60469383 -1.05646265 15.0
1.35792875 -0.34722203 0.32970357 15.0
1.24303615 -0.73675853 0.71827382 15.0
-1.09836721 -0.50105864 -1.01063550 15.0
-0.88042748 -1.49318111 0.26898658 15.0
0.03005412 1.42298019 -0.99323201 15.0
1.25705731 -0.84859866 -1.26735318 15.0
0.18590948 -1.18207860 0.56692952 15.0
-1.47420990 -0.67302692 -0.17988929 15.0
-1.23886049 -0.27516773 1.19524980 15.0
-0.60149795 -0.84583288 -1.06962788 15.0
-1.11996555 0.67305911 -1.03677511 15.0
-0.42988801 1.44435847 -0.09384222 15.0
0.18686083 -0.44855487 1.44744599 15.0
0.50889260 1.14357579 -1.05615115 15.0
-0.61842155 0.76347709 1.76449907 15.0
1.00110042 0.23080815 1.66923189 15.0
-1.06224823 0.99880046 -1.39220369 15.0
-0.42584947 1.45022762 -0.57069206 15.0
-1.35133553 1.18997490 0.65335327 15.0
-1.42279589 -1.14967704 0.06070226 15.0
1.29400361 1.01861477 0.79169679 15.0
-1.42782807 1.09857273 0.29998836 15.0
-0.58492070 1.21376085 -1.04043221 15.0
-0.76118231 1.43965757 -0.23735598 15.0
-1.47214925 -0.49255499 0.16521379 15.0
0.99589169 0.14866021 1.66103983 15.0
0.93514585 1.42191923 -0.84632015 15.0
-1.42004299 -0.27914423 -0.59818137 15.0
1.34250438 -1.02612841 -0.36174956 15.0
0.83194864 -0.44256970 1.41866779 15.0
0.50912911 0.98218018 -1.07372046 15.0
0.18982594 -0.36005622 -1.07019973 15.0
0.77982253 -0.60119438 -1.03330588 15.0
-0.44087920 -1.22582161 0.55121958 15.0
0.03344823 0.76469004 1.79252565 15.0
0.19879244 0.46098810 -1.07092977 15.0
1.27921689 0.02459487 -0.85864019 15.0
0.98439139 1.27278900 1.08588874 15.0
1.20835829 0.67362809 1.28998435 15.0
1.36733973 0.43875152 0.02482532 15.0
0.70209640 0.69157130 1.75248706 15.0
-0.48306569 -1.28925741 -1.03537619 15.0
0.96212363 -1.42786539 -0.98076940 15.0
-1.40041995 -1.14885569 -0.64122349 15.0
0.33763465 -1.59085059 -0.42410952 15.0
-0.81800354 1.29748213 -1.01185608 15.0
-1.39679885 -0.49255499 0.69212759 15.0
0.49836925 -1.56597376 -0.91518152 15.0
0.88115448 -0.07567810 1.68161738 15.0
-1.47131288 -0.73983324 0.26617116 15.0
1.34490812 -1.06359291 -0.04585005 15.0
-1.42257679 -1.31437075 0.34114775 15.0
-1.40869856 -0.95486152 -0.84516710 15.0
0.18086359 1.44550216 -0.40599710 15.0
-1.34511161 1.33073688 0.43280351 15.0
-0.43247166 -1.08801126 0.59184039 15.0
1.38560665 0.80732447 -0.14544922 15.0
1.21615314 -0.48856264 0.98844200 15.0
1.35703588 -0.99035007 0.18897092 15.0
0.93908876 1.43017220 0.29027683 15.0
0.17464486 0.00570193 1.74323726 15.0
-1.34973907 -0.81369311 -1.22319436 15.0
-1.43473089 -1.19488502 -0.08410905 15.0
-0.11353383 -1.59105921 -0.43371597 15.0
-1.23672497 0.73637432 -1.21761358 15.0
0.67609066 1.44546056 0.22965419 15.0
-1.25082839 -1.14584768 0.54779631 15.0
-1.06632161 1.35090053 0.74132627 15.0
-1.42333794 0.76282012 -1.05979788 15.0
1.04068232 0.43248516 1.67101347 15.0
0.99108887 -0.21222450 -1.01330924 15.0
-1.44821846 0.48254630 0.52439231 15.0
-0.41686758 -1.51485574 0.26351413 15.0
0.54978353 -1.33185732 -1.02231574 15.0
-0.98001695 -1.22957170 -1.00603986 15.0
1.29411352 1.29502022 0.37296063 15.0
-1.45027804 -0.91907740 0.39198786 15.0
0.69976598 0.46833992 1.74233365 15.0
1.12325549 0.91545534 1.59617484 15.0
-1.42230690 -0.74271756 -0.83018422 15.0
-1.06390595 -1.16109335 -1.09591627 15.0
1.28871655 -1.10162890 -1.03189397 15.0
0.53840852 0.51902544 1.75342202 15.0
-1.22855914 0.77262104 -1.29347706 15.0
1.33868504 0.10561369 -0.59895581 15.0
0.77580166 1.37992799 0.75810140 15.0
0.69513530 -0.69704056 -1.04484034 15.0
-1.44010460 -0.13561285 -0.15056963 15.0
0.97269344 -1.00863075 -1.39486122 15.0
-1.37953448 1.29580057 -0.32817119 15.0
1.00971901 -0.77869487 -1.18452203 15.0
1.31398380 0.71903944 0.85963988 15.0
0.99851722 -0.82707214 -1.30334890 15.0
-0.95338684 -0.87625086 -1.16252065 15.0
1.36202037 -0.95486152 0.29521701 15.0
-1.46126699 0.53939545 0.52628845 15.0
0.93742168 1.43457603 -0.71228290 15.0
-0.25888819 -0.07610229 1.73239255 15.0
1.33997917 0.02436901 0.52449358 15.0
0.34329498 0.35416791 1.76581013 15.0
-1.40188360 1.19178867 -0.32574373 15.0
-0.93311465 -1.20406985 -1.02902246 15.0
0.51316261 0.89282668 -1.08089328 15.0
-1.44260609 -0.95486152 -0.13122201 15.0
-0.42147949 -1.59085059 -0.42410952 15.0
0.51660836 0.84593409 -1.07693863 15.0
0.50964940 -1.55364549 -0.05705750 15.0
0.22539635 -0.60473758 -1.06671917 15.0
1.33652973 -1.14967704 -0.16395791 15.0
-1.47165811 0.54040688 -0.33306685 15.0
1.05247426 0.04418250 1.55368030 15.0
-1.40099335 -1.40910959 -0.73483390 15.0
0.32493895 1.42477667 0.61924094 15.0
-1.24567080 0.35544881 1.28099883 15.0
-0.60045314 0.84593409 -1.07693863 15.0
0.93551397 -0.80567592 -1.19764566 15.0
1.23492503 -0.99285358 -1.29761183 15.0
1.29181600 -1.06292832 -1.05858076 15.0
-0.11756968 -0.28895351 -1.07791460 15.0
0.97273636 -1.04511178 -1.35277677 15.0
-1.31360614 1.39623249 0.19789661 15.0
1.31714857 -1.40910959 -0.73483390 15.0
-1.37795842 1.29502022 0.37296063 15.0
0.98213637 -0.69006610 0.87252146 15.0
1.06316543 1.42233884 -0.70712286 15.0
1.36602247 -0.91907740 0.04151590 15.0
0.50964940 -1.55364549 -0.05705750 15.0
1.37059104 -1.27923977 0.11742136 15.0
-1.42710710 -1.40577745 -0.07857380 15.0
0.68114746 -1.45116186 -1.00378895 15.0
-1.18566787 -1.52495384 -0.76431942 15.0
1.07352555 1.17147982 1.44234288 15.0
-0.67385787 0.56603694 -1.04812086 15.0
-0.90559250 1.44036782 0.18975070 15.0
-1.08138990 -1.30319440 -0.98668760 15.0
1.38094008 0.60692233 -0.58353835 15.0
0.85264903 0.02679716 -1.02563679 15.0
-1.43532574 0.27830619 -0.33430907 15.0
0.88590449 -0.79157615 -1.09763455 15.0
-1.01876783 -0.43856019 1.40797794 15.0
-1.41859710 -1.10495210 -0.25451744 15.0
-0.41631415 -1.56798828 -0.91696554 15.0
-0.11509606 1.44929171 0.11093324 15.0
-1.44057035 0.18801126 -0.14600025 15.0
-1.38760686 -1.10380518 -0.84092438 15.0
0.79013205 1.43445587 0.37266794 15.0
-0.41703311 0.00569668 1.73322880 15.0
-1.42563915 -1.05958831 0.37207150 15.0
-0.41772959 0.17581515 1.75387502 15.0
-1.44685102 0.93776125 -0.32308456 15.0
0.99199265 0.19287437 -1.01361275 15.0
-0.59218705 1.10720634 -1.05825293 15.0
-0.94087225 -1.09908473 -1.13594520 15.0
-1.34784603 -1.44869804 0.19876966 15.0
0.05197741 0.63349152 -1.07579041 15.0
-1.45832086 0.48365727 -0.33397931 15.0
-1.20612824 1.19706130 1.19963431 15.0
1.37131095 -0.88285261 0.16722015 15.0
1.30646145 -0.91907740 -1.10924816 15.0
-1.25329006 -0.73925209 -1.03516746 15.0
-0.76499230 -1.45116186 -1.00378895 15.0
0.80621403 1.24323583 -1.01703346 15.0
1.29377687 1.09919488 -1.01600373 15.0
1.08806276 1.34735692 -0.94441187 15.0
0.85805082 0.36645418 -1.02563512 15.0
-0.58066589 1.32111037 1.11532748 15.0
0.94010669 0.74346447 1.73246777 15.0
1.03783381 -0.52767336 1.21291471 15.0
1.20835829 0.67362809 1.28998435 15.0
-0.81450438 -0.50893432 -1.03488350 15.0
1.37495756 0.54138499 -0.59368110 15.0
0.18988064 0.49215874 1.77248764 15.0
1.15631354 0.28070912 1.27921271 15.0
-0.87924463 -1.55647945 -0.78067851 15.0
0.03243682 -1.32772911 0.50441778 15.0
0.51765311 -0.84583288 -1.06962788 15.0
0.85259390 -0.05719444 -1.02561533 15.0
1.20094955 0.81127620 1.29213274 15.0
0.75950313 0.71834439 -1.05245781 15.0
-1.08729446 1.18903577 1.46730471 15.0
-1.23506868 0.69658720 -1.08535671 15.0
1.29106534 0.44009203 -0.85825568 15.0
1.33595860 1.14105582 0.29701564 15.0
1.31393576 1.24801409 0.18070531 15.0
-0.96829003 0.49933162 -1.02465999 15.0
1.38585806 -0.49255499 -0.16368410 15.0
0.35942495 -0.21595120 -1.06082213 15.0
-1.47508335 0.76226133 -0.14554812 15.0
1.38161087 0.85221756 0.02499361 15.0
1.22976124 1.39623249 0.19789661 15.0
0.93500686 -1.54321301 -0.77233720 15.0
-0.81174880 -1.13753390 -1.06208301 15.0
1.10293508 1.41792297 0.16554560 15.0
0.03380024 -0.21597253 -1.07827497 15.0
-0.92027724 0.80272669 1.75080454 15.0
1.24198616 -0.92138922 -1.31895947 15.0
1.14421451 -1.20466053 -0.96916366 15.0
-1.36937320 -1.29355645 0.43689677 15.0
1.00344956 1.18903577 1.46730471 15.0
0.67824346 1.44585252 0.15462847 15.0
1.36173987 -0.91507155 0.43636662 15.0
-1.02395153 0.74346447 1.73246777 15.0
-0.27253738 -0.81806839 0.69813150 15.0
-1.13705730 0.58161402 1.67817318 15.0
0.48042059 -0.69789308 -1.05547488 15.0
0.73496294 0.89155459 -1.09477532 15.0
-0.26110283 -1.52736795 -0.99341339 15.0
-1.35043132 1.36603498 0.33245772 15.0
0.03176297 -1.08815145 0.59475338 15.0
-1.48488128 0.66987032 0.34788856 15.0
0.90666127 -1.05407941 -1.27828002 15.0
-0.11329331 -1.58608425 -0.57130373 15.0
0.45576811 0.63339704 -1.05836773 15.0
0.82559645 -1.43943095 -0.99229872 15.0
-1.34937811 1.36658919 -0.57061082 15.0
1.08119988 -1.48195231 -0.94232833 15.0
0.33771461 -1.52724993 -0.99179751 15.0
0.34849939 1.04442799 1.78856874 15.0
1.15631354 0.28070912 1.27921271 15.0
1.00145853 -0.98141992 0.61655986 15.0
-1.44233572 0.10561369 0.02481594 15.0
-1.46876729 -0.67348880 -0.35590181 15.0
-1.12944496 0.45201746 1.67179930 15.0
-0.11445627 -1.40031183 0.46114406 15.0
-0.73051524 1.35734534 0.91325182 15.0
-0.61836511 -0.81699449 0.69342154 15.0
0.22539635 -0.60473758 -1.06671917 15.0
1.15498292 -1.10026574 0.56045240 15.0
-1.03779960 -0.52896720 1.23513091 15.0
-1.38426208 -0.75178927 -1.01888776 15.0
1.35721910 1.01861262 0.02511064 15.0
0.27608630 1.14367259 -1.06640530 15.0
0.88827538 1.32996750 0.90528381 15.0
0.03124779 1.44957685 0.17986712 15.0
-1.17925060 1.30984771 -0.95619822 15.0
-1.12944496 0.45201746 1.67179930 15.0
-1.42907858 -1.19488502 -0.33790481 15.0
