-1.40585005 -0.16207834 -0.16918604 30.0
1.08300447 0.10743643 1.23019814 30.0
-1.36228490 1.22203147 0.18996198 30.0
1.15123534 -0.84935337 0.42415789 30.0
1.27899790 0.17610243 -0.96805310 30.0
0.90209568 1.40327406 0.49793795 30.0
1.38635457 0.77436376 -0.69009238 30.0
0.06542091 -0.09896972 1.69393396 30.0
-0.15477540 0.77653253 -1.17055416 30.0
-1.34839523 0.95729661 0.57474214 30.0
-0.41650593 0.46001974 -1.14872253 30.0
0.11473623 1.20296788 -1.15554702 30.0
-0.40711412 -1.17388320 -1.16182947 30.0
-0.72213650 -1.60349524 -1.07997966 30.0
1.39468372 -0.83279258 0.05129828 30.0
1.24975801 -1.01892996 -1.38565731 30.0
1.36405540 0.40962160 -0.49120843 30.0
1.21886766 1.12851799 0.86922419 30.0
1.36769187 -1.05342746 -0.13982852 30.0
1.34222448 -1.06985414 0.24267930 30.0
-1.02902400 1.06367123 -1.41138458 30.0
0.11264966 1.24525487 -1.14721942 30.0
1.27959847 1.22028983 0.40687549 30.0
-1.05730999 -0.89203924 0.41414660 30.0
0.65646189 0.24928987 1.41093647 30.0
-0.41093585 0.91046745 -1.17658210 30.0
-0.40238544 1.24516678 -1.13960791 30.0
0.56997776 0.97420859 1.43096769 30.0
0.66624272 0.34546462 1.41225302 30.0
-0.52785528 -0.08026639 -1.14041543 30.0
0.25342947 1.19849539 1.35731363 30.0
0.68562692 -1.60349524 -1.07997966 30.0
-1.39158690 1.08340847 -0.48020807 30.0
-0.92164510 -0.09469466 1.40477049 30.0
0.79051238 -0.54736686 -1.11718154 30.0
-0.46150476 -1.06936312 0.37724602 30.0
-0.11240724 -1.15540135 0.35328570 30.0
1.11649561 1.45800185 -0.03671072 30.0
-0.39880741 -0.58513761 0.95739716 30.0
0.72174603 -1.33710527 0.29608515 30.0
-1.00590229 0.15742086 1.46396220 30.0
-0.97417957 -0.92712772 -1.35323882 30.0
-1.41927350 -0.86651975 -0.51472366 30.0
0.91339129 -0.24918526 1.42067194 30.0
0.94065917 1.00124359 1.43426991 30.0
1.37017941 -0.08037129 -0.01093640 30.0
-1.05826175 -0.25574988 1.31333530 30.0
-1.40120411 -1.31025517 -0.64218128 30.0
-1.22584653 -0.45098531 0.79674852 30.0
1.40454400 0.77425891 0.12857130 30.0
1.22271180 1.08738601 0.91364014 30.0
-0.89681876 -0.90060115 0.41689104 30.0
-0.92542511 -0.25566515 1.35835016 30.0
1.10589182 1.18154132 -1.16586602 30.0
-0.36729196 0.07078928 1.94438863 30.0
0.89369714 0.41981760 1.44077873 30.0
0.27236268 -1.41140950 -1.13314831 30.0
1.38250220 -0.94132549 -0.03518797 30.0
-0.72884315 0.64697921 1.41519129 30.0
0.81686175 -0.83081502 -1.16290605 30.0
1.14213073 -0.63293207 -1.07714403 30.0
1.37859499 -1.31046224 -0.13739926 30.0
-0.41188160 -0.93999034 -1.17169750 30.0
1.28490496 0.38689357 0.58706325 30.0
-1.20130265 0.00834730 0.96414125 30.0
-0.44433495 -1.67442131 -0.69455200 30.0
-1.41540742 -0.79266173 -0.71711916 30.0
-1.38145113 -1.41278672 -0.83597225 30.0
0.06673966 0.84332520 1.69440174 30.0
-0.95262885 0.41298977 1.53633273 30.0
-0.80332291 0.18287510 -1.11991155 30.0
0.76515675 -0.31837890 -1.11931694 30.0
-1.38749969 -1.17293847 0.04994117 30.0
-0.94656938 0.61071771 1.51011169 30.0
-1.40759015 0.40962160 -0.16467887 30.0
0.22449879 -0.09295519 1.51163471 30.0
-1.13214850 -0.81324983 -1.20177984 30.0
-0.10765006 1.40455639 0.65484345 30.0
0.37999636 0.46001974 -1.14872253 30.0
0.40944764 1.26914442 1.19223273 30.0
-0.55426550 0.82631999 1.54855072 30.0
1.32735980 0.67778784 0.59443748 30.0
0.99100542 -1.44755292 0.23021783 30.0
0.88864106 0.95222205 1.45357990 30.0
-0.15386975 0.81475151 -1.17563713 30.0
0.91476589 0.67213911 1.54418445 30.0
-0.65967256 0.00806843 -1.13076186 30.0
0.96518159 1.35846782 -1.08335590 30.0
0.37999636 0.46001974 -1.14872253 30.0
1.04195905 -0.03865783 1.30815184 30.0
-0.95221061 0.47200963 1.53567791 30.0
-1.41738594 0.82124877 -0.68841982 30.0
-1.36436355 1.08354402 -0.92349809 30.0
0.82577020 -1.31346881 -1.11104441 30.0
0.82314855 1.00662792 1.42391455 30.0
1.41180408 0.61052799 0.12830535 30.0
1.33701098 -1.12968326 -0.73895770 30.0
0.22553946 -0.10499386 1.60775602 30.0
0.40223509 1.35893035 0.83034545 30.0
-0.25982335 -0.47182405 -1.15671551 30.0
0.93521255 1.46618247 0.15057805 30.0
-0.59919691 1.48995781 -0.02000541 30.0
-0.25726682 -0.58517802 0.96337825 30.0
-1.32648647 -1.26597655 -0.96997797 30.0
-1.18561673 -0.73015475 -1.08175611 30.0
-1.03211415 1.21356177 -1.12200010 30.0
-0.94681782 1.32203293 0.81272769 30.0
-1.25060737 -0.52990991 0.71170282 30.0
-1.17210293 0.88588047 1.25854266 30.0
1.27722514 -0.86920345 -1.29955661 30.0
-0.09456945 0.34873381 1.90566432 30.0
0.97112346 1.47250104 -0.04151224 30.0
-1.38669741 1.08340847 0.22126570 30.0
1.13725948 1.43626320 0.19655792 30.0
-0.40010637 -0.68482119 0.76452404 30.0
0.39750472 1.44054508 0.50641918 30.0
0.60847396 -0.93992138 -1.16224468 30.0
-0.70275223 0.34546462 1.41225302 30.0
1.31188560 0.95729661 0.57474214 30.0
1.37026954 0.34884015 -0.01093815 30.0
-0.28234670 0.84956092 1.50737941 30.0
-0.74020571 -1.53397381 -1.09984696 30.0
0.07267327 0.84992504 1.46157968 30.0
0.70083094 1.48682821 -0.07859572 30.0
-0.72367913 0.50804704 1.40886855 30.0
-1.05383801 -1.37157655 0.26877114 30.0
1.40965557 0.61073327 -0.31983107 30.0
0.33668843 0.16200279 1.93921375 30.0
-0.10193045 -0.09896972 1.69393396 30.0
0.25025347 -1.67973661 -0.57639945 30.0
1.15377295 1.10329580 1.18697846 30.0
-0.15080681 -1.05811667 -1.18048036 30.0
1.00884807 1.25968242 0.99581754 30.0
0.25154608 -1.66794121 -0.36982584 30.0
1.19758689 1.27325165 0.56480181 30.0
1.37509263 0.86806476 -0.68785620 30.0
0.11556349 0.91053325 -1.18441427 30.0
0.25212902 -1.64301968 -0.24424478 30.0
1.37551200 0.99966723 -0.01728762 30.0
-0.91959059 -1.01300728 -1.26484728 30.0
-0.82949561 0.34333307 1.40452218 30.0
-0.91383511 -0.66941416 0.74890971 30.0
1.02760875 0.73068869 1.40738714 30.0
-0.15386975 0.81475151 -1.17563713 30.0
0.93337053 -0.00493869 1.49646306 30.0
-1.41376984 -0.97910184 -0.14949670 30.0
0.44899002 0.25094804 1.88650513 30.0
0.79313236 -0.39615682 1.21530795 30.0
0.95409578 1.47077560 0.07671320 30.0
0.90565234 0.07749460 1.48674524 30.0
-0.95776945 -0.31625459 -1.10838461 30.0
0.69003737 1.22652817 1.27282119 30.0
-0.45082769 1.19839251 1.34848499 30.0
1.39543724 -0.62701458 0.19848473 30.0
0.20656198 0.34870496 1.89929116 30.0
0.06014200 -0.40589657 1.23789608 30.0
-0.94721103 0.33921462 1.50680506 30.0
-0.84092432 0.52290136 1.40279245 30.0
-1.00433111 -0.00835098 1.44614744 30.0
-0.40010637 -0.68482119 0.76452404 30.0
1.27423632 -1.56819999 -0.74632007 30.0
-1.38455725 1.12497234 -0.47989753 30.0
1.11059248 0.27321655 -1.08173358 30.0
-0.94584459 -0.16738318 1.45258558 30.0
1.29046667 -1.55621219 -0.27892363 30.0
0.26409119 -1.34528160 0.29763049 30.0
0.49086267 -0.24563807 -1.14015651 30.0
-1.22103775 -0.96325403 0.37831002 30.0
1.38596284 0.86806476 -0.48155326 30.0
0.63077170 1.33962548 -1.11659896 30.0
-1.15638947 0.39433697 -1.08164573 30.0
-0.52891374 -0.68402505 0.76076287 30.0
-0.94840121 0.16218297 1.52830803 30.0
1.16399848 -1.36782706 -1.06243992 30.0
-1.32893860 1.40423965 0.05702667 30.0
0.62316298 0.09599812 -1.13076186 30.0
0.81167525 -1.64380634 -0.89715642 30.0
1.31533885 1.33070552 -0.02438532 30.0
-0.90900213 -0.57067376 0.93777162 30.0
-0.26100832 -0.09295519 1.51163471 30.0
-1.44120789 0.67813218 -0.48551920 30.0
0.77137238 -1.35690260 -1.10769975 30.0
1.30426860 -0.93551034 0.34202081 30.0
-1.12616432 -1.60247374 -0.98769981 30.0
-1.16931832 0.83907861 1.25529325 30.0
-1.31560802 -0.31175777 0.54932332 30.0
0.78716040 -0.09780490 1.36579943 30.0
-1.35801089 0.77426410 0.59382457 30.0
-1.42761695 -0.86651975 0.04989291 30.0
0.90666318 0.16187520 1.49624944 30.0
-0.90122592 1.32024932 -1.09639585 30.0
-1.08588481 -0.77821106 0.51160878 30.0
-0.15067895 -1.13575554 -1.17578828 30.0
0.80608481 0.77527010 -1.15744078 30.0
1.30951095 -0.71833986 0.45161301 30.0
0.97157532 -1.61528516 -0.28929973 30.0
0.78949058 1.44702959 0.37310898 30.0
0.90665269 -0.08860951 1.46846771 30.0
1.38172734 -0.94132549 -0.17786814 30.0
0.88731867 -0.97380191 -1.25840926 30.0
-0.95311111 0.78939748 1.54971457 30.0
-1.17956376 0.54926628 -1.07973504 30.0
1.14707804 0.83060300 -1.42422128 30.0
1.34802794 -1.21957910 -0.33634362 30.0
1.36235321 -1.09073830 -0.17418626 30.0
1.35544753 -1.35448444 -0.82231349 30.0
-1.40168548 -1.05342746 -0.30742610 30.0
-0.65944326 -0.16507718 -1.13066316 30.0
-1.37999403 1.12497234 0.21334271 30.0
-1.39928973 0.00475620 -0.49124867 30.0
1.00091863 -1.25509644 -1.12270820 30.0
0.87249267 -0.57067376 0.93777162 30.0
-0.98133361 1.07761097 1.38846409 30.0
0.41224754 -1.64289427 -0.24149626 30.0
-0.15220091 -0.90281904 -1.17405820 30.0
1.03055930 0.75577891 -1.30300939 30.0
-1.40630472 0.00475620 -0.16468275 30.0
0.07442638 -1.48092782 0.23195720 30.0
1.35066986 -0.23890565 0.28457236 30.0
0.60756558 -0.90269870 -1.15687382 30.0
1.32402623 -0.94132549 -1.18720305 30.0
-0.94681782 1.32203293 0.81272769 30.0
0.11569139 -0.90281904 -1.17405820 30.0
-0.33033064 -1.36520803 -1.13498759 30.0
0.98776805 -1.14794016 -1.36812937 30.0
0.60160571 -1.20838988 -1.14638650 30.0
0.67815495 -1.54344571 0.16397271 30.0
-1.16647315 0.92381483 -1.48305273 30.0
-1.31560802 -0.31175777 0.54932332 30.0
-0.40010637 -0.68482119 0.76452404 30.0
-1.37697530 -1.17281401 -0.56958538 30.0
1.39176118 0.82124877 -0.48180524 30.0
1.34984100 0.38945049 -0.73187035 30.0
-1.15885806 1.05322146 -1.40756691 30.0
-0.11244120 -1.20414329 0.34113592 30.0
-1.40469420 0.99966615 -0.48078001 30.0
0.21725315 -0.48841447 1.12667012 30.0
-0.59513187 -0.04325312 1.47154844 30.0
0.96021050 0.73645210 -1.21505725 30.0
-1.33137941 1.33041978 -0.71783918 30.0
-0.26838267 0.46006337 -1.15807688 30.0
-1.43250299 -0.72299373 -0.51088715 30.0
0.24935161 -1.67454922 -0.70059943 30.0
-0.64906538 0.50939244 1.52894521 30.0
-0.43165490 1.47833872 0.25164539 30.0
-1.06702876 1.15013504 1.29706454 30.0
1.04711008 -0.40730068 1.13606906 30.0
-1.39020085 -1.49104869 -0.32262650 30.0
-0.98094136 0.84739310 -1.35914159 30.0
-0.39880741 -0.58513761 0.95739716 30.0
1.21761966 0.77782953 0.98570508 30.0
1.08300447 0.10743643 1.23019814 30.0
-1.44359541 0.72918046 -0.31968045 30.0
-0.27770823 0.85128832 1.62608719 30.0
-0.11081078 1.49188280 -0.71539974 30.0
-1.35184848 1.33070552 -0.02438532 30.0
-1.39284194 -1.12980771 -0.22894262 30.0
0.79584938 -0.82367265 0.48037294 30.0
-0.72492588 1.47984850 -0.97649223 30.0
-0.60673445 0.03647299 1.56419384 30.0
0.07523943 1.49098670 -0.02346563 30.0
-1.40542543 -1.41339934 -0.36658671 30.0
1.39885879 0.54289806 -0.49012223 30.0
1.18476140 -0.78897357 0.46591079 30.0
0.10263918 1.28477561 -1.14468122 30.0
1.30642426 0.48185816 0.58942276 30.0
0.55043131 -1.61126113 -1.08613312 30.0
-0.57118571 1.43862677 0.50434273 30.0
1.33731079 1.22246683 0.08059445 30.0
0.59472263 0.51125830 1.62980235 30.0
-1.07028079 1.06262577 1.36931348 30.0
-1.40632594 0.38868058 0.12563360 30.0
-0.72213650 -1.60349524 -1.07997966 30.0
-1.33737743 -0.89767253 0.35507488 30.0
-1.40980303 -1.01641870 0.08120555 30.0
-1.02890325 -0.99670577 -1.47894871 30.0
0.62319964 0.28290024 -1.13077760 30.0
-0.98133361 1.07761097 1.38846409 30.0
-0.87811494 -1.52174425 -1.08959246 30.0
1.04228950 0.04628666 1.31755936 30.0
1.33999515 1.16921818 -0.48112446 30.0
-0.85685980 1.21481812 1.26594746 30.0
0.93849981 1.16560364 1.31509888 30.0
0.86886358 -1.32588732 0.29661280 30.0
-1.25060737 -0.52990991 0.71170282 30.0
0.84574175 -0.73850191 -1.12075102 30.0
-0.98939866 0.44709548 -1.10854053 30.0
-1.01343679 -1.50968337 -1.07910836 30.0
0.47826016 0.77420086 1.72907948 30.0
0.90467584 0.93771958 1.50158501 30.0
1.12986052 -1.61727107 -0.65811449 30.0
0.25609797 1.49088097 -0.05208752 30.0
0.98906732 -1.21045256 -1.25205588 30.0
1.38382912 -0.90339702 -0.35467333 30.0
1.36748803 -1.40763652 0.00386477 30.0
-0.84503812 1.28924203 1.01946807 30.0
-1.36475909 -1.21872258 -0.77034342 30.0
-0.60705388 0.33936971 1.64838064 30.0
1.25457418 1.00257790 -1.36617768 30.0
-0.39894733 -0.24585371 -1.14888513 30.0
0.34139201 -0.83569103 -1.15924072 30.0
1.28077221 0.26841685 0.58646566 30.0
1.21306539 -1.56217480 -0.98830855 30.0
-1.31200254 -0.85968441 0.37917554 30.0
1.21554732 0.87165332 0.98884588 30.0
0.61603886 -0.32854301 1.27834070 30.0
1.37457907 -1.31046224 -0.40883207 30.0
-0.86616480 1.09234500 1.40104723 30.0
1.03220153 0.78157240 1.41051114 30.0
0.78101379 -1.17235255 -1.16087711 30.0
1.33731079 1.22246683 0.08059445 30.0
0.06218851 0.60584229 1.81896818 30.0
1.07658267 0.71755606 1.34553003 30.0
1.03889418 0.87308335 1.41277349 30.0
-1.11457443 1.24301994 0.97437972 30.0
1.32170355 -1.12956846 -0.95037991 30.0
-1.05056036 0.83900499 -1.42851138 30.0
0.93118125 -0.46253124 -1.10722697 30.0
1.32402623 -0.94132549 -1.18720305 30.0
-1.40553093 -0.97910184 -0.51072246 30.0
-0.95127541 0.67213911 1.54418445 30.0
-1.13556314 1.12828588 1.27440548 30.0
-0.94893479 0.41646680 1.50433195 30.0
-0.57789534 -0.81095821 -1.14591062 30.0
-1.32329392 -1.08648002 0.30222943 30.0
0.88447797 0.15998299 1.43265045 30.0
-0.60349822 -1.20249605 0.33746469 30.0
-1.24032390 1.32271957 0.43549177 30.0
-1.15203595 -1.17321539 -1.30438304 30.0
-0.92542511 -0.25566515 1.35835016 30.0
1.37018907 0.26922312 0.12624808 30.0
0.07234806 0.85247529 1.51528823 30.0
-1.38193297 -0.62701458 0.37066966 30.0
0.36517137 0.68753254 1.78354943 30.0
-1.40949094 -1.01641870 0.16584368 30.0
-0.98199034 0.82627356 1.53556180 30.0
0.69039440 -1.63291502 -0.23488414 30.0
-0.11178438 1.48576152 -0.27704430 30.0
0.25258577 1.43251216 -1.12069190 30.0
-0.10319141 -0.10450728 1.61124623 30.0
-1.41454506 -0.97910184 0.07729056 30.0
0.83338243 1.47732687 -0.53267813 30.0
-1.18642557 1.14270031 1.12922442 30.0
-1.32439029 -1.41594303 -0.98592877 30.0
0.34703994 0.43582970 1.86833644 30.0
0.24583718 0.84956092 1.50737941 30.0
1.36804545 0.17540787 -0.32001388 30.0
0.89171135 -1.34596479 -1.09701061 30.0
1.04221237 0.92154431 1.40748179 30.0
0.05822157 -0.00786327 1.90661573 30.0
0.33650076 1.28468502 -1.13708472 30.0
1.37026870 0.00475620 -0.01061142 30.0
1.01788843 1.21931052 1.14703953 30.0
0.26055622 -1.40514970 0.27045098 30.0
0.68578541 1.26049650 1.18021905 30.0
-0.71042246 1.34970796 0.82303286 30.0
-0.80037338 -0.74416828 -1.12834775 30.0
0.24659942 -1.65589380 -1.02130163 30.0
-0.81025064 -0.46598658 -1.11814952 30.0
-1.02798200 0.91747624 1.46758235 30.0
0.91611928 0.41298977 1.53633273 30.0
0.92316443 0.00647593 -1.10897124 30.0
-1.39610434 -1.26255071 0.08477800 30.0
-0.15290372 0.86162633 -1.18077886 30.0
-0.64376879 0.75995469 1.46559644 30.0
-1.41078019 0.95727271 -0.48104489 30.0
1.36341691 -1.26672363 -0.09975741 30.0
-1.42341840 0.91350597 -0.16449569 30.0
1.28284550 0.34679291 0.58714819 30.0
-0.11083959 1.19858027 1.36460149 30.0
-1.18927956 -1.42565322 -1.06087327 30.0
0.54335648 -1.66530263 -0.91202056 30.0
-0.63961256 1.20277929 -1.13860536 30.0
-0.29260749 1.49088097 -0.05208752 30.0
-1.38806117 -0.99553180 0.26316845 30.0
0.85013151 -1.18684387 0.33773628 30.0
0.94690615 -1.61886215 -0.99675852 30.0
0.69454360 -1.47178054 0.23117600 30.0
-0.24920923 -0.06665410 1.79747868 30.0
-1.17337120 -0.79157388 -1.12857509 30.0
0.62262714 -0.39409819 -1.12967539 30.0
0.20927630 0.43587199 1.87460232 30.0
-1.17956376 0.54926628 -1.07973504 30.0
1.11393535 -0.51231027 0.91978520 30.0
-0.65254849 -0.32854301 1.27834070 30.0
0.37268549 1.22441578 -1.14258480 30.0
1.39599335 -0.72299373 -0.51088715 30.0
-1.30149841 -1.20922709 -1.10627544 30.0
-0.96784538 0.94231808 -1.40249419 30.0
-0.98269659 -0.81591624 0.47698298 30.0
0.62898940 -0.46930456 -1.12899029 30.0
1.35099018 -1.17293847 0.04994117 30.0
-0.55829412 0.24714079 1.79464233 30.0
1.36905944 -0.23890565 -0.01730952 30.0
1.30667090 -1.09073830 -1.16988039 30.0
-1.41046727 -0.94132549 -0.51317728 30.0
-0.64407521 -0.90269870 -1.15687382 30.0
0.62311715 -0.08027928 -1.13074219 30.0
-1.17147756 -0.53903884 -1.07890677 30.0
0.93725002 0.33361849 1.52478278 30.0
1.10175467 1.38441312 -1.04604673 30.0
1.16237080 -1.32304168 -1.06322515 30.0
-1.38707697 -1.21957910 0.01646824 30.0
-0.24307151 0.34870496 1.89929116 30.0
-0.95585543 1.45533621 0.24814436 30.0
1.30947232 0.99967724 0.55385894 30.0
1.38635457 0.77436376 -0.69009238 30.0
-0.97553444 0.66613805 1.53012466 30.0
0.91155803 -1.30289590 -1.10208786 30.0
-1.19283247 -1.43829119 0.21487951 30.0
1.37939227 -0.94132549 -0.34136048 30.0
1.06094003 0.52096170 1.33997023 30.0
0.54580003 0.56961751 -1.13884616 30.0
1.02080047 -0.89203924 0.41414660 30.0
-0.40226138 0.36822650 -1.14916420 30.0
-0.60673445 0.03647299 1.56419384 30.0
-0.57991266 -1.59835339 0.05345867 30.0
0.26192278 -0.99180001 0.39866948 30.0
-0.60910589 0.92536998 1.42797697 30.0
-0.94839150 -0.08457807 1.50072551 30.0
-0.91272736 1.23656607 -1.12239349 30.0
-1.38635063 0.38945049 -0.73187035 30.0
1.01405084 0.83900499 -1.42851138 30.0
-0.57747674 1.35702360 0.82615453 30.0
-1.28233862 -1.13104427 -1.29478014 30.0
0.97584760 0.66472870 1.47956371 30.0
-0.69844931 1.45762086 0.37389252 30.0
1.36316562 -1.09073830 0.07936896 30.0
-0.61220628 -0.65048546 -1.13622725 30.0
1.35251212 0.34764403 0.28877568 30.0
0.24799050 0.84909517 1.45379889 30.0
-0.56753403 -0.05565512 1.68803239 30.0
1.39084888 -0.86651975 0.12129012 30.0
-0.13715464 -1.32157326 -1.14455366 30.0
-1.41829813 -1.35469151 -0.08047233 30.0
0.80437237 0.49522933 1.40136600 30.0
0.92791414 0.35748780 -1.10896969 30.0
1.01585805 0.44167534 1.39624226 30.0
0.83807671 1.47935820 -0.14162119 30.0
0.11497026 1.22450256 -1.15021408 30.0
1.37308097 0.99966615 -0.31913197 30.0
0.95617390 -1.57812834 -1.06039739 30.0
-1.00057137 0.97208959 1.45549917 30.0
-1.09137344 -0.27253616 1.24490392 30.0
0.08740135 1.34171808 -1.14193594 30.0
1.11017406 -0.16289863 -1.08159435 30.0
-0.65088332 0.42895862 1.45439363 30.0
1.37323344 -1.01641870 0.13123453 30.0
1.39348567 0.86807638 0.12577064 30.0
-1.16637003 -1.61727107 -0.65811449 30.0
-0.27009538 0.50894278 -1.15761042 30.0
0.61421603 0.58050537 1.53090918 30.0
1.30225420 -0.80464810 -1.11377108 30.0
-0.91878647 1.04061413 -1.24725485 30.0
-1.42422760 0.91351849 0.12215912 30.0
-1.00181901 -1.51881671 0.16384399 30.0
1.11800361 1.29475439 -1.05830908 30.0
0.07404254 1.43261266 -1.12819052 30.0
-0.97607106 0.39872587 -1.10889590 30.0
0.49240416 -0.68402505 0.76076287 30.0
-1.40455508 0.17540787 -0.32001388 30.0
1.27890658 -0.08036476 -0.96798825 30.0
-1.03468394 0.99025244 1.41755521 30.0
1.09861648 0.40313613 1.24161673 30.0
1.34627926 -0.94132549 -0.94891942 30.0
0.72006172 -1.46175659 -1.10340416 30.0
0.62262714 -0.39409819 -1.12967539 30.0
1.24332428 1.43515921 -0.04369057 30.0
-1.20760453 -0.30826709 0.89866859 30.0
-0.11443409 -1.29913211 0.31594411 30.0
-0.11146947 1.49057508 0.01681464 30.0
1.33431244 0.86806476 -1.19000244 30.0
-0.86501563 1.13709104 1.37266922 30.0
0.06542091 -0.09896972 1.69393396 30.0
-1.34631550 -1.05342746 -1.18558586 30.0
1.27613974 -1.53140819 -0.00649853 30.0
-1.44616520 0.61073327 -0.31983107 30.0
1.36970425 -0.08037129 -0.16558336 30.0
1.31730485 0.99966615 -1.18178558 30.0
-1.20213866 -0.15848419 0.94600689 30.0
1.37796974 -0.97910184 0.13136014 30.0
-0.10880499 -1.55306482 0.16296451 30.0
0.07692564 -1.03052497 0.39166552 30.0
1.39348567 0.86807638 0.12577064 30.0
-1.44253564 0.54264307 -0.16465221 30.0
1.11053479 0.00566217 -1.08171868 30.0
-0.12460430 -1.36529315 -1.14257157 30.0
1.31796050 1.28052926 -0.48500338 30.0
0.26083422 0.97546887 1.44850135 30.0
-1.17090619 0.74701566 1.25049853 30.0
0.25611106 1.49058366 -0.08474630 30.0
-1.41078019 0.95727271 -0.48104489 30.0
-0.98421007 -0.30311820 1.39894950 30.0
-1.40543544 -0.23890565 0.12401945 30.0
1.38177991 0.95728236 0.11311804 30.0
0.25527784 1.49046946 0.01752149 30.0
0.35740310 0.55689645 1.82763731 30.0
0.07482246 1.15663040 1.41160583 30.0
-0.28310895 -1.65589380 -1.02130163 30.0
-1.40598035 0.38945049 -0.16468120 30.0
-0.65828836 -0.32041872 -1.13016605 30.0
-0.82761860 -0.93878776 -1.17350864 30.0
1.05696630 0.44601500 1.33648455 30.0
-1.39403105 -1.12980771 -0.03303368 30.0
1.05476868 0.42572102 1.33573651 30.0
0.93786478 0.59890467 1.52803254 30.0
0.43189871 -0.65123725 -1.14493012 30.0
0.81707317 -0.64275259 -1.11575747 30.0
1.27423632 -1.56819999 -0.74632007 30.0
-0.09713068 -0.16639319 1.37971318 30.0
-1.40058351 -0.45521680 0.25384706 30.0
-1.19226825 1.06163013 1.22968471 30.0
1.37261200 -1.01641870 -0.13278159 30.0
0.47826016 0.77420086 1.72907948 30.0
-0.57986605 -1.66530263 -0.91202056 30.0
0.36282885 0.09714923 -1.14916575 30.0
-1.41132450 -1.30629086 0.06363501 30.0
1.12313640 1.01086652 -1.45029521 30.0
0.57452649 0.24271983 1.54367149 30.0
1.34230530 0.82124877 -1.17438006 30.0
0.70682418 1.38417614 -1.10474563 30.0
1.26631999 1.16623104 -1.09165621 30.0
1.20381427 1.32271957 0.43549177 30.0
0.40406668 -1.60036051 0.05257261 30.0
0.95805454 -0.73263383 -1.11213315 30.0
-1.39383960 -1.12980771 -0.11624435 30.0
-0.74236888 -1.14838409 0.34935725 30.0
-0.59414494 -1.47887385 0.23042156 30.0
-1.31475830 0.08948088 0.58396679 30.0
0.87945449 -1.09014452 -1.25567973 30.0
-0.56753403 -0.05565512 1.68803239 30.0
0.41207618 1.49434733 -0.86482275 30.0
1.33727407 1.12497234 -0.68414032 30.0
-0.09456945 0.34873381 1.90566432 30.0
1.02255476 -0.96846545 0.39234784 30.0
1.07658267 0.71755606 1.34553003 30.0
1.36284697 0.26957050 -0.49125186 30.0
1.31349659 -1.01641870 -1.19534528 30.0
-0.98269659 -0.81591624 0.47698298 30.0
-1.34965360 1.04158735 -1.16423047 30.0
-1.19392014 -1.27691770 -1.06855464 30.0
1.21338904 1.17119253 0.80473781 30.0
1.37086725 -1.31046224 -0.52185822 30.0
-1.16647315 0.92381483 -1.48305273 30.0
0.96021050 0.73645210 -1.21505725 30.0
0.60018462 0.42529771 1.53123140 30.0
-1.28275096 -1.09344935 -1.33584869 30.0
-0.99467409 -1.63236117 -0.77548969 30.0
-0.95585543 1.45533621 0.24814436 30.0
-0.65962672 -0.08027928 -1.13074219 30.0
1.40420759 0.54264307 -0.31990144 30.0
-1.39731300 0.68346119 -0.94208133 30.0
-0.55378026 0.50811273 -1.13953471 30.0
-1.44847476 0.67790687 0.12910224 30.0
1.39451182 -0.83279258 -0.05505033 30.0
-0.25943616 0.36826277 -1.15852177 30.0
-0.82066244 1.20107889 -1.13867080 30.0
1.10143209 -0.82634032 -1.25841069 30.0
-0.63696426 -1.13560116 -1.15858114 30.0
-0.81988776 -1.23587537 -1.14264143 30.0
1.32990265 -1.17231655 -0.75373185 30.0
-1.44866383 0.67794538 -0.01016898 30.0
1.36279356 0.17540787 -0.49124923 30.0
1.40602601 0.54264307 -0.16465221 30.0
-1.13031304 1.16525769 1.21414781 30.0
-0.57944888 0.83936507 1.43091905 30.0
0.25137427 1.48558235 -1.00108528 30.0
-1.41132450 -1.30629086 0.06363501 30.0
1.29449439 0.43466488 0.58774853 30.0
-0.94216198 0.07749460 1.48674524 30.0
-1.30473506 1.32635105 0.27589744 30.0
-1.40243089 -1.41340804 -0.46812701 30.0
-0.74020571 -1.53397381 -1.09984696 30.0
-1.33238661 1.40421665 0.00877708 30.0
0.07213592 -1.60058308 0.05146401 30.0
0.83807671 1.47935820 -0.14162119 30.0
1.34928310 -0.38275164 -0.73093802 30.0
1.35290837 -1.30942690 -0.80823553 30.0
-0.88664114 -1.18684387 0.33773628 30.0
1.33104765 -1.15206134 0.21279606 30.0
0.36229789 -0.58513761 0.95739716 30.0
0.05866853 -0.33028311 1.30613244 30.0
0.86205047 -0.97783589 0.39486820 30.0
1.15377295 1.10329580 1.18697846 30.0
-1.41620195 -1.35469151 -0.33118966 30.0
1.34626627 -1.17293847 -0.41869360 30.0
1.29072893 0.43828630 -0.96770096 30.0
-0.44433495 -1.67442131 -0.69455200 30.0
-0.11279093 -1.11033118 0.36665145 30.0
-0.37117940 -0.06737926 1.79297221 30.0
1.17257214 -1.07754779 0.34654671 30.0
-0.51195335 -0.16918151 1.35559094 30.0
1.08300447 0.10743643 1.23019814 30.0
-0.95180339 0.73889744 1.54688525 30.0
1.34984100 0.38945049 -0.73187035 30.0
-1.38420892 -0.31175777 -0.73120326 30.0
-1.41454506 -0.97910184 0.07729056 30.0
0.32778394 -0.00948493 1.89980125 30.0
-1.06869388 0.72897744 -1.23777759 30.0
0.72006172 -1.46175659 -1.10340416 30.0
-1.42886758 0.72918183 0.29457974 30.0
-1.13146174 -1.56608713 -1.04415214 30.0
0.06381981 -0.10149390 1.42606962 30.0
-1.10107923 0.58066523 1.34217346 30.0
1.36786747 -0.90339702 -0.71100259 30.0
-1.41523147 -1.31046224 -0.04773988 30.0
-0.28909528 1.43251216 -1.12069190 30.0
-0.80304128 -0.16437089 -1.11981046 30.0
-0.15115117 -1.23757184 -1.15816975 30.0
0.35671857 -0.48838186 1.11950862 30.0
1.18814087 -0.92564452 0.38667616 30.0
1.32577538 1.22203147 0.18996198 30.0
0.69838786 1.06052613 1.42152476 30.0
-1.35381854 0.82126844 0.59302247 30.0
0.07561643 -1.54353034 -1.12506509 30.0
0.48241907 0.68418747 1.76461279 30.0
-1.36354995 -1.09073830 -0.94993591 30.0
0.70079666 1.48712349 -0.01762171 30.0
0.49660721 -0.79900354 0.53361034 30.0
-0.40791512 1.17197144 -1.15397215 30.0
-0.98774451 -0.81796306 -1.20452678 30.0
1.20182872 1.40531528 0.25877070 30.0
1.30927062 1.08353829 -1.14090323 30.0
0.54658347 1.28457510 -1.12788212 30.0
-0.61939192 0.42560133 1.63855350 30.0
0.37032372 -1.09671104 -1.17163122 30.0
-1.39838052 -0.38275164 -0.49611124 30.0
1.36980855 0.17540787 -0.16468275 30.0
1.29046667 -1.55621219 -0.27892363 30.0
-1.40669858 0.26922312 0.12624808 30.0
-1.34279287 -0.53596693 -0.96434611 30.0
-0.90886223 -1.27629852 -1.12268937 30.0
1.08566368 0.19297862 1.23612976 30.0
0.94700599 0.91539878 1.50978196 30.0
0.60160571 -1.20838988 -1.14638650 30.0
1.28149343 -1.44466090 0.15917215 30.0
-1.41202152 0.99966723 -0.01728762 30.0
-1.44449461 -0.62701458 0.08098408 30.0
-1.34047258 1.36877668 -0.32313436 30.0
1.28077221 0.26841685 0.58646566 30.0
1.38690877 0.91350597 -0.16449569 30.0
0.55031163 -1.67749655 -0.56629169 30.0
0.54580003 0.56961751 -1.13884616 30.0
-0.59426713 0.14784263 1.67482233 30.0
0.97886980 -0.24519728 1.38974476 30.0
-0.65879095 -0.40178579 1.21381807 30.0
1.36786747 -0.90339702 -0.71100259 30.0
0.76515675 -0.31837890 -1.11931694 30.0
1.32546246 -0.84563768 0.34026381 30.0
-1.00455523 0.07472640 1.45468962 30.0
-1.41507554 0.43688846 -0.16467422 30.0
-0.82964200 -0.39615682 1.21530795 30.0
0.42164242 -1.15524411 0.35043502 30.0
0.06387356 0.78508335 1.75116730 30.0
0.79225016 1.41837943 0.50212789 30.0
-0.80332291 0.18287510 -1.11991155 30.0
-1.42506886 0.54184330 0.29132956 30.0
-1.41540742 -0.79266173 -0.71711916 30.0
-1.30473506 1.32635105 0.27589744 30.0
1.14013684 -1.59696758 -0.28558034 30.0
0.06323998 -0.39614823 -1.16513228 30.0
-0.09549084 0.43590623 1.87968183 30.0
-0.96211261 -1.22027647 -1.22328174 30.0
-0.68235087 -0.02475964 1.39047348 30.0
-1.02279222 0.68123239 -1.13003683 30.0
0.33323631 -0.81101668 -1.15524447 30.0
-1.43876326 0.77425539 -0.31960273 30.0
-0.10669662 1.46533692 0.37847421 30.0
-1.41221404 -0.86234331 0.25825781 30.0
1.08734560 1.20100248 1.12434053 30.0
0.80645394 1.47524297 0.15163529 30.0
0.41871291 1.48867190 -0.15088889 30.0
1.38633835 -0.83279258 -0.51490122 30.0
0.79110903 -0.93878776 -1.17350864 30.0
0.07384198 1.48892879 0.07114900 30.0
1.28077221 0.26841685 0.58646566 30.0
0.88138002 -1.20118999 -1.19737351 30.0
1.27423632 -1.56819999 -0.74632007 30.0
-1.39242911 -0.95821488 0.27100384 30.0
-0.43289053 0.84513503 1.55889678 30.0
1.37859499 -1.31046224 -0.13739926 30.0
0.36587593 1.24516678 -1.13960791 30.0
-0.91973376 1.16384494 -1.19022393 30.0
0.11416940 -1.13575554 -1.17578828 30.0
-0.28350043 -1.60048246 0.05196530 30.0
0.94482404 1.07761097 1.38846409 30.0
1.28928411 -0.45621851 -0.96589065 30.0
1.09172297 -0.29430440 1.14303553 30.0
-1.14705586 0.17807961 -1.08172154 30.0
0.96090955 0.76354754 -1.26433456 30.0
-0.82211661 1.22258210 -1.12971354 30.0
-0.28586113 -1.67454922 -0.70059943 30.0
-1.16299832 1.40948415 0.31763619 30.0
-1.39930308 0.17540787 -0.49124923 30.0
-1.35897672 -0.72838229 -0.95477736 30.0
1.27782655 -0.16207834 0.57501602 30.0
-1.12823260 -0.29430440 1.14303553 30.0
-0.51861441 -0.10036324 1.39708662 30.0
0.07294040 -1.67465460 -0.70559132 30.0
0.99945259 -1.43775392 -1.08211744 30.0
1.00846255 -1.17528534 0.33579707 30.0
1.39292860 0.67882806 -0.70520943 30.0
-0.74333376 1.38417614 -1.10474563 30.0
-0.95893669 -0.38864285 -1.10790133 30.0
0.82516289 -1.65556931 -0.43655306 30.0
0.60756558 -0.90269870 -1.15687382 30.0
-0.94746709 0.07905677 1.51887202 30.0
-1.14808154 0.49855873 1.24562335 30.0
1.23639393 1.43227196 -0.51253420 30.0
1.32885826 1.16898954 -0.69123530 30.0
0.95174837 1.43298554 -1.03391123 30.0
1.33721161 -0.86654735 -1.15208387 30.0
0.07682636 -0.91341525 0.42301884 30.0
-1.42761695 -0.86651975 0.04989291 30.0
1.14445257 1.18234468 1.04412818 30.0
0.56698865 -1.20249605 0.33746469 30.0
-1.21623516 1.44131684 -0.85672277 30.0
-0.90537316 -1.32588732 0.29661280 30.0
0.62375963 -0.75323331 0.61276489 30.0
-0.50283200 -0.25383747 1.32794511 30.0
-0.86616480 1.09234500 1.40104723 30.0
-1.44449461 -0.62701458 0.08098408 30.0
0.41638547 1.48659325 -0.54983604 30.0
0.62898940 -0.46930456 -1.12899029 30.0
-0.71668577 1.30162358 1.02445972 30.0
-0.11035153 1.48892879 0.07114900 30.0
0.59901613 0.58431935 1.62403917 30.0
0.69822621 1.01647484 1.42517853 30.0
1.33703947 -1.10892630 0.22757515 30.0
1.35214317 0.26886040 0.28889352 30.0
-1.24032390 1.32271957 0.43549177 30.0
-0.97607106 0.39872587 -1.10889590 30.0
0.25104058 -1.67952907 -0.45612738 30.0
-1.43997037 -0.72251201 -0.19721603 30.0
-0.92765075 0.90403461 -1.26347613 30.0
-0.95872509 0.95694894 1.49576354 30.0
0.45016220 -0.09395801 1.68603778 30.0
1.32824945 -1.21872258 -0.77034342 30.0
1.11703181 1.45309007 -0.25101295 30.0
-0.15092529 -1.20855498 -1.16343141 30.0
0.05706677 0.16243647 1.95528650 30.0
-0.93081862 0.46130481 1.43956590 30.0
-0.57789534 -0.81095821 -1.14591062 30.0
1.36979532 0.08948088 -0.16468275 30.0
-1.00169110 1.35846782 -1.08335590 30.0
-0.60923404 -0.91219509 0.41774610 30.0
-0.95142287 0.60435295 1.54207098 30.0
0.92673051 -1.26599562 -1.12418902 30.0
-0.10407726 0.50898206 -1.16532934 30.0
-0.15124577 1.20296788 -1.15554702 30.0
1.29149628 0.77791125 -1.29776931 30.0
-1.06702876 1.15013504 1.29706454 30.0
-0.73334861 1.14834523 1.38031256 30.0
-1.04878449 -1.08388746 0.36021155 30.0
1.08369112 1.37553942 0.46070549 30.0
-1.26327598 -1.51455891 0.08929147 30.0
1.36758387 -0.16207834 -0.32416901 30.0
-1.14697218 -0.08034612 -1.08169377 30.0
1.31475568 1.33070552 -0.16417594 30.0
0.88571912 -1.25216365 -1.14641595 30.0
-1.12368989 0.95508015 1.35812187 30.0
1.35394979 -1.09073830 -0.51620477 30.0
-0.45386940 0.85637134 1.42767572 30.0
1.34230530 0.82124877 -1.17438006 30.0
0.90887415 0.79855460 1.51809335 30.0
0.56751770 1.02149570 1.43180180 30.0
-1.25922143 1.08738601 0.91364014 30.0
0.88731867 -0.97380191 -1.25840926 30.0
-1.40637171 0.26957050 -0.16468304 30.0
0.55197829 -1.67728889 -0.44766849 30.0
1.32990265 -1.17231655 -0.75373185 30.0
-1.13029087 0.36326912 1.24081635 30.0
-0.40823069 -1.23749530 -1.15049338 30.0
0.59229541 0.76035714 1.53718281 30.0
-1.41426992 -1.35052192 0.03964329 30.0
-1.12701285 0.99869072 1.35660863 30.0
0.26091069 -1.25333822 0.32783878 30.0
-0.98341560 -1.61886215 -0.99675852 30.0
-1.40462732 -1.05342746 0.15201832 30.0
-0.98774451 -0.81796306 -1.20452678 30.0
0.78689253 0.06995730 1.38391459 30.0
0.33976850 0.69963366 -1.15544438 30.0
-1.25737441 0.73274904 0.98524719 30.0
1.37028551 0.17539053 -0.01087118 30.0
-1.13794160 -0.82634032 -1.25841069 30.0
0.49109864 -0.58438987 0.95248419 30.0
1.36804545 0.17540787 -0.32001388 30.0
-1.42247248 0.86806476 -0.48155326 30.0
1.09563887 -0.81324983 -1.20177984 30.0
0.39133084 0.84571552 1.61817455 30.0
0.07512181 1.48448384 -0.41906434 30.0
0.82270688 -1.65577388 -0.55356473 30.0
-0.39932570 -1.28407860 -1.14018464 30.0
0.98902375 0.87130797 1.48168123 30.0
0.79584938 -0.82367265 0.48037294 30.0
-0.30048683 -1.29905140 0.31487662 30.0
0.24696890 -1.66752565 -0.91952580 30.0
-0.77836001 0.63523000 -1.12937152 30.0
-0.82702202 -0.54736686 -1.11718154 30.0
0.90573579 -0.32256198 1.31981933 30.0
1.35959482 -1.26255071 0.08477800 30.0
-1.37354910 -1.10892630 0.22757515 30.0
0.11473623 1.20296788 -1.15554702 30.0
0.35671857 -0.48838186 1.11950862 30.0
-0.85878086 1.47193861 -0.96669161 30.0
-0.98516023 0.95035958 1.48450828 30.0
1.38653326 -0.90339702 0.17288643 30.0
1.00909102 -1.29186094 -1.09265554 30.0
-1.14704430 0.00566217 -1.08171868 30.0
1.32546246 -0.84563768 0.34026381 30.0
0.42164242 -1.15524411 0.35043502 30.0
1.34400773 -1.24585915 0.18580461 30.0
-1.02321100 0.95451528 1.45294094 30.0
-0.10851203 -1.65599811 -1.02156138 30.0
0.36285111 0.28525460 -1.14918184 30.0
1.30951095 -0.71833986 0.45161301 30.0
-1.22103775 -0.96325403 0.37831002 30.0
-1.39395928 0.86806476 -0.93712145 30.0
-0.28863853 -1.64301968 -0.24424478 30.0
1.31533885 1.33070552 -0.02438532 30.0
1.36967206 -0.16207834 0.12704711 30.0
-0.15386975 0.81475151 -1.17563713 30.0
1.37872183 -1.31046224 -0.04773988 30.0
-0.63785028 1.09163368 -1.14588249 30.0
-0.59846610 1.48346448 -0.40786633 30.0
0.07388689 -1.64312315 -0.24651355 30.0
1.30063689 -1.16947281 -1.12559843 30.0
1.08566368 0.19297862 1.23612976 30.0
0.55055934 1.26735651 1.18567967 30.0
1.28928411 -0.45621851 -0.96589065 30.0
-0.45069310 1.49164891 -0.70423180 30.0
0.60043591 -1.09662962 -1.16217887 30.0
1.35539222 -1.48381305 -0.17022999 30.0
-0.65828836 -0.32041872 -1.13016605 30.0
0.88891554 -0.25566515 1.35835016 30.0
0.21725315 -0.48841447 1.12667012 30.0
-0.46328613 1.39362049 -1.12280715 30.0
1.02167439 1.41982388 0.35475639 30.0
1.32197428 0.95727271 -1.19300330 30.0
0.86471641 1.32024932 -1.09639585 30.0
-1.38147974 1.16927540 -0.31867665 30.0
-1.41568017 0.95727271 -0.31923044 30.0
-0.53259957 -0.47127831 -1.13865221 30.0
1.24582911 -1.13104427 -1.29478014 30.0
0.07527068 1.48890555 -0.15470190 30.0
0.97047108 -1.63007581 -0.34805742 30.0
0.23422085 -0.83523154 0.48659667 30.0
0.25487441 1.15654814 1.40403926 30.0
0.84574175 -0.73850191 -1.12075102 30.0
1.37488270 0.73020130 -0.93125939 30.0
-0.94806761 -1.30289590 -1.10208786 30.0
-0.94146925 0.80887926 -1.22427392 30.0
-1.44253564 0.54264307 -0.16465221 30.0
-0.61707193 0.76249635 1.61271727 30.0
1.30077338 -1.21701264 -0.96002632 30.0
-0.73031229 1.19019711 1.33444118 30.0
-1.42035460 -0.72492039 -0.72605139 30.0
-1.16509104 -1.56998730 -0.04639460 30.0
1.37323344 -1.01641870 0.13123453 30.0
1.19377542 -1.30429113 0.28212255 30.0
1.36930799 0.91350597 -0.68729234 30.0
1.01035762 -0.09901889 1.36124098 30.0
1.35586786 -0.86644679 -0.93872261 30.0
-0.25758281 -0.08026283 -1.15850329 30.0
1.07041073 0.64963353 1.34383011 30.0
0.22449879 -0.09295519 1.51163471 30.0
0.69822621 1.01647484 1.42517853 30.0
-1.37132251 1.22246683 -0.31851166 30.0
-1.42662537 -0.86651975 -0.20209518 30.0
0.91005981 0.61071771 1.51011169 30.0
0.78334898 -1.01775753 -1.17924106 30.0
0.37172118 -1.23749530 -1.15049338 30.0
0.61437374 0.42895862 1.45439363 30.0
1.01658642 0.46177337 1.39682364 30.0
-1.16852713 -1.49842191 -1.05893087 30.0
0.91329134 0.24609087 1.53666389 30.0
1.30980599 -1.05342746 -1.18558586 30.0
-0.59051365 1.48790312 0.07275868 30.0
1.08131766 0.02271179 1.22273839 30.0
0.37480161 -0.90276462 -1.16628754 30.0
-1.31521165 1.40389132 0.11507024 30.0
0.07682636 -0.91341525 0.42301884 30.0
1.36794245 -0.08037129 -0.32084468 30.0
0.60424167 -1.25969183 -1.13585663 30.0
1.14213073 -0.63293207 -1.07714403 30.0
1.15363359 1.01815224 1.25387609 30.0
0.80441469 0.52290136 1.40279245 30.0
-1.20459342 -1.16805124 0.32239640 30.0
0.06330965 0.00866683 -1.16624773 30.0
0.55703676 1.19669795 1.34091198 30.0
-1.04460192 -1.12779772 0.34742248 30.0
-1.04560065 -1.29186094 -1.09265554 30.0
-1.05906427 -0.96846545 0.39234784 30.0
-0.45377061 1.49034142 0.01837780 30.0
1.35112524 -0.16207834 0.28880960 30.0
0.78627354 0.24803820 1.40236664 30.0
0.07073143 1.44076884 0.51134306 30.0
-0.86078447 1.48417675 -0.84172177 30.0
0.36636832 -0.47179279 -1.14737105 30.0
1.34845018 -1.49447334 -0.50136781 30.0
0.56095070 1.48954690 0.01948707 30.0
0.81686175 -0.83081502 -1.16290605 30.0
0.78023237 0.72844684 -1.14279079 30.0
1.36186421 -1.41319275 -0.57317144 30.0
0.07499207 0.85650033 1.44482529 30.0
0.52178454 0.24714079 1.79464233 30.0
0.06417885 -0.80005717 0.54119450 30.0
0.24602939 1.48510933 0.14880458 30.0
-1.44449461 -0.62701458 0.08098408 30.0
0.99945259 -1.43775392 -1.08211744 30.0
-1.19014311 1.01815224 1.25387609 30.0
-1.01898086 -0.66711944 0.73073173 30.0
-0.98895293 1.47536802 -0.83496106 30.0
-1.40581751 0.91350597 -0.68729234 30.0
-0.86137372 1.17881191 1.32710075 30.0
1.36341691 -1.26672363 -0.09975741 30.0
0.97149819 1.46740103 -0.25618076 30.0
0.93902481 0.66613805 1.53012466 30.0
-1.31600273 -1.57135582 -0.63913441 30.0
-1.06012368 0.79321879 -1.36931241 30.0
0.79214525 1.46576655 0.25201464 30.0
-1.40629816 0.34900680 -0.16468266 30.0
-0.94893479 0.41646680 1.50433195 30.0
-0.38364965 -0.16596277 1.36364830 30.0
0.78289670 1.17021120 -1.14872980 30.0
-1.40679514 0.17539053 -0.01087118 30.0
0.70103699 1.48505592 -0.14545389 30.0
1.12612474 0.62746823 1.24887073 30.0
-0.72405130 -1.66918778 -0.44250223 30.0
1.39724970 -0.72251201 0.16201855 30.0
-0.80919433 1.24330389 -1.12381232 30.0
-0.96443224 0.98735076 -1.39616847 30.0
1.09172297 -0.29430440 1.14303553 30.0
0.22056265 -0.32196766 -1.15791535 30.0
-1.05309606 0.46177337 1.39682364 30.0
-1.40505016 -0.23890565 -0.17504722 30.0
-1.28797984 1.08611524 -1.28663266 30.0
0.60696810 0.91038769 -1.16709387 30.0
-1.39195704 -1.35448444 -0.82231349 30.0
0.49660721 -0.79900354 0.53361034 30.0
1.27722514 -0.86920345 -1.29955661 30.0
-1.30473506 1.32635105 0.27589744 30.0
-0.45507643 1.49075282 -0.02137415 30.0
-1.41209531 -0.83279258 -0.71042752 30.0
1.10621667 0.45111457 1.24369335 30.0
-0.72654694 1.22652817 1.27282119 30.0
0.07682636 -0.91341525 0.42301884 30.0
-0.99215740 -1.56466818 0.05680927 30.0
1.28908873 -1.54351556 -0.11120295 30.0
-1.17218268 1.22767961 0.90363431 30.0
-0.09974951 -0.39614823 -1.16513228 30.0
0.89239430 0.90232450 1.45811987 30.0
-0.80531853 -0.78899181 0.53112912 30.0
1.35959482 -1.26255071 0.08477800 30.0
1.24358582 1.43382061 -0.11285673 30.0
-0.11289200 1.02297294 1.45719290 30.0
1.15263629 -0.60593748 0.76708066 30.0
-1.17409182 0.48956436 -1.08079779 30.0
0.56288147 1.48787975 -0.14867470 30.0
-1.22103775 -0.96325403 0.37831002 30.0
-1.37050450 1.04158735 -0.92899901 30.0
-1.17337120 -0.79157388 -1.12857509 30.0
-1.01537943 -0.24519728 1.38974476 30.0
-1.00768030 1.47221088 -0.07302047 30.0
-0.59056473 1.49346733 -0.85794830 30.0
0.91188192 -0.08457807 1.50072551 30.0
0.67692792 -1.59065318 0.05536445 30.0
1.11083174 1.45769274 0.03246999 30.0
0.88227683 1.04061413 -1.24725485 30.0
-1.44442785 -0.62701458 -0.04242835 30.0
1.16237080 -1.32304168 -1.06322515 30.0
0.92623520 -1.00502181 -1.39649606 30.0
-0.41319820 0.83640987 1.68433213 30.0
0.26091069 -1.25333822 0.32783878 30.0
-1.41376984 -0.97910184 -0.14949670 30.0
0.68547875 -1.66939414 -0.56035376 30.0
-1.12020063 1.37553942 0.46070549 30.0
0.61084926 0.86148781 -1.16350627 30.0
-1.40959036 0.99966615 -0.31913197 30.0
-0.25761431 0.28528413 -1.15853953 30.0
-1.19014311 1.01815224 1.25387609 30.0
0.43129364 -1.34518027 0.29646179 30.0
-0.94615978 -0.78159851 0.52722293 30.0
0.78334898 -1.01775753 -1.17924106 30.0
-0.94721103 0.33921462 1.50680506 30.0
1.12231708 -0.98837590 -1.47584724 30.0
1.14125085 -1.58785272 -0.22238991 30.0
0.30644059 -0.74847960 -1.15335429 30.0
0.75992769 -0.57661468 0.94505185 30.0
-0.12890477 -0.74852365 -1.16104782 30.0
-0.61103600 0.24271983 1.54367149 30.0
0.96056122 -0.56934524 0.91750401 30.0
-1.34531379 -1.26748919 0.25439391 30.0
-0.40010637 -0.68482119 0.76452404 30.0
-0.14081556 -0.83574098 -1.16696930 30.0
-1.44302893 0.54254526 -0.01062587 30.0
-1.08323109 0.21618363 1.33350861 30.0
-1.30511212 1.22310758 -0.93665433 30.0
-1.26185715 1.00337327 0.97085911 30.0
1.34663665 -1.21540475 0.10606540 30.0
0.29382113 -1.36520803 -1.13498759 30.0
-1.44072533 -0.72251201 -0.04923451 30.0
-1.21725285 -1.00055552 0.37020618 30.0
0.23111068 0.43158054 -1.15832138 30.0
-1.06411827 0.73068869 1.40738714 30.0
-1.33238661 1.40421665 0.00877708 30.0
-0.24307151 0.34870496 1.89929116 30.0
-1.03473401 -0.95818746 -1.45834887 30.0
0.42566526 -1.40504348 0.26947886 30.0
1.35976803 -1.09073830 -0.33049783 30.0
0.53102446 -0.05565512 1.68803239 30.0
-1.41620195 -1.35469151 -0.33118966 30.0
0.86030924 -0.90060115 0.41689104 30.0
0.69864714 1.48671472 0.02161383 30.0
1.36979532 0.08948088 -0.16468275 30.0
0.42784110 -0.99172693 0.39677060 30.0
0.42180112 -1.20397890 0.33844477 30.0
-0.29664487 -1.06944239 0.37900281 30.0
-0.24109016 0.25203744 1.92699730 30.0
-1.42304277 -0.90339702 0.17288643 30.0
1.34348452 1.12497234 0.21334271 30.0
0.93849981 1.16560364 1.31509888 30.0
1.38177991 0.95728236 0.11311804 30.0
0.61603886 -0.32854301 1.27834070 30.0
-1.36156082 1.28081501 -0.16422188 30.0
0.91095746 0.07905677 1.51887202 30.0
0.66224241 1.47328711 0.25185084 30.0
-0.94839150 -0.08457807 1.50072551 30.0
0.90373099 1.36627889 0.63596767 30.0
-1.15300524 1.45800185 -0.03671072 30.0
0.92221552 0.95694894 1.49576354 30.0
-1.11130488 1.45059574 -0.93835187 30.0
1.02167439 1.41982388 0.35475639 30.0
-1.37966383 -1.09073830 -0.72635436 30.0
0.77268475 1.24330389 -1.12381232 30.0
-0.93403953 0.85544753 -1.24744821 30.0
-0.72198838 -1.66939414 -0.56035376 30.0
-0.97110218 -0.08440914 1.48710465 30.0
-1.43997037 -0.72251201 -0.19721603 30.0
1.37012506 0.34834015 0.12606393 30.0
1.39327002 0.48354393 -0.01086778 30.0
0.11639418 0.86162633 -1.18077886 30.0
-1.15625012 -0.45907018 -1.07993472 30.0
0.48536682 -0.48742872 1.11396694 30.0
-1.42433727 0.77426207 0.29356828 30.0
0.82152617 -1.60142267 -0.05597593 30.0
0.91791582 -0.24216814 1.45430946 30.0
0.93813050 -0.89045626 -1.31612563 30.0
-1.08361959 -0.40730068 1.13606906 30.0
-1.40454161 0.08948088 -0.32001367 30.0
-0.25808269 -0.68486959 0.76910073 30.0
-0.59629577 1.48580384 -0.54501778 30.0
0.34703994 0.43582970 1.86833644 30.0
-1.40678048 0.08948088 -0.01079606 30.0
1.37778616 0.86808652 0.28932929 30.0
-1.27871156 1.43538213 -0.00729242 30.0
-1.33737743 -0.89767253 0.35507488 30.0
-1.42033863 -0.90339702 -0.35467333 30.0
-0.15386975 0.81475151 -1.17563713 30.0
1.03510070 0.96423668 1.40514326 30.0
-1.43524826 -0.53430980 -0.18736777 30.0
-0.94118547 0.93771958 1.50158501 30.0
-0.93081862 0.46130481 1.43956590 30.0
0.40674824 0.57048154 -1.14756620 30.0
1.35021067 -1.39132726 0.12297250 30.0
-0.40983379 -0.97961009 -1.17441678 30.0
1.30063689 -1.16947281 -1.12559843 30.0
1.34315431 -1.09073830 -0.72635436 30.0
0.51026553 0.82712328 1.61297691 30.0
0.79110903 -0.93878776 -1.17350864 30.0
0.93460351 0.16033985 1.51440883 30.0
-1.09505546 1.45406389 0.15008783 30.0
0.69720578 1.48299062 -0.53921825 30.0
-0.97449899 0.46764040 1.52170408 30.0
0.07229546 -1.55306482 0.16296451 30.0
0.78289670 1.17021120 -1.14872980 30.0
0.57452649 0.24271983 1.54367149 30.0
-0.98870200 -0.79389995 -1.14655244 30.0
-0.86616480 1.09234500 1.40104723 30.0
0.62317032 0.18517558 -1.13076508 30.0
-1.15169287 1.45188892 -0.38635021 30.0
-0.96324015 -1.26599562 -1.12418902 30.0
0.23072276 0.84014910 1.68993998 30.0
-0.11163136 1.48448384 -0.41906434 30.0
0.07379258 -1.65289247 -0.31157738 30.0
1.37202072 -0.86651975 -0.71005446 30.0
-1.39195704 -1.35448444 -0.82231349 30.0
1.37028551 0.17539053 -0.01087118 30.0
-0.97434795 0.49453759 1.52309549 30.0
0.95244330 1.47536802 -0.83496106 30.0
0.78334898 -1.01775753 -1.17924106 30.0
0.62711102 0.65728432 1.45996296 30.0
1.07806492 1.24301994 0.97437972 30.0
-0.40756792 -1.20848036 -1.15572381 30.0
1.03609562 -0.48672304 1.02763748 30.0
-1.12217331 0.19297862 1.23612976 30.0
-0.96562201 -1.24208784 -1.17048824 30.0
-1.00231922 -1.64158964 -0.54735398 30.0
1.39098120 0.48368120 -0.31995010 30.0
0.94618696 -0.81591624 0.47698298 30.0
0.54293931 0.83936507 1.43091905 30.0
0.54096717 1.35702360 0.82615453 30.0
-1.39190173 -1.48381305 -0.17022999 30.0
1.36786747 -0.90339702 -0.71100259 30.0
-0.94118547 0.93771958 1.50158501 30.0
-1.06669652 -1.26782954 0.31169233 30.0
-0.68967366 -0.83035851 0.48124832 30.0
0.89129484 0.76034683 1.45139229 30.0
-0.81858200 1.13233519 -1.15471268 30.0
0.25793943 1.06857109 1.44559193 30.0
-1.42422760 0.91351849 0.12215912 30.0
1.29587698 1.40421665 0.00877708 30.0
-1.12385523 1.20100248 1.12434053 30.0
-1.32555258 1.16883993 0.45700559 30.0
-0.10944994 -1.67465460 -0.70559132 30.0
0.51830339 -0.83417606 0.48213166 30.0
-0.62986374 1.24506009 -1.13038707 30.0
1.36786747 -0.90339702 -0.71100259 30.0
1.32146239 1.12565005 -0.91664588 30.0
1.39667153 0.82124877 -0.31951278 30.0
-0.95972443 0.27649137 -1.10898674 30.0
-1.40618157 -0.16207834 0.12704711 30.0
-0.59175980 1.43046665 -1.10312235 30.0
1.33908033 -1.21940768 -0.59525192 30.0
-0.59051365 1.48790312 0.07275868 30.0
0.25487441 1.15654814 1.40403926 30.0
0.89058483 -0.74028116 0.60617536 30.0
-0.91670018 -1.16681671 -1.21991408 30.0
1.37821078 -1.31046224 -0.21140185 30.0
1.37905359 0.43672100 -0.01105271 30.0
0.07586697 1.06864738 1.45340633 30.0
-0.27789721 1.47846544 0.25248742 30.0
0.95805454 -0.73263383 -1.11213315 30.0
1.37282598 0.48386332 -0.73089743 30.0
-0.90118837 -0.93945342 0.40342274 30.0
-1.06669652 -1.26782954 0.31169233 30.0
-0.92780429 0.76034683 1.45139229 30.0
-1.08051574 -0.12016808 1.29622269 30.0
-0.11150160 0.85650033 1.44482529 30.0
-1.29339480 -0.62279916 0.58980501 30.0
-0.94538373 0.79855460 1.51809335 30.0
-1.19441557 0.78505892 -1.36346793 30.0
0.22109081 0.00866077 -1.15852344 30.0
1.14125085 -1.58785272 -0.22238991 30.0
-1.36386943 0.67778784 0.59443748 30.0
0.25162229 1.46314859 -1.08147264 30.0
1.16599965 0.74725950 -1.29448175 30.0
1.28128016 -1.12969172 0.28965282 30.0
0.06193000 -0.06659602 1.80012119 30.0
-1.05236769 0.44167534 1.39624226 30.0
1.35156870 0.08948088 0.28892377 30.0
1.02760875 0.73068869 1.40738714 30.0
-0.59020662 -1.65058601 -0.30248183 30.0
1.36905944 -0.23890565 -0.01730952 30.0
-0.92041939 0.72432506 -1.15150070 30.0
-1.38575876 -1.17293847 -0.28672373 30.0
1.36775100 -0.82861668 0.29306680 30.0
-0.85303998 0.96209085 1.42537224 30.0
1.13945770 -1.58119965 -0.14136609 30.0
0.40223509 1.35893035 0.83034545 30.0
0.83779061 1.48140800 -0.04346609 30.0
-1.40366912 -0.31175777 -0.18047902 30.0
-1.31802130 -1.17642260 0.27819079 30.0
0.98628259 0.68123239 -1.13003683 30.0
1.05195844 0.38596860 1.33586442 30.0
-1.40677917 0.34884015 -0.01093815 30.0
-1.09127831 0.42572102 1.33573651 30.0
-1.40737689 -1.31046224 -0.52185822 30.0
-1.41108847 -1.31046224 -0.40883207 30.0
0.22292665 0.36826277 -1.15852177 30.0
0.41902146 1.11270642 1.42331207 30.0
-1.00933111 0.53891879 1.47498417 30.0
-0.59079260 -1.64083087 -0.23869066 30.0
-0.99241972 0.55492729 -1.10741675 30.0
-1.36214304 1.28081501 -0.02292529 30.0
-1.35971558 1.28081501 -0.31832296 30.0
0.99258059 1.17285311 -1.22829878 30.0
0.45984891 0.43466175 1.84157276 30.0
-1.05067194 -0.73729634 0.58964723 30.0
-0.28863853 -1.64301968 -0.24424478 30.0
0.70106894 1.48193264 -0.26462287 30.0
0.72180283 -0.83463490 -1.14743054 30.0
-0.72690392 -1.63291502 -0.23488414 30.0
-0.80866838 0.36149430 -1.11990690 30.0
-0.25848439 -0.09939454 1.69073594 30.0
-1.14668357 -0.16289863 -1.08159435 30.0
0.56698865 -1.20249605 0.33746469 30.0
0.99231213 1.10510623 -1.35775828 30.0
1.35103893 -1.17293847 -0.01779297 30.0
-1.44090056 0.61103916 -0.48817265 30.0
0.06605688 -0.09262727 1.51650620 30.0
-1.02332044 -1.18219209 -1.31248510 30.0
-1.41357589 -1.31046224 -0.29923648 30.0
0.73776627 -1.40280497 -1.10589743 30.0
-0.11030212 -1.65289247 -0.31157738 30.0
1.33561015 -1.46493435 0.06339988 30.0
0.92312557 -1.04341781 -1.39550006 30.0
0.85643452 -1.05428565 0.37574333 30.0
1.34428501 1.08340847 -0.68484592 30.0
0.68578541 1.26049650 1.18021905 30.0
0.92674965 1.15327477 -1.25573039 30.0
0.07523943 1.49098670 -0.02346563 30.0
1.33122301 0.61730582 -0.95617288 30.0
0.89114118 0.90403461 -1.26347613 30.0
-1.00763297 1.47250104 -0.01298621 30.0
-0.72662187 1.49029291 -0.85011268 30.0
-1.40629816 0.34900680 -0.16468266 30.0
0.05898130 0.43590623 1.87968183 30.0
1.38694394 -0.90339702 0.11846077 30.0
-0.39863631 0.60569155 1.80964005 30.0
-1.43250299 -0.72299373 -0.51088715 30.0
1.20645595 -1.20023942 -1.20016873 30.0
-1.22127092 -0.78897357 0.46591079 30.0
-1.35971558 1.28081501 -0.31832296 30.0
0.61385202 0.53646451 1.52963066 30.0
1.36180890 1.08340847 -0.16438501 30.0
