0.13665918 -0.71160406 0.81081563 50.0
-1.40570843 0.79146791 0.18923512 50.0
-0.87163228 1.42766178 0.35974455 50.0
0.71379513 1.17631686 -1.10523391 50.0
-0.71693647 -1.38178313 0.35869899 50.0
-0.48659456 -0.97889733 0.69544399 50.0
-0.20900707 -1.20823777 -1.16125870 50.0
-1.36620438 -1.11732244 -0.37911913 50.0
0.38888946 0.74841821 1.83337963 50.0
0.31734529 -0.82737207 -1.14829719 50.0
0.44942659 0.64807439 -1.13347483 50.0
-0.03392557 1.02410328 -1.11963582 50.0
-1.31550956 -1.03480697 -1.58706224 50.0
0.38920328 0.99515831 1.81163514 50.0
1.15222359 1.37959504 0.35979706 50.0
1.10326767 0.93056649 1.71235573 50.0
1.33091283 0.31475466 0.36121267 50.0
1.17594028 -1.41834199 -0.83442473 50.0
-0.74966013 -1.47960377 -0.85551351 50.0
1.12178600 -1.30923235 0.39756924 50.0
1.32626808 -0.92829955 -0.68764031 50.0
0.27716419 -1.27149177 0.52874279 50.0
-0.32889363 0.59580678 1.83445191 50.0
-1.28289497 0.99662203 1.34549534 50.0
1.34545922 -0.77209675 0.18923512 50.0
0.79583865 1.42317998 0.88039070 50.0
-0.03392557 1.30560613 -1.09963775 50.0
-1.33866060 -1.25003338 -0.02402158 50.0
-0.03392557 -0.91578978 -1.17238283 50.0
-1.29515159 1.33096874 0.36040142 50.0
1.05397534 -1.07370126 -1.61659300 50.0
1.30800569 -0.64277959 0.73834568 50.0
0.99942029 -1.45778334 -0.82846200 50.0
1.28679454 -1.11096597 0.48330408 50.0
1.24253058 -0.24114618 1.22432184 50.0
0.62102467 1.19153464 1.52221918 50.0
0.64968413 -1.31505930 0.46464890 50.0
0.39957696 -1.39564931 0.35904005 50.0
-1.40163374 0.82168889 0.02995973 50.0
0.12737368 -1.28125453 0.52963656 50.0
0.97622830 1.42442751 -0.49296305 50.0
-0.69003618 0.58531082 1.81161368 50.0
1.33134866 -0.88940388 0.18923512 50.0
-1.40800452 0.92191005 0.02995973 50.0
1.31130672 -1.03397942 -0.02402158 50.0
-0.81195301 -0.43558997 -1.16721082 50.0
-1.32599080 -1.29750454 -0.68735564 50.0
-1.38443041 -0.99800152 0.18923512 50.0
0.67512244 1.44697702 -0.36940917 50.0
0.87846386 -0.89055681 -1.53721666 50.0
1.27253056 0.95841551 -1.53352916 50.0
1.17686319 -1.40655780 -0.18596581 50.0
-1.41026080 0.75653446 -0.68764031 50.0
-1.38415849 -0.99799323 0.33165726 50.0
1.29093647 -1.16170895 0.30901396 50.0
0.13185573 1.44597828 -0.74583972 50.0
-1.40765381 -0.16221111 0.01002303 50.0
-1.34958684 -1.20920384 -0.18596581 50.0
-1.37808442 1.09321773 -0.37873861 50.0
1.33803296 0.79026848 -1.05231059 50.0
1.22381365 0.92010134 1.35499573 50.0
0.62527603 0.46095258 1.80499208 50.0
1.34120691 0.71409690 0.06977858 50.0
1.33681285 0.88451499 -0.68764031 50.0
-0.76480567 -1.34725237 -1.12149918 50.0
1.08882451 -0.74630082 -1.20896113 50.0
-1.40054297 0.85075170 -0.54950052 50.0
-1.06179357 -1.45648646 -0.54950052 50.0
-0.69319785 1.10933828 1.67936838 50.0
-1.42536712 -0.65383846 -0.02402158 50.0
-1.33203924 0.92055351 1.17048967 50.0
-1.31595647 -1.34248972 0.05899559 50.0
-1.29353392 1.33181977 -0.75428396 50.0
0.53061193 -0.07254462 1.71842241 50.0
-1.37306845 -1.07395136 -0.18596581 50.0
-0.35956442 -1.44982386 -1.14384866 50.0
0.38203549 1.20407987 1.53600705 50.0
0.74896288 -0.74609619 -1.15302575 50.0
0.12087061 0.90035540 1.83696294 50.0
1.32202923 -0.84625036 0.57949519 50.0
1.31924784 1.03896570 0.55859500 50.0
-0.38851953 -0.56368566 -1.15932059 50.0
-0.20900707 -1.20823777 -1.16125870 50.0
0.12771778 -0.40187988 1.33609474 50.0
0.54510152 -1.21469903 0.55432808 50.0
0.27782780 -0.39898258 1.33160508 50.0
-1.39982939 0.31360903 -0.54950052 50.0
-1.37299716 -1.07441175 -0.68764031 50.0
1.32204175 0.55825251 0.02995973 50.0
-1.24543309 -0.97280884 0.66706359 50.0
1.31006372 1.09411836 -0.02402158 50.0
-1.34958684 -1.20920384 -0.18596581 50.0
1.33721435 0.95887589 -0.18596581 50.0
-0.74942565 -0.93455255 0.70437926 50.0
0.28768367 -0.98525375 0.69683748 50.0
-0.89232254 -0.74332023 0.77826071 50.0
-1.21800256 1.38932693 -0.49882177 50.0
1.33729017 0.95841551 -0.54950052 50.0
-1.08602083 1.38551652 1.02949560 50.0
0.81666327 -0.86064261 0.72991920 50.0
-1.40402901 -0.85107744 -0.54950052 50.0
-0.94371831 0.87761009 1.78630912 50.0
-0.71912652 -0.29752940 1.47030294 50.0
1.32493210 0.00877199 0.76783288 50.0
-1.37902331 -1.03488159 -0.37911913 50.0
-1.14784527 0.95841551 -1.60897553 50.0
1.23019314 -0.76400131 -1.30332077 50.0
1.27064419 -1.25093400 -0.37911913 50.0
-1.29214466 1.33196139 0.55778527 50.0
1.31874216 -0.55487394 -1.02858639 50.0
-1.35855925 -1.16376448 -0.83860266 50.0
-1.04428041 1.42958498 -0.35941118 50.0
-0.03392557 -0.50384212 1.09358788 50.0
0.28676626 1.44337833 0.18335043 50.0
-0.21142389 0.63527155 -1.14740276 50.0
-0.91061389 -1.27465332 -1.10765803 50.0
-0.62706238 -1.00841391 0.67967081 50.0
-0.35664931 -0.94994986 0.71015948 50.0
1.26933980 0.82053709 -1.61412668 50.0
-0.86983013 1.43892086 -0.49694210 50.0
-1.38623846 0.79113269 0.77449208 50.0
1.29852593 -1.11624813 0.02995973 50.0
1.34151196 0.71356338 -0.84094727 50.0
-0.67775530 1.05180275 -1.11922121 50.0
-0.35725933 1.37597549 -1.01047385 50.0
-0.38103959 1.08399296 -1.13084114 50.0
0.14760356 -0.87161720 -1.16104031 50.0
-0.88451439 -0.86064261 0.72991920 50.0
1.31116080 -1.03495824 -0.83855850 50.0
-0.93748248 0.64120591 -1.29135096 50.0
0.28941286 -1.44066441 0.20324749 50.0
1.17886877 1.26268840 1.07005715 50.0
0.28990310 -0.91317439 0.72453117 50.0
0.69695449 -1.34725237 -1.12149918 50.0
0.76334453 -0.07240220 1.69598997 50.0
1.29128671 1.09377766 0.76446062 50.0
-1.31507969 -1.20908487 -1.06330264 50.0
1.20754683 1.26327062 0.96559399 50.0
0.76334453 -0.07240220 1.69598997 50.0
-0.52362752 1.05918491 -1.11430037 50.0
1.05150890 -1.32369375 -1.10073757 50.0
-0.83810031 1.42823994 0.93012792 50.0
1.33681285 0.88451499 -0.54950052 50.0
0.45082897 1.11158621 -1.13091218 50.0
-1.38428092 -0.99915385 -0.83855850 50.0
-0.74283218 1.43598509 -0.60999358 50.0
1.11427307 0.18056844 1.71172559 50.0
1.34108889 -0.81029379 0.02995973 50.0
0.13185573 1.45251203 -0.62873393 50.0
0.88714200 -0.78357160 -1.35295868 50.0
1.35557246 -0.55477703 -0.85305715 50.0
0.41745600 1.44159818 0.06131155 50.0
1.32600272 0.43335229 -0.02402158 50.0
0.13397878 -0.92011780 0.72630179 50.0
1.11520517 1.33696663 1.09768522 50.0
0.67710149 1.43571484 0.02397503 50.0
-0.48099190 1.43267226 0.89213115 50.0
0.31788400 0.76705337 -1.14187908 50.0
0.42286158 -1.46279299 0.04522378 50.0
1.34129357 0.71340555 -0.18596581 50.0
0.56604946 -1.46117270 -0.03155614 50.0
-0.03392557 1.45745230 -0.03835148 50.0
-1.11676109 -1.11296821 -1.53326023 50.0
-0.37725890 0.56130117 -1.14334369 50.0
0.55975074 1.43797207 0.02192560 50.0
0.56889212 -1.43082666 -1.13124013 50.0
-1.41020215 0.75699532 -0.18596581 50.0
-1.40179336 0.82053709 -1.34319639 50.0
1.34225869 0.75768656 0.06977858 50.0
-1.16701114 0.83079261 1.72355723 50.0
0.13220300 -1.02947652 0.68428004 50.0
-1.41185868 -0.43551308 -0.41132540 50.0
0.42186725 -0.90729809 0.72303259 50.0
0.67480850 1.43268120 0.56029016 50.0
0.13510281 -0.84094673 0.75857794 50.0
-0.75077093 1.36051893 -0.99014801 50.0
-0.59075177 0.78665364 1.82643449 50.0
0.26104251 0.59580678 1.83445191 50.0
0.74218005 0.00608434 -1.13064146 50.0
-1.07744396 -0.74332023 0.77609771 50.0
-0.44689822 1.29633951 1.34308481 50.0
-1.33992636 0.88451499 -1.60608411 50.0
-0.87792921 1.42887771 0.75844026 50.0
-1.33399785 1.09322178 0.96610737 50.0
-0.35675564 -1.50428677 -0.87376517 50.0
1.30314219 0.55805558 0.77489811 50.0
-0.83562428 -0.18460764 1.60067213 50.0
-1.04407954 1.42442751 -0.49296305 50.0
-0.67252892 -1.00246680 -1.19017994 50.0
1.30514610 -1.07441175 -0.83855850 50.0
-1.38828743 0.16939215 0.77355039 50.0
-0.03392557 -1.06424630 -1.18582475 50.0
1.31117225 -1.03488684 -1.33041453 50.0
1.25955558 0.31441927 1.17561746 50.0
0.87684864 0.68115741 1.79416156 50.0
0.87996429 0.94726151 1.77931798 50.0
0.80289549 1.42667556 -0.71349025 50.0
-1.35422003 0.85108918 0.99386942 50.0
-1.05616248 1.41220629 0.79255480 50.0
1.15008974 1.38230622 0.69801283 50.0
0.59114236 -1.18340516 -1.15099490 50.0
0.28924432 1.43844759 0.84499991 50.0
0.57639784 -1.35175633 -1.13124013 50.0
-1.37087524 -0.58063823 0.79593319 50.0
0.41874340 -0.97889733 0.69544399 50.0
0.28587252 1.45840907 -0.38017190 50.0
0.74139613 0.99402732 -1.22086501 50.0
1.12296188 -0.31795529 -1.15705931 50.0
-1.39122105 1.03911054 0.18923512 50.0
-1.41013598 0.75751376 -0.02402158 50.0
1.22998238 -1.15211749 -1.37408054 50.0
1.33618724 -0.85100055 -0.37911913 50.0
0.80004966 -0.45211071 1.17811346 50.0
-0.61295265 -1.21469903 0.55432808 50.0
-0.94371831 0.87761009 1.78630912 50.0
0.62570465 0.68115741 1.81543195 50.0
1.28421617 0.99760979 0.98750621 50.0
-0.03392557 -0.40343985 1.33851218 50.0
1.28475320 1.17729354 -0.02402158 50.0
-1.35278571 1.17639351 -0.37759677 50.0
-0.63231558 -1.47658443 -1.04198289 50.0
-0.20482174 1.30051863 -1.09621572 50.0
1.34087348 -0.81220245 -1.27069545 50.0
-0.84875059 -1.24765098 0.52384001 50.0
-0.20487297 -1.38021600 -1.15044606 50.0
0.28164417 -1.42511928 0.28607309 50.0
0.41303873 -1.09650135 0.64304775 50.0
-1.39418101 -0.92783862 -0.18596581 50.0
1.31016123 1.09360099 -0.18596581 50.0
0.13235380 1.45133364 0.05908791 50.0
-0.63203323 -1.47977018 -0.39422849 50.0
1.25265515 -0.99915385 -1.61091638 50.0
-0.38220370 0.17168577 -1.14384866 50.0
-1.35206735 0.99760979 0.98750621 50.0
-0.35681748 -1.50314367 -0.71829689 50.0
-1.41777813 -0.72391498 0.34577918 50.0
-0.68360239 0.88764644 -1.13752222 50.0
-1.38932443 -0.96347100 -0.02402158 50.0
1.21593475 1.33119762 0.80958575 50.0
1.28356493 0.65392584 0.99752772 50.0
1.32338250 1.03911102 0.06977858 50.0
0.42491853 -0.82926828 0.75504315 50.0
-1.22082186 -1.41573179 -0.93719095 50.0
-1.06272078 1.18907094 1.49472034 50.0
-0.38583896 0.97526783 -1.11123908 50.0
0.67512244 1.44697702 -0.36940917 50.0
0.13382848 -1.50258267 -0.20387411 50.0
1.31025136 1.09312868 -0.68589896 50.0
1.32844484 0.85179758 0.55859500 50.0
-0.59075177 0.78665364 1.82643449 50.0
-0.51868016 1.11158621 -1.13091218 50.0
-1.37300479 -1.07436419 -1.04792082 50.0
0.80214471 1.44407845 -0.36274379 50.0
-0.03392557 -0.32638344 -1.21241784 50.0
-1.37181735 1.03860879 0.77036756 50.0
0.13235380 1.45133364 0.05908791 50.0
-0.33356276 0.83192438 1.83816087 50.0
0.44124314 1.18870592 -1.12181175 50.0
-0.36705106 -1.29859686 -1.14384866 50.0
-0.95796692 -0.16336468 -1.14387846 50.0
1.35047412 -0.72482592 -0.37911913 50.0
0.26724234 0.96392387 1.82303822 50.0
-1.23206508 0.79150754 1.58384526 50.0
-1.26554751 -0.78506565 0.74151021 50.0
-1.14668810 1.18161261 1.46316266 50.0
-0.64404225 1.27499366 -1.07771373 50.0
1.13656747 -0.55540752 -1.11575663 50.0
1.33729017 0.95841551 -1.04741037 50.0
1.11639309 -0.45755309 1.14937043 50.0
0.94257557 -1.32941806 0.41672048 50.0
-1.04949546 -1.04454875 0.65601516 50.0
-0.57711267 1.28803420 1.33823097 50.0
0.14993051 -0.56787896 -1.16598737 50.0
-1.42342365 -0.55477703 -0.85305715 50.0
-1.32648218 0.63084835 -1.21642697 50.0
0.80446285 1.43193698 0.06689868 50.0
1.12992084 -0.08950219 1.62577283 50.0
0.80220813 1.43307722 -0.60071731 50.0
-0.94739509 0.85075170 -1.56500041 50.0
-1.23220634 0.31607908 1.57927787 50.0
0.42046171 -1.49447381 -0.86920536 50.0
1.33739126 -0.31680155 0.03951376 50.0
1.32277703 0.75737470 0.77460974 50.0
-0.03392557 0.05342366 1.79824626 50.0
-0.03392557 1.44879484 -0.74842054 50.0
1.33631957 -0.84992462 0.02995973 50.0
-0.21639180 0.98318416 -1.11769044 50.0
-1.35260439 1.17729354 -0.02402158 50.0
-0.19966632 1.44912529 0.56490153 50.0
1.26614678 1.09322178 0.96610737 50.0
-1.36353493 -0.75759935 0.69961995 50.0
-1.36914277 -0.31795529 -1.06848645 50.0
1.12780523 0.00608434 -1.10974896 50.0
0.29627493 -0.53085935 0.99499089 50.0
-0.80773538 0.16829433 -1.12149918 50.0
0.41745734 1.44248641 0.02044763 50.0
-1.27879381 -0.62933582 0.79958946 50.0
1.33712876 0.95939374 -0.02402158 50.0
0.54349148 -0.39405328 1.32302487 50.0
0.84704226 -1.22421932 -1.12651598 50.0
1.26933980 0.82053709 -1.61412668 50.0
1.34108472 -0.81029373 0.06977858 50.0
1.33727753 0.95849222 -0.37911913 50.0
-1.39411926 -0.92829955 -0.54950052 50.0
1.12992084 -0.08950219 1.62577283 50.0
-0.03392557 -1.51721001 -0.40550169 50.0
-0.19780993 -1.15389693 0.61698854 50.0
-1.40762806 -0.16336468 -0.57769293 50.0
0.80498356 -1.00508058 0.67401153 50.0
-1.39824641 0.65923083 -1.04238081 50.0
0.81271821 1.42669964 0.79479730 50.0
1.07398391 1.09846950 -1.12581336 50.0
1.31116080 -1.03495824 -0.54950052 50.0
-1.36081469 -1.06961608 0.50223690 50.0
-1.40893328 -0.44037378 0.53055626 50.0
0.30970708 -1.05188537 -1.17545736 50.0
0.28580847 1.45316374 -0.51775026 50.0
-1.34502184 0.71481228 -1.49981272 50.0
0.12132574 1.04859114 1.81025839 50.0
-1.40934074 -0.65159774 0.64666116 50.0
-1.22104943 1.38411856 0.02854305 50.0
-1.39921629 -0.88940430 0.02995973 50.0
-0.21571465 0.81014645 -1.14183307 50.0
1.32341743 1.03893864 -0.02402158 50.0
-1.06540883 -1.43533123 -0.02402158 50.0
1.30514610 -1.07441175 -0.54950052 50.0
1.28220510 -1.20618045 0.29571253 50.0
1.26609719 0.71319240 1.17861855 50.0
-0.58096707 1.19571638 1.53023005 50.0
1.29852593 -1.11624813 0.02995973 50.0
-0.03392557 -1.52096713 -0.72551429 50.0
0.26659298 0.20149510 1.81318367 50.0
0.13728258 -0.53479427 0.99797291 50.0
-0.94963813 -0.85107744 -1.49119377 50.0
-1.24281418 -1.41609836 -0.54950052 50.0
0.87575632 1.02414095 -1.35529232 50.0
0.28510034 -1.06182003 0.66586864 50.0
-0.49276966 -0.82926828 0.75504315 50.0
-1.34713542 -0.78172570 -1.37495458 50.0
1.28173554 -1.20920384 -0.18596581 50.0
-1.08140528 0.45674548 1.76876676 50.0
1.33715475 0.71401852 0.55859500 50.0
1.34240973 0.75653446 -0.54950052 50.0
0.41610396 1.44275951 -0.62084782 50.0
-0.03392557 0.47538379 1.83805358 50.0
-0.03392557 -1.06424630 -1.18582475 50.0
0.39995909 -1.32824063 0.46621442 50.0
0.88178706 -0.85107744 -1.49119377 50.0
1.17594028 -1.41834199 -0.83442473 50.0
0.45955867 0.79802477 -1.12972283 50.0
-0.80934095 0.46095258 1.79091132 50.0
1.33739543 -0.31680158 -0.00119147 50.0
0.12308748 0.05307123 1.79472816 50.0
1.21631801 -1.27660453 0.38587961 50.0
1.33978724 -0.16290326 -0.20897888 50.0
0.73348427 -0.96445030 -1.31510198 50.0
-0.32639831 1.38225412 1.16861618 50.0
-0.68291658 0.79241145 -1.15081847 50.0
0.12308748 0.05307123 1.79472816 50.0
1.29024923 0.88480186 0.99287981 50.0
1.28166187 -1.20963740 -0.83903432 50.0
1.29077828 -1.16334486 -0.18596581 50.0
-1.41190815 -0.43443602 0.16715053 50.0
0.61306727 0.82344949 -1.14716828 50.0
-1.31322014 -0.43540820 1.06799340 50.0
1.27412117 -1.23138428 0.35506883 50.0
1.33715475 0.71401852 0.55859500 50.0
0.38781744 0.82617927 1.83244097 50.0
-1.40162373 -0.31826869 0.53337228 50.0
-1.36637354 -1.11624801 0.06924613 50.0
0.28662571 1.44930112 -0.03583643 50.0
0.68556917 -1.44824481 0.04846822 50.0
0.74497485 0.71487641 -1.25665402 50.0
0.62000787 -0.74854344 -1.13790536 50.0
-1.22104585 1.38334799 0.06836190 50.0
0.13235380 1.45133364 0.05908791 50.0
-1.37810242 1.09312868 -0.68589896 50.0
1.33683479 0.79144436 0.36121267 50.0
-0.18974371 0.20332274 1.81983006 50.0
0.13412033 -1.49198973 -0.03630036 50.0
-0.86927176 -1.04454875 0.65759683 50.0
1.28319645 -0.36720479 1.01276493 50.0
-0.03392557 -1.52096713 -0.72551429 50.0
1.25620031 -1.24891341 0.36449060 50.0
0.89011574 -0.16336468 -1.14387846 50.0
0.73877323 1.05833030 1.74068487 50.0
1.09089601 1.04505503 1.67843568 50.0
1.31023335 1.09321773 -0.37873861 50.0
0.55908215 1.41492105 -0.87680519 50.0
1.10362709 0.44032094 -1.10073757 50.0
-0.03392557 -0.18912233 1.64167917 50.0
1.35058331 -0.72374928 0.06977858 50.0
0.13176239 -0.46266067 1.20339370 50.0
-0.38953528 -0.66545063 -1.14384866 50.0
1.01145709 0.98059529 1.75709510 50.0
0.38506931 1.12103987 1.69497240 50.0
1.33915055 0.00723738 0.55495238 50.0
0.58733219 -1.22899222 -1.13370025 50.0
-1.38428092 -0.99915385 -0.83855850 50.0
-0.45674062 0.74841821 1.83337963 50.0
0.42104506 -1.48644352 -1.04857850 50.0
-0.35687408 -1.50209737 -0.57599229 50.0
-1.39982939 0.31360903 -0.54950052 50.0
-0.58032894 0.58741856 1.82156754 50.0
-0.62582374 1.43184733 -0.73188567 50.0
1.32606769 0.43242791 -0.68785644 50.0
-0.20137358 -1.51367474 -0.58004642 50.0
-0.48404539 1.45386422 -0.37748310 50.0
1.34535503 -0.77317345 -0.37911913 50.0
-1.40893590 -0.81029373 0.06977858 50.0
1.31116080 -1.03495824 -0.83855850 50.0
-0.21209827 -1.05992019 -1.18219638 50.0
-0.03392557 -0.44747049 -1.20073402 50.0
-1.39411926 -0.92829955 -1.05301762 50.0
1.25497532 1.26508152 0.02975680 50.0
1.35753238 -0.65366536 0.02995973 50.0
1.35051465 -0.72444147 -0.18596581 50.0
0.12409306 -0.07344452 1.73669207 50.0
1.31116080 -1.03495824 -0.54950052 50.0
-1.40389514 0.95953369 0.36121267 50.0
-0.19990630 1.46169329 -0.20353952 50.0
-1.37300909 -1.07433510 -0.37911913 50.0
1.30897880 1.09425080 0.36121267 50.0
-1.36619377 -1.11738908 -0.83856958 50.0
1.28636885 0.85108918 0.99386942 50.0
-1.40080988 0.95943797 0.55859500 50.0
-0.99643070 -0.39281470 1.30226755 50.0
0.46049246 -0.82206708 -1.14269674 50.0
-0.45437044 1.06950831 1.77075183 50.0
-0.38146448 -0.94359016 -1.16858268 50.0
0.31106463 -1.01565158 -1.17602181 50.0
-0.81195301 -0.43558997 -1.16721082 50.0
-1.35866976 -1.16313481 -1.03530502 50.0
1.29866803 -1.03015530 0.51655513 50.0
-1.35874510 -1.16265428 0.02995973 50.0
-0.48868129 -1.48965096 -0.39770827 50.0
0.84276283 -1.27465332 -1.10765803 50.0
0.63315487 0.78386670 1.81644797 50.0
1.30532002 -1.07326031 0.06977858 50.0
-1.37306845 -1.07395136 -0.18596581 50.0
0.88478941 -0.81402719 -1.42892826 50.0
1.00693166 1.01829803 1.74458623 50.0
1.30529726 -1.07343316 -0.02402158 50.0
1.32641828 -0.92714703 0.06977858 50.0
0.74656260 -0.78357565 -1.21523476 50.0
-0.49699461 -0.70179003 0.80685073 50.0
1.00977635 0.87345475 1.76968455 50.0
-1.22499633 0.99782890 1.55787718 50.0
-0.18686578 0.60073715 1.84119356 50.0
-1.38999033 0.55717635 -0.37911913 50.0
-0.66988933 0.64347667 -1.13822997 50.0
0.31546733 0.86576986 -1.12583601 50.0
0.55797261 1.43824327 -0.61629993 50.0
0.29695511 -0.57285672 0.89786118 50.0
0.13359675 -1.51098788 -0.40374213 50.0
-1.40285122 -0.72047120 0.62395918 50.0
-1.11848807 -0.18828343 1.57778227 50.0
1.33197534 0.31366479 -0.83957356 50.0
0.67679256 1.43371284 0.69876492 50.0
0.87514889 -0.92829955 -1.56445813 50.0
-0.37288266 -1.16866314 -1.15925252 50.0
1.16269922 0.88535559 1.57404864 50.0
0.26549977 1.04016423 1.80365467 50.0
0.52347136 0.95060754 1.81025159 50.0
-0.63285971 -1.47154224 -0.19695479 50.0
1.31642962 -0.99915385 -0.68764031 50.0
0.99510378 -1.39608657 0.20695063 50.0
1.24765837 -1.03480697 -1.58706224 50.0
1.31808054 0.55819786 0.55859500 50.0
-1.10784531 -1.17941618 -1.30237138 50.0
-0.03392557 -0.46447611 1.20549238 50.0
0.13372460 -1.45175838 0.20268340 50.0
1.32136369 -0.30585295 0.73373389 50.0
-0.89903414 -0.56377620 0.88388979 50.0
-1.40892375 -0.81029344 0.18923512 50.0
-0.45175844 0.68846440 1.83260870 50.0
-1.40570843 0.79146791 0.18923512 50.0
1.04891002 -1.11296821 -1.53326023 50.0
1.30396605 1.03860879 0.77036756 50.0
-1.35856533 -1.16372836 -0.37911913 50.0
1.34308791 0.00608434 -0.55654866 50.0
-0.95644265 -0.31795529 -1.16425240 50.0
1.33269179 0.85075170 -0.83855850 50.0
-0.49125546 -0.86915988 0.73845536 50.0
-0.03392557 -0.80566883 -1.15683138 50.0
0.28961319 -1.49109185 -0.20149732 50.0
-1.06907964 -1.41346109 0.12006365 50.0
-1.12501729 -0.29948980 1.43791759 50.0
0.45784917 0.85979927 -1.12032068 50.0
1.33902407 0.16944757 0.18923512 50.0
-1.35464573 -1.11096597 0.48330408 50.0
-1.34244955 -0.94882637 0.62244880 50.0
1.32639921 -0.92732006 -0.02402158 50.0
0.43083566 -0.52752900 0.99246722 50.0
1.33904421 0.16927464 -0.02402158 50.0
1.31025136 1.09312868 -0.68589896 50.0
0.61575121 0.88764644 -1.13752222 50.0
-0.19933972 -1.06993294 0.66737652 50.0
1.34194720 0.71467257 -1.29086733 50.0
-0.03392557 0.73675978 -1.15598810 50.0
1.32117546 -0.96328884 0.33327720 50.0
-0.38238698 -0.16562356 -1.18098140 50.0
-1.37915790 -1.03397942 -0.02402158 50.0
-0.38294840 1.04210889 -1.11266279 50.0
1.34802723 -0.72441339 0.49686053 50.0
-1.16313887 1.00641084 1.69640601 50.0
1.35047412 -0.72482592 -0.37911913 50.0
-0.75427079 -0.86064261 0.73377931 50.0
-0.35462019 1.44606078 0.06029228 50.0
-1.40080988 0.95943797 0.55859500 50.0
-1.22592914 0.65500700 1.58747411 50.0
1.34529662 -0.77372247 -1.03550243 50.0
-0.86029422 -1.39827096 0.28714383 50.0
-0.48902833 -1.43127525 0.20372494 50.0
-0.37733442 0.65262550 -1.13904011 50.0
1.33380008 0.79137474 0.55859500 50.0
-0.46551204 -1.36386418 0.41906565 50.0
0.74728364 0.74050224 1.80200624 50.0
-1.39018226 1.03907406 0.36121267 50.0
-1.39912724 -0.89009577 -0.18596581 50.0
-0.33214861 0.34888065 1.82111835 50.0
1.33631551 -0.84992456 0.06977858 50.0
-1.34970725 -1.20851386 0.02995973 50.0
-0.52384275 -0.32090276 -1.19606507 50.0
-0.20793876 -1.25480700 -1.15183496 50.0
1.00348985 -0.52248234 0.97550488 50.0
-1.38987708 0.55825222 0.18923512 50.0
-1.28863966 0.88396257 1.35752869 50.0
-0.63203901 1.42957866 0.84058475 50.0
-0.75342035 -1.44824481 0.04846822 50.0
-0.78055829 -1.19842780 -1.15308988 50.0
-0.80813956 -0.16336468 -1.15806854 50.0
0.52022493 1.02582729 1.79103386 50.0
-1.19576621 -1.27389967 0.44361505 50.0
0.86883992 0.61911994 -1.18444824 50.0
-1.41009772 0.75768626 0.18923512 50.0
1.33617771 -0.85107744 -0.83855850 50.0
-0.81411391 0.92075890 -1.26201105 50.0
-1.03676450 1.40907776 0.87774104 50.0
0.14786352 0.81014645 -1.14183307 50.0
-0.21515442 0.84185326 -1.13686395 50.0
-0.51318228 -1.12406743 -1.15859938 50.0
-1.38988030 -0.84625036 0.57949519 50.0
-1.40162373 -0.31826869 0.53337228 50.0
0.61413836 -0.85388386 -1.16502488 50.0
1.34208298 0.00723767 0.35727295 50.0
1.33250940 0.85190296 0.18923512 50.0
-0.03392557 1.07977486 -1.12977660 50.0
0.14868495 -0.80242515 -1.15327239 50.0
1.27719462 0.55782509 0.99741989 50.0
0.42117721 -1.43127525 0.20372494 50.0
-1.40402901 -0.85107744 -1.04686654 50.0
-0.03392557 -1.51394200 -1.06335008 50.0
-1.23055065 0.95898384 1.56570876 50.0
-0.87595177 -0.96926516 0.68780482 50.0
0.14719552 0.00700726 -1.15977085 50.0
-0.69355577 0.68115741 1.81543195 50.0
-0.48493609 1.43727911 0.36039543 50.0
0.67498100 1.43598509 -0.60999358 50.0
-1.39411926 -0.92829955 -1.05301762 50.0
1.15035462 1.39385641 -0.36147061 50.0
0.73219246 1.19153464 1.51083624 50.0
0.55948400 1.44028676 -0.03271197 50.0
0.99439174 -1.45386529 -0.37911913 50.0
-0.63548255 1.43183458 0.80243909 50.0
-0.33444414 0.20149510 1.81318367 50.0
0.83508307 -1.34332597 -1.10765803 50.0
0.29207093 -0.83462149 0.75666338 50.0
0.81256169 -1.41355383 0.20634460 50.0
0.73068053 -0.99915385 -1.31543672 50.0
0.57728970 -0.52416456 0.98929191 50.0
0.38997200 0.95729965 1.81737590 50.0
-0.87005931 1.43307722 -0.60071731 50.0
-0.53058487 -0.76811957 -1.14108944 50.0
-1.22631228 -0.49497691 1.04368567 50.0
-1.35606778 0.58254391 -1.06521058 50.0
0.28902292 -1.50209737 -0.57599229 50.0
1.35565269 -0.55377805 -0.03264898 50.0
0.58733219 -1.22899222 -1.13370025 50.0
1.33617771 -0.85107744 -0.54950052 50.0
1.27071452 -1.25055075 -0.18596581 50.0
-1.27238119 -0.56796318 0.86004120 50.0
-0.96712393 0.05102307 1.74549317 50.0
0.60342807 1.10384929 -1.12541962 50.0
1.27719462 0.55782509 0.99741989 50.0
-1.41777813 -0.72391498 0.34577918 50.0
-0.95674908 -0.76063621 -1.27064049 50.0
-1.19777191 -0.08950219 1.62577283 50.0
-0.58096707 1.19571638 1.53023005 50.0
-0.46757963 -0.30026725 1.48349118 50.0
0.61306727 0.82344949 -1.14716828 50.0
0.98831141 1.41220629 0.79255480 50.0
-1.36839998 -0.71015352 0.71691686 50.0
0.55797261 1.43184733 -0.73188567 50.0
0.29171327 -1.44982386 -1.14384866 50.0
-1.39391887 0.43242791 -0.68785644 50.0
-1.39383781 0.43352520 0.06977858 50.0
0.82720673 -0.69497305 0.79688793 50.0
0.13181517 1.44912529 0.56490153 50.0
0.88995880 -0.74613035 -1.18926418 50.0
0.28768367 -0.98525375 0.69683748 50.0
-0.21605864 -0.83364022 -1.15491462 50.0
-1.33552992 1.17696893 0.74956894 50.0
1.02873182 0.19337419 1.75534356 50.0
-0.88288164 -1.44935703 0.02851156 50.0
-1.41011393 0.75768656 0.02995973 50.0
1.33734882 -0.31787837 -0.41937703 50.0
-1.41093910 0.00616123 -0.38556039 50.0
-1.23206508 0.79150754 1.58384526 50.0
1.32796741 0.31473267 0.55859500 50.0
0.61575121 0.88764644 -1.13752222 50.0
1.32443106 1.03345239 -1.23946464 50.0
-1.38967407 0.71381497 0.77469087 50.0
-1.40054297 0.85075170 -0.83855850 50.0
1.32148111 -0.96329772 0.18923512 50.0
-0.38444814 -0.44248661 -1.19026458 50.0
-0.20206876 -1.48845887 0.01955771 50.0
-1.39976823 0.31476220 0.06977858 50.0
1.06304741 -0.99915385 -1.69985318 50.0
0.87922555 0.43369693 -1.10765803 50.0
-0.20396183 -0.76116180 0.79163367 50.0
-0.50909430 1.18870592 -1.12181175 50.0
0.45732835 1.03496397 -1.10719740 50.0
-0.62188441 1.42822444 0.88943607 50.0
1.21720147 0.85029805 1.35974443 50.0
1.26614678 1.09322178 0.96610737 50.0
-1.40689540 0.16927464 -0.02402158 50.0
0.55948400 1.44028676 -0.03271197 50.0
0.14627250 -0.95077288 -1.17529094 50.0
0.46516982 -0.56013674 -1.15367842 50.0
1.30984986 0.65420955 0.77493405 50.0
1.18006849 -1.39035964 0.05410220 50.0
-1.38921475 -0.30585295 0.73373389 50.0
-0.61295265 -1.21469903 0.55432808 50.0
1.32338667 1.03911114 0.02995973 50.0
1.05063701 -0.18828343 1.57778227 50.0
0.14413106 0.65800297 -1.14561617 50.0
-0.35821486 -1.47707832 0.02093829 50.0
0.56446439 -1.47658443 -1.04198289 50.0
-0.03392557 -1.23269606 -1.15956700 50.0
0.97841352 1.41316831 0.35959736 50.0
-1.40800047 0.92190999 0.06977858 50.0
0.87082601 1.06527364 -1.19116724 50.0
-0.93969703 -0.96445030 -1.57519758 50.0
-1.34951293 -1.20963740 -0.83903432 50.0
-0.95093459 0.78960478 -1.54856694 50.0
-1.39975631 0.31476212 0.18923512 50.0
-0.19609804 -1.24020588 0.55728894 50.0
-0.66137213 -1.15342987 -1.16105568 50.0
-1.19710529 -0.65871137 -1.10073757 50.0
-0.65899348 -1.18340516 -1.15099490 50.0
-0.38036665 0.31947613 -1.14384866 50.0
-1.40448618 0.88566637 0.06977858 50.0
0.65127534 -0.29752940 1.47030294 50.0
1.33802712 0.79031622 -0.83855850 50.0
1.16435528 0.31607908 1.57927787 50.0
-1.42351353 -0.55360490 0.06170804 50.0
1.31116080 -1.03495824 -0.54950052 50.0
0.28510034 -1.06182003 0.66586864 50.0
-0.03392557 -1.18243754 -1.16950822 50.0
1.23498321 0.01754806 1.34042442 50.0
-0.58636987 0.34379813 1.80834794 50.0
-1.19565630 0.00608434 -1.10974896 50.0
-1.42351770 -0.55360490 0.02165277 50.0
1.08882451 -0.74630082 -1.20896113 50.0
-0.94360739 1.02414095 -1.35529232 50.0
-0.20013064 1.45459950 -0.03747124 50.0
0.92857957 -0.39281470 1.30226755 50.0
-1.34970725 -1.20851386 0.02995973 50.0
1.28147554 0.43320104 0.99623120 50.0
-0.67852491 -0.31893778 -1.18876338 50.0
0.31453580 -0.16562356 -1.18098140 50.0
-0.68091846 0.82344949 -1.14716828 50.0
1.26202846 -0.92829955 -1.60476696 50.0
1.34107256 -0.81029344 0.18923512 50.0
1.33734560 -0.31795529 -0.59355116 50.0
1.33252585 0.85190338 0.02995973 50.0
0.13454503 -0.88142186 0.74185246 50.0
-1.34105206 0.01464954 1.15902936 50.0
-0.52309084 -0.93751127 -1.16290534 50.0
1.33681285 0.88451499 -1.05312121 50.0
0.26684293 0.79774529 1.83936095 50.0
0.56462944 1.36362290 -0.99900699 50.0
-1.07134962 -0.82115620 0.74415261 50.0
-0.44988662 1.20407987 1.53600705 50.0
1.32626808 -0.92829955 -1.05301762 50.0
1.31002712 1.09429073 0.06977858 50.0
0.61923701 -0.76312566 -1.14405930 50.0
1.34106851 -0.81046677 -0.02402158 50.0
1.15714514 0.99782890 1.55787718 50.0
0.55403322 1.42822444 0.88943607 50.0
-1.40955174 0.71418899 -1.04582906 50.0
-1.06676769 -1.42728019 0.05248582 50.0
1.32598674 0.43352520 0.06977858 50.0
0.81007808 1.42887771 0.75844026 50.0
-0.62733513 1.44028676 -0.03271197 50.0
1.32982790 -0.88936466 0.46137312 50.0
0.98346370 1.40995800 0.82990372 50.0
1.33712876 0.95939374 -0.02402158 50.0
1.25497115 1.26497090 0.06957565 50.0
1.29081857 -1.16313481 -1.03530502 50.0
-0.91746581 -1.17946541 -1.26355350 50.0
1.34400761 -0.43551308 -0.41132540 50.0
1.29852235 -1.11624801 0.06924613 50.0
0.45955867 0.79802477 -1.12972283 50.0
-1.39919388 -0.88957721 -0.02402158 50.0
1.28494990 1.17631686 -0.54493332 50.0
-0.21545471 -0.87161720 -1.16104031 50.0
-0.94712234 0.99402833 -1.42896616 50.0
0.12202217 0.80426461 1.84612441 50.0
-1.07478285 1.01829803 1.74458623 50.0
-1.04709113 1.41744363 0.06816204 50.0
0.31453580 -0.16562356 -1.18098140 50.0
-0.38324469 0.00671228 -1.15313184 50.0
-1.34244955 -0.94882637 0.62244880 50.0
-0.20137358 -1.51367474 -0.58004642 50.0
0.55797261 1.43824327 -0.61629993 50.0
-0.34501532 -1.27149177 0.52874279 50.0
-0.94781536 0.94726151 1.77931798 50.0
1.32202566 0.55825222 0.18923512 50.0
-0.03392557 0.56846839 -1.15348971 50.0
1.33274400 0.82166350 0.36121267 50.0
-0.21432133 1.07512617 -1.12628245 50.0
1.34308791 0.00608434 -0.55654866 50.0
-0.76444387 1.27095425 -1.06832981 50.0
0.70999461 -1.22490692 -1.12939692 50.0
0.56528670 1.43402004 0.76548523 50.0
-1.38999724 0.55709952 -0.54950052 50.0
1.28182602 -1.20868635 -0.02402158 50.0
-1.38987708 0.55825222 0.18923512 50.0
1.34120691 0.71409690 0.06977858 50.0
-1.30239439 -1.19854629 0.47292191 50.0
-0.62759501 1.43444312 0.18459874 50.0
-1.38921475 -0.30585295 0.73373389 50.0
-0.03392557 -0.44747049 -1.20073402 50.0
1.33070266 0.99747467 -0.83856958 50.0
-0.38793287 -0.72982413 -1.14427507 50.0
1.29599512 0.75701076 0.99655503 50.0
0.98831141 1.41220629 0.79255480 50.0
1.33617771 -0.85107744 -0.68764031 50.0
0.42104506 -1.48644352 -1.04857850 50.0
-0.62582374 1.43824327 -0.61629993 50.0
-0.19754772 -1.43609095 0.28587985 50.0
1.32203758 0.55825245 0.06977858 50.0
0.96891332 1.40907776 0.87774104 50.0
-1.37300479 -1.07436419 -1.04792082 50.0
-0.46643090 1.43738914 0.94292259 50.0
-1.19081306 -0.31795529 -1.15705931 50.0
-0.75348485 1.42959833 0.79928255 50.0
-1.32282639 1.26508152 0.02975680 50.0
1.33070111 0.99748331 -0.54950052 50.0
-0.80981416 -0.85107744 -1.27185404 50.0
-0.19361866 -1.41561139 0.35928783 50.0
-0.03392557 -0.32638344 -1.21241784 50.0
-0.81264901 0.95841551 -1.24363947 50.0
-0.80133545 -0.96445030 -1.31510198 50.0
-1.40587831 0.79031622 -0.83855850 50.0
0.87954402 0.85075170 -1.56500041 50.0
1.30800569 -0.64277959 0.73834568 50.0
0.14903314 -0.77890372 -1.15329385 50.0
1.33801699 0.79039294 -0.37911913 50.0
-1.40053189 0.85082853 -0.37911913 50.0
-0.67487985 -0.96764457 -1.18793106 50.0
0.26600218 0.92724913 1.82687938 50.0
1.25847697 0.82054937 1.17595148 50.0
-0.52309084 -0.93751127 -1.16290534 50.0
1.29834092 -1.11739922 -0.54950052 50.0
-0.18756191 0.47326505 1.83444023 50.0
1.30529726 -1.07343316 -0.02402158 50.0
-1.32632816 0.82054937 1.17595148 50.0
1.08442748 0.75368887 -1.63871884 50.0
-1.37791479 1.09411836 -0.02402158 50.0
1.33592081 -0.16219729 0.54402453 50.0
1.27543175 0.92075890 -1.57940018 50.0
-1.36620438 -1.11732244 -0.37911913 50.0
-0.32639831 1.38225412 1.16861618 50.0
0.14490977 0.44396901 -1.15044606 50.0
-0.35775423 -0.91317439 0.72453117 50.0
1.29089189 -1.16265428 0.06764880 50.0
0.41704673 -1.01508033 0.68135679 50.0
-0.03392557 0.98744631 -1.12116396 50.0
0.13454503 -0.88142186 0.74185246 50.0
-0.94568259 1.36017919 1.14390063 50.0
1.29070807 -1.16376448 -0.83860266 50.0
-1.41777813 -0.72391498 0.34577918 50.0
-1.38444662 -0.99800199 0.02995973 50.0
0.80197901 1.43892086 -0.49694210 50.0
0.38270679 1.42732286 1.02479911 50.0
1.33801699 0.79039294 -0.37911913 50.0
1.08268142 -0.81402206 -1.52100861 50.0
1.24724853 -1.34661925 -0.02402158 50.0
1.34033561 0.92075890 -1.05102086 50.0
-0.21545471 -0.87161720 -1.16104031 50.0
-1.04488766 -1.08567441 0.63502127 50.0
-1.39838409 0.99846137 -0.02402158 50.0
-1.20268714 1.17629087 1.36049879 50.0
-0.62582374 1.43184733 -0.73188567 50.0
0.53061193 -0.07254462 1.71842241 50.0
0.42117065 1.36983061 -1.00539589 50.0
-0.21346131 -0.98782891 -1.18010056 50.0
-1.39427352 -0.92714721 0.02995973 50.0
-1.05131483 1.40995800 0.82990372 50.0
1.31116080 -1.03495824 -0.68764031 50.0
1.35753238 -0.65366536 0.02995973 50.0
-1.31277013 -1.35773063 -0.54950052 50.0
-1.33429539 0.67288595 -1.41512275 50.0
0.69104117 -0.78152007 0.76676691 50.0
-0.35553482 -0.98525375 0.69683748 50.0
-0.20157333 1.38323605 -1.01647401 50.0
0.64769292 -0.18460764 1.61292017 50.0
-1.39122105 1.03911054 0.18923512 50.0
-0.80368406 0.31360903 -1.12149918 50.0
1.33252180 0.85190326 0.06977858 50.0
-0.03392557 0.87662286 -1.13586152 50.0
0.31361336 -0.94359016 -1.16858268 50.0
-0.71176690 -0.07240220 1.70915639 50.0
0.60702878 -0.96764457 -1.18793106 50.0
0.58273685 -1.28162420 -1.13124013 50.0
-1.40519667 -0.31795529 -0.89013290 50.0
-1.17695820 -0.71913850 -1.12779343 50.0
1.30297017 0.16829433 -1.01409340 50.0
-1.17494595 0.76707882 1.72822392 50.0
1.27063501 -1.25099421 -0.68783969 50.0
0.29099512 -0.87478071 0.74001259 50.0
-1.41287780 -0.77627283 -1.23359632 50.0
-0.18715677 1.22214031 1.54602492 50.0
-0.81282604 0.71487641 -1.25665402 50.0
-0.88094103 -1.46313584 -0.18845904 50.0
-1.40800452 0.92191005 0.02995973 50.0
-1.22722030 0.85172081 1.57696688 50.0
0.81454545 -1.45280170 -0.02573105 50.0
0.45577636 1.05918491 -1.11430037 50.0
-1.32267451 1.26563752 -0.18592510 50.0
0.31098512 0.44026256 -1.14384866 50.0
-0.87595177 -0.96926516 0.68780482 50.0
1.33710015 0.95956635 0.02995973 50.0
-1.06295490 -1.39608657 0.20695063 50.0
-0.38720569 -0.75828278 -1.14555395 50.0
-0.35365960 1.45316374 -0.51775026 50.0
1.07467663 0.67521864 -1.46784210 50.0
-0.32639831 1.38225412 1.16861618 50.0
0.31489536 -0.90520447 -1.16210747 50.0
-1.40689540 0.16927464 -0.02402158 50.0
-1.35606778 0.58254391 -1.06521058 50.0
-0.68920386 -0.72046578 -1.13290644 50.0
0.44942659 0.64807439 -1.13347483 50.0
-0.58662069 0.88071793 1.81739187 50.0
1.28636885 0.85108918 0.99386942 50.0
0.28676996 1.44695497 0.01927290 50.0
1.31649601 -0.99869305 -0.18596581 50.0
-0.03392557 -1.45773149 0.20237970 50.0
-1.39921212 -0.88940418 0.06977858 50.0
-0.94360739 1.02414095 -1.35529232 50.0
-1.27754724 -1.31197858 0.33973595 50.0
-0.20125704 -0.95718253 0.71186572 50.0
1.35566235 -0.55360490 0.06170804 50.0
-0.86029422 -1.39827096 0.28714383 50.0
0.13227950 1.45459950 -0.03747124 50.0
-1.11936021 -1.32369375 -1.10073757 50.0
1.15222359 1.37959504 0.35979706 50.0
0.28619304 1.45633948 -0.20116426 50.0
0.95230579 -1.26271653 0.49600962 50.0
1.10362709 0.44032094 -1.10073757 50.0
1.06736672 1.04804933 -1.32637405 50.0
-1.27746558 0.64657372 -1.33043623 50.0
0.28370318 1.43707502 0.89427292 50.0
0.28941286 -1.44066441 0.20324749 50.0
-0.74127042 -1.04454875 0.66076046 50.0
-0.32889363 0.59580678 1.83445191 50.0
0.41314077 1.43267226 0.89213115 50.0
-0.19325133 1.44706309 0.94801718 50.0
-0.49550566 -0.75063342 0.78782654 50.0
0.73599124 1.04811168 -1.16879451 50.0
1.33269179 0.85075170 -1.05395210 50.0
-0.03392557 -1.31394410 -1.15399814 50.0
-0.03392557 -0.57013667 -1.16957676 50.0
0.85290772 1.17535508 -1.09170663 50.0
0.74356598 0.91120118 1.79008329 50.0
0.74123961 0.87761009 1.79336119 50.0
0.32168412 -0.66545063 -1.14384866 50.0
-1.41832554 -0.72482592 -0.37911913 50.0
-0.75889236 -0.78152007 0.76676691 50.0
1.33903992 0.16944765 0.02995973 50.0
-0.19754772 -1.43609095 0.28587985 50.0
-1.41190815 -0.43443602 0.16715053 50.0
0.57143939 -0.78408849 0.76970518 50.0
-0.20131218 -1.51588142 -0.87915295 50.0
-0.52800477 0.89390910 -1.11510229 50.0
1.32641828 -0.92714703 0.06977858 50.0
0.30940774 0.56130117 -1.14334369 50.0
-0.19361866 -1.41561139 0.35928783 50.0
-1.39853907 0.99756002 -0.37911913 50.0
0.81308985 -1.46313584 -0.18845904 50.0
1.33729017 0.95841551 -0.83855850 50.0
-1.40891981 -0.81046677 -0.02402158 50.0
-1.28863966 0.88396257 1.35752869 50.0
1.33617771 -0.85107744 -0.54950052 50.0
-1.37901211 -1.03495824 -0.54950052 50.0
0.14760356 -0.87161720 -1.16104031 50.0
0.64608312 -1.35032105 0.41803870 50.0
0.28890452 -1.50428677 -0.87376517 50.0
0.31414753 -0.32284784 -1.20186853 50.0
-0.94781536 0.94726151 1.77931798 50.0
1.27013183 -0.98353678 0.60950327 50.0
1.28166187 -1.20963740 -0.83903432 50.0
-1.35945356 0.79074144 0.99620169 50.0
0.89204758 0.19760431 1.76975179 50.0
-0.20896760 1.20654154 -1.13385630 50.0
-0.62582374 1.43184733 -0.73188567 50.0
-1.32604623 -1.29723597 -0.54950052 50.0
1.28779006 -0.83543444 0.66763967 50.0
1.33618724 -0.85100055 -0.37911913 50.0
-1.08830309 0.33830345 1.76266623 50.0
-1.38934851 -0.96329826 0.02995973 50.0
-1.24297214 -1.41708922 -0.68660688 50.0
0.13397878 -0.92011780 0.72630179 50.0
1.32605922 0.43259513 -0.83942288 50.0
0.53377920 -0.18513392 1.62154007 50.0
-1.35871613 -1.16282701 -0.02402158 50.0
-1.33848119 -1.25101078 -0.54950052 50.0
-0.95499319 -0.78357160 -1.35295868 50.0
-0.19966632 1.44912529 0.56490153 50.0
0.74571985 0.75368887 -1.27381468 50.0
-1.39933622 0.85187638 0.36121267 50.0
1.02907145 1.35049999 1.13231289 50.0
-0.67127925 1.10384929 -1.12541962 50.0
-1.32173026 -1.09993398 0.55839634 50.0
0.13397878 -0.92011780 0.72630179 50.0
-0.88542646 1.35860741 -0.97753096 50.0
-0.03392557 1.45145762 0.18234561 50.0
0.66691244 -1.12646174 0.61135811 50.0
1.30514610 -1.07441175 -0.68764031 50.0
-1.32257342 1.26484370 -0.53555590 50.0
-0.38793287 -0.72982413 -1.14427507 50.0
-0.03392557 1.45301712 0.70704436 50.0
-1.35895634 -1.15887392 0.39239734 50.0
-1.33315730 -1.01934958 0.59576255 50.0
0.31489536 -0.90520447 -1.16210747 50.0
0.77024913 1.42823994 0.93012792 50.0
1.25473917 1.26555824 -0.37436277 50.0
-0.35681748 -1.50314367 -0.71829689 50.0
1.34094107 -0.81156486 -1.04167449 50.0
-1.39980662 0.31407028 -0.18596581 50.0
1.34400284 -0.43558997 -0.72561204 50.0
-0.32993177 1.43236601 1.02744567 50.0
-1.38902652 -0.96328884 0.33327720 50.0
1.33262527 0.85121238 -0.18596581 50.0
-0.48530850 1.44248641 0.02044763 50.0
-1.36291063 0.16932718 0.99337697 50.0
-1.31651664 1.03753257 1.15773928 50.0
0.80365402 1.43081427 0.69523877 50.0
-1.38933218 -0.96329772 0.18923512 50.0
1.11597800 0.31559622 -1.10073757 50.0
0.81156355 -1.47395694 -0.55375314 50.0
0.61799514 -0.78615111 -1.14919055 50.0
0.29036367 -1.47707832 0.02093829 50.0
1.34170067 0.71418899 -1.04582906 50.0
-1.39418101 -0.92783862 -0.18596581 50.0
0.54198712 -1.25488198 0.52703470 50.0
0.80446285 1.43193698 0.06689868 50.0
1.33662271 0.88566595 0.18923512 50.0
-1.29617929 1.33358240 0.02914785 50.0
-0.63166350 -1.48343265 -0.70933092 50.0
-1.16870916 0.89448553 1.71608984 50.0
1.27146971 -0.85107744 -1.52662134 50.0
-1.19565630 0.00608434 -1.10974896 50.0
1.33195543 0.31407028 -0.18596581 50.0
1.31289256 -0.92348146 0.55215204 50.0
-0.48395514 1.44275951 -0.62084782 50.0
1.05006611 -1.22078097 -1.12543547 50.0
-1.29198968 -1.18930268 -1.20243943 50.0
-0.20524719 -0.63977122 0.83687603 50.0
0.73716915 0.67525440 -1.22566962 50.0
-1.40163374 0.82168889 0.02995973 50.0
-0.69689280 1.02222478 1.78128338 50.0
1.34033561 0.92075890 -0.54950052 50.0
-0.34120911 1.44182360 0.94525790 50.0
0.67537743 -0.45211071 1.18629122 50.0
1.24152195 -1.17547619 0.50068963 50.0
1.15116537 -1.16576874 0.55832875 50.0
-0.80004358 1.19153464 1.51083624 50.0
-1.41093862 0.00654571 -0.19171900 50.0
-1.40514147 0.95841551 -1.04741037 50.0
-1.34951973 -1.20958734 -0.37911913 50.0
-1.41287780 -0.77627283 -1.23359632 50.0
-1.37151003 -0.16336468 -1.04890501 50.0
0.81503057 -1.44935703 0.02851156 50.0
-0.34055626 -1.37280154 0.41940761 50.0
1.34119475 0.71409672 0.18923512 50.0
0.60485613 0.43395665 -1.13124013 50.0
-0.48868129 -1.48965096 -0.39770827 50.0
0.12969656 -1.43609095 0.28587985 50.0
1.34406912 -0.43443611 0.04556666 50.0
1.29070318 -1.16379499 -0.68765134 50.0
-1.34970689 -1.20851374 0.06605700 50.0
0.60342807 1.10384929 -1.12541962 50.0
1.25493741 1.26522052 -0.02416368 50.0
-0.19367449 -0.30420870 1.49307263 50.0
-1.27607262 1.04527199 -1.31385684 50.0
1.33729017 0.95841551 -0.83855850 50.0
0.51311594 1.19571638 1.53023005 50.0
0.42654580 -0.49507126 1.08547926 50.0
0.43179303 -0.56924671 0.89570558 50.0
0.62102467 1.19153464 1.52221918 50.0
-0.59011692 0.74314088 1.82617891 50.0
-0.62693328 1.41492105 -0.87680519 50.0
-1.40692067 0.16829433 -0.83962375 50.0
1.34087348 -0.81220245 -1.27069545 50.0
-1.42531765 -0.65435761 -0.18596581 50.0
-1.06307840 -1.45730126 -0.68511617 50.0
1.34228492 0.75751376 -0.02402158 50.0
-0.21545471 -0.87161720 -1.16104031 50.0
-0.33868814 -0.07311139 1.73041642 50.0
-1.39126873 1.03893864 -0.02402158 50.0
0.80409229 1.43512297 -0.02686814 50.0
0.62102467 1.19153464 1.52221918 50.0
1.32926619 0.65391827 -0.69002914 50.0
0.82208198 -0.78152007 0.76259202 50.0
-0.03392557 1.30560613 -1.09963775 50.0
1.24953485 -1.33554900 0.14610271 50.0
0.12042321 1.13788581 1.70630956 50.0
0.13188896 1.46377909 -0.38334903 50.0
-0.03392557 0.66089827 -1.14915657 50.0
1.33253169 0.88555360 0.55859500 50.0
1.28456080 -0.46747574 0.95921111 50.0
1.03777230 -1.40057290 -1.10073757 50.0
1.29834127 -1.11739659 -0.68764305 50.0
-1.33371782 -1.21393645 0.40475956 50.0
-1.32179105 1.26439202 0.36100990 50.0
1.20114207 -0.74686581 0.75710779 50.0
-1.39835036 0.99863380 0.06977858 50.0
-1.32987964 -0.92829955 -1.60476696 50.0
-0.80851102 0.68115741 1.80125165 50.0
-1.24095690 -1.00862360 0.65333331 50.0
1.20953751 0.55740780 1.36769521 50.0
0.13076416 1.44227719 0.89680398 50.0
1.15319479 1.38334799 0.06836190 50.0
-0.88993317 -0.78152007 0.76259202 50.0
-1.33315730 -1.01934958 0.59576255 50.0
-0.33509350 0.96392387 1.82303822 50.0
-0.52438927 -0.16472553 -1.17525697 50.0
0.79583865 1.42317998 0.88039070 50.0
-1.40512872 0.95849222 -0.37911913 50.0
1.26814866 0.85075170 -1.61663985 50.0
-0.80851102 0.68115741 1.80125165 50.0
-0.75246447 -1.45629585 -0.02915000 50.0
0.57510442 -0.69724536 0.80456394 50.0
0.42765447 -0.75063342 0.78782654 50.0
1.01355410 0.45674548 1.76876676 50.0
1.26673627 0.99461484 -1.46907091 50.0
-1.25774193 -0.86418772 0.70898598 50.0
1.28147554 0.43320104 0.99623120 50.0
-1.40494716 0.95956630 0.06977858 50.0
-0.20206876 -1.48845887 0.01955771 50.0
-1.40811396 0.92121941 -0.18596581 50.0
-0.58194500 1.42222834 1.02146900 50.0
-0.18872178 0.90035540 1.83696294 50.0
-0.18740407 1.43832457 1.03057301 50.0
-0.18827437 1.13788581 1.70630956 50.0
-1.40581667 0.79077703 -0.18596581 50.0
1.32043600 0.16939215 0.77355039 50.0
-0.03392557 -1.46700180 -1.15399814 50.0
-0.53302097 -0.56013674 -1.15367842 50.0
1.33727753 0.95849222 -0.37911913 50.0
-0.79462200 0.61900169 -1.14800870 50.0
-1.40587831 0.79031622 -0.68764031 50.0
-1.35256970 1.17746603 0.02995973 50.0
-0.03392557 1.44879484 -0.74842054 50.0
1.33785725 0.79146791 0.18923512 50.0
1.30694592 -0.39306146 0.88619810 50.0
-0.69689280 1.02222478 1.78128338 50.0
-0.63313782 1.43402004 0.76548523 50.0
1.34033561 0.92075890 -1.32679605 50.0
1.03707361 0.04678214 1.73094201 50.0
0.28924432 1.43844759 0.84499991 50.0
-1.18424416 -0.45755309 1.14937043 50.0
1.35669160 -0.65436339 0.35050234 50.0
1.31642962 -0.99915385 -0.83855850 50.0
0.81308985 -1.46313584 -0.18845904 50.0
-0.88542408 -1.43093169 0.11905161 50.0
-1.40762806 -0.16336468 -0.71807092 50.0
-0.45431265 0.85655892 1.82885432 50.0
-0.87074661 1.42667556 -0.71349025 50.0
-0.95306826 0.92075890 -1.52923226 50.0
-1.25715804 1.32867098 0.94807279 50.0
-0.19966632 1.44912529 0.56490153 50.0
0.28562838 -0.45928887 1.19949567 50.0
-0.35884628 -0.87478071 0.74001259 50.0
-1.32612836 -1.29683971 -0.37911913 50.0
-0.67961282 -0.89349824 -1.17507684 50.0
0.59637254 -1.11666262 -1.17113137 50.0
1.31307018 0.85152650 0.77371460 50.0
-0.69689280 1.02222478 1.78128338 50.0
-0.66793871 0.62122464 -1.13315177 50.0
1.31130672 -1.03397942 -0.02402158 50.0
0.56821465 -1.43922782 0.11560270 50.0
0.38651931 1.06950831 1.77075183 50.0
0.38124558 0.59163404 1.82874620 50.0
1.33617771 -0.85107744 -0.83855850 50.0
1.14604509 -1.34783113 0.30045047 50.0
-1.17391717 0.32553583 1.71789944 50.0
1.18930697 1.32867098 0.94807279 50.0
-0.19194420 -0.07344452 1.73669207 50.0
1.33708370 0.95956588 0.18923512 50.0
-0.03392557 0.87332124 1.84493303 50.0
1.01908541 0.73632717 1.77844751 50.0
0.65904337 -0.39281470 1.31639624 50.0
0.14357275 0.63527155 -1.14740276 50.0
1.27330077 0.78971046 -1.59578538 50.0
-0.34040082 -0.18722841 1.63269770 50.0
-1.40402901 -0.85107744 -0.68764031 50.0
-0.03392557 0.98744631 -1.12116396 50.0
1.33121669 -0.89055681 -1.05075538 50.0
1.34208298 0.00723767 0.35727295 50.0
-1.37315881 -1.07325995 0.18923512 50.0
1.29144537 -1.15954030 -1.23241222 50.0
1.20018685 1.09222078 1.29757607 50.0
0.42765447 -0.75063342 0.78782654 50.0
0.27433789 -1.33693910 0.46673581 50.0
-0.75889236 -0.78152007 0.76676691 50.0
1.26124585 0.95813125 1.16775835 50.0
1.28147554 0.43320104 0.99623120 50.0
-0.74942565 -0.93455255 0.70437926 50.0
0.28676903 1.44606078 0.06029228 50.0
-0.81282604 0.71487641 -1.25665402 50.0
-0.46643090 1.43738914 0.94292259 50.0
-1.18424416 -0.45755309 1.14937043 50.0
-1.40377188 -0.16219729 0.54402453 50.0
-0.81411391 0.92075890 -1.26201105 50.0
0.61443621 0.99753338 -1.11956751 50.0
-0.63339585 -0.90136153 0.72114724 50.0
0.26659298 0.20149510 1.81318367 50.0
-1.39581847 0.31473267 0.55859500 50.0
0.85290772 1.17535508 -1.09170663 50.0
1.00669575 -0.78152007 0.76050448 50.0
0.13563156 -0.80031818 0.77549827 50.0
1.33739126 -0.31680155 0.03951376 50.0
0.59637254 -1.11666262 -1.17113137 50.0
1.19389641 -0.82470161 0.72515392 50.0
0.13665918 -0.71160406 0.81081563 50.0
-1.40692067 0.16829433 -0.68790656 50.0
-0.67001843 -1.03821552 -1.18831253 50.0
-0.74283218 1.42961097 -0.72480834 50.0
-0.03392557 1.05509651 -1.12259746 50.0
-0.96269077 -0.71828496 -1.12805963 50.0
1.31002712 1.09429073 0.06977858 50.0
1.33508563 0.16943228 0.55859500 50.0
0.61649978 0.71742743 -1.15540087 50.0
0.81256169 -1.41355383 0.20634460 50.0
0.74065989 0.68115741 1.80125165 50.0
-0.78238964 -1.17947519 -1.18659532 50.0
0.87954402 0.85075170 -1.56500041 50.0
-0.68085963 0.00621043 -1.14044380 50.0
-1.33203924 0.92055351 1.17048967 50.0
-1.04428041 1.42958498 -0.35941118 50.0
1.32897449 0.65445215 0.06977858 50.0
-0.03392557 -1.20119119 0.58661264 50.0
-0.46978721 -1.29654038 0.50038779 50.0
1.28485739 1.17677653 -0.18596581 50.0
0.42359266 1.43630707 0.80471545 50.0
-0.71554399 -0.18460764 1.61292017 50.0
-0.20148836 1.44366074 0.84731019 50.0
-1.38415849 -0.99799323 0.33165726 50.0
-1.39835036 0.99863380 0.06977858 50.0
0.38651931 1.06950831 1.77075183 50.0
1.33802712 0.79031622 -0.68764031 50.0
1.28041244 -1.15244389 0.45742819 50.0
1.10326767 0.93056649 1.71235573 50.0
0.76777309 -0.18460764 1.60067213 50.0
-1.34244955 -0.94882637 0.62244880 50.0
-0.03392557 -1.07430112 0.66818839 50.0
0.26429746 0.34888065 1.82111835 50.0
0.28619304 1.45633948 -0.20116426 50.0
0.62747478 1.05833030 1.75428176 50.0
1.07450187 -0.39679158 1.28212929 50.0
0.14675076 -0.16668463 -1.18774509 50.0
1.21983421 1.26388228 -0.96869034 50.0
0.88308340 0.78960478 -1.54856694 50.0
0.56821465 -1.43922782 0.11560270 50.0
1.05879116 -1.03478062 -1.67184079 50.0
1.30452979 -1.07323372 0.42531165 50.0
-0.47415859 -1.22277224 0.55541110 50.0
-0.89549261 -0.52248234 0.97863287 50.0
1.24491906 -1.35773063 -0.54950052 50.0
0.92857957 -0.39281470 1.30226755 50.0
-0.63203323 -1.47977018 -0.39422849 50.0
-0.61295265 -1.21469903 0.55432808 50.0
0.52347136 0.95060754 1.81025159 50.0
-0.21605864 -0.83364022 -1.15491462 50.0
-0.76568621 -0.52248234 0.98488915 50.0
-0.21249883 1.12829399 -1.14303219 50.0
1.30515778 -1.07433510 -0.37911913 50.0
0.68800342 -1.42605317 -1.12149918 50.0
-1.39629602 0.85179758 0.55859500 50.0
-0.32733163 1.30456066 1.34694242 50.0
-0.51759279 -1.04508531 -1.16975391 50.0
0.57314819 -0.74575794 0.78563100 50.0
-0.38220370 0.17168577 -1.14384866 50.0
-1.30911720 1.26441383 0.73042154 50.0
1.34033561 0.92075890 -1.05102086 50.0
0.75226724 -0.55475885 -1.13673627 50.0
0.72429907 -1.07370126 -1.28781199 50.0
0.65904337 -0.39281470 1.31639624 50.0
-0.68584633 -0.78615111 -1.14919055 50.0
1.34239995 0.75661123 -0.37911913 50.0
1.15008974 1.38230622 0.69801283 50.0
0.30503151 -1.16866314 -1.15925252 50.0
0.68401122 -0.89839321 0.71853292 50.0
-0.20487297 -1.38021600 -1.15044606 50.0
-1.40818667 0.92075890 -0.68764031 50.0
0.13665918 -0.71160406 0.81081563 50.0
-0.64642406 -0.56559968 0.89299357 50.0
-0.49899486 -0.63099271 0.83269656 50.0
0.14924929 -0.76400727 -1.15215909 50.0
-1.06727147 -1.45778334 -0.82846200 50.0
