-0.72402573 1.27380109 1.40764475 20.0
-1.42376709 -0.46266714 -0.05083816 20.0
0.97969246 0.96832049 -1.51327896 20.0
0.71961111 1.45246255 0.74085486 20.0
-0.60954022 0.57823670 -0.02528546 20.0
1.02390695 0.75481075 -1.18772113 20.0
1.15214932 1.30628538 -1.04393363 20.0
1.18424404 1.39308536 0.72016215 20.0
-1.17889750 1.40384746 -0.76648432 20.0
-1.36761880 -0.31933218 -0.99615830 20.0
1.26487100 -1.21425831 0.14239624 20.0
-1.23023367 1.38739204 0.37405241 20.0
-1.21673357 -0.77161562 -1.53638983 20.0
-0.49253789 -1.16918194 -1.16235507 20.0
-1.38040495 1.25691366 -0.60802555 20.0
1.42118537 -0.69530648 0.65022278 20.0
1.26985788 1.01470757 1.15228665 20.0
0.09952803 -0.77181321 -1.20491946 20.0
1.08453989 1.42408478 0.16184594 20.0
0.97738177 -1.10564911 -1.19036758 20.0
0.09837438 -0.84367943 -1.21662462 20.0
-1.06754136 -0.82632166 1.18456113 20.0
-0.74652821 -0.42482671 1.72155201 20.0
-0.58196896 1.46013975 0.57442391 20.0
1.15593398 -0.56028283 1.46352732 20.0
-0.58309227 -1.40788972 0.63679975 20.0
-0.79212147 -0.30844268 0.10601233 20.0
1.37352216 -1.06877542 -0.99308258 20.0
0.06400236 1.37138247 1.31427896 20.0
-1.33505094 -1.10342717 -1.21335363 20.0
1.42184448 0.16332369 -0.02670099 20.0
0.88801026 -0.60429633 -1.15052021 20.0
1.41479814 0.96833271 0.64906734 20.0
-0.16076966 -1.51043952 -0.75588948 20.0
-1.43152809 0.92393988 0.65919870 20.0
-0.92869359 1.23561549 -1.14254403 20.0
0.55471539 -1.05771983 -1.18970895 20.0
0.40089753 0.54287499 -0.02396047 20.0
0.73511094 -0.43008161 2.02983379 20.0
-1.32124579 1.30264068 0.82078302 20.0
-1.06023657 1.21747756 -1.19462299 20.0
-0.84661019 1.44676578 0.91681898 20.0
1.38075590 -1.06933641 -0.69765985 20.0
0.06949892 0.60155314 -0.02428810 20.0
-0.32891035 -0.95319271 -1.21261382 20.0
-1.22309780 -1.25707555 0.23099387 20.0
-0.83017236 0.75476801 -1.18972325 20.0
-0.07996663 1.44561839 -0.90751600 20.0
1.14168477 -1.29405785 -0.51929206 20.0
-0.08006772 1.46110296 0.74565911 20.0
0.31991971 0.87819368 -1.21453893 20.0
-0.57366550 -1.05503845 1.13574314 20.0
-0.24114966 -0.75234228 1.36834049 20.0
0.82179183 -0.51854324 -1.15277517 20.0
1.30809021 -0.95319271 -1.60231698 20.0
-1.36984694 1.05250192 0.93850493 20.0
-0.56986344 1.01107669 -1.21030438 20.0
-1.11020136 -1.32040751 -0.52555859 20.0
1.07863951 -1.25772297 -1.06542706 20.0
0.37743053 1.32274294 1.37927270 20.0
-1.37367094 -1.11695111 -0.10688809 20.0
-0.39155766 -1.10544789 1.09083200 20.0
1.09482896 0.12402600 0.98238927 20.0
1.04920876 -0.84367943 -1.60527122 20.0
-0.15679283 -1.51549625 -0.41035348 20.0
0.99086732 0.67091030 -1.12040186 20.0
0.39415038 0.30816242 -0.02255514 20.0
-0.24117257 0.79884553 0.52805525 20.0
-1.37647963 0.48599443 -0.99853975 20.0
1.20907378 -1.25707555 0.12378436 20.0
-1.09179795 0.61229801 1.00697851 20.0
0.72991282 -1.44494784 -0.81612837 20.0
-1.10690498 0.57193542 -1.11039126 20.0
-1.24027133 1.37991619 0.67990845 20.0
-0.11215749 1.13301659 -1.18995249 20.0
-1.43301845 0.83228546 -0.02607281 20.0
1.04606068 -1.34898412 0.18490402 20.0
0.76240903 -1.12986302 -1.16299808 20.0
-1.05409729 -1.08515704 -1.31205118 20.0
0.73048604 1.49352360 -0.32466781 20.0
-1.37172663 -1.11679018 -0.45946613 20.0
-0.55417293 1.44620347 1.09046185 20.0
0.41821766 -1.45669866 0.52204359 20.0
-1.19864953 1.39308536 0.72016215 20.0
-0.07338650 -1.28822494 0.86951435 20.0
-1.42610002 0.42515895 0.46410340 20.0
0.71920210 -1.32184100 -1.03233647 20.0
0.65896827 -1.45264840 0.46824184 20.0
-1.35328436 -0.08505750 1.12777388 20.0
-0.58309227 -1.40788972 0.63679975 20.0
-1.42836237 0.96832049 0.21097572 20.0
1.10181642 -1.32028723 -0.35448658 20.0
-0.62821400 0.24726647 -1.18664443 20.0
1.09488499 0.33925471 -1.11166072 20.0
1.42284155 -0.00260630 0.20931345 20.0
1.24973202 0.16332369 -1.11980569 20.0
1.38751876 -0.81055099 0.82267016 20.0
-1.37495065 -1.11695111 0.05261611 20.0
1.41496885 1.09344506 0.60237086 20.0
0.97856045 0.98142362 1.50129700 20.0
1.36832738 1.17553759 -1.23578453 20.0
0.04468678 -1.47966361 0.44310701 20.0
-0.80218410 -1.39648020 -0.86377466 20.0
0.55798584 -0.84367943 -1.21662462 20.0
0.22239377 0.22461604 -0.02242509 20.0
-1.42005980 0.48599443 -0.28837398 20.0
-0.93574053 -1.08485460 -1.21677303 20.0
1.40909147 -0.51854324 0.74480700 20.0
1.39737475 1.17490375 -0.58319211 20.0
-1.42943692 0.83248496 -0.96168417 20.0
0.95745033 0.39856631 0.02708743 20.0
1.40765440 -0.39591911 0.86757767 20.0
0.78599286 0.73237485 0.10732044 20.0
1.41917944 -0.00260630 -0.65613723 20.0
-1.01832902 -1.32179701 -1.00495017 20.0
0.30372104 -1.46657979 -0.87057996 20.0
-1.26571178 0.08055543 -1.11980569 20.0
0.31991971 0.87819368 -1.21453893 20.0
1.16196918 0.98796016 1.30975521 20.0
-0.11502457 -0.72326612 -1.19815969 20.0
-1.12932706 -1.25026643 0.66441220 20.0
-0.57398188 0.92392868 -1.21974242 20.0
-1.43374491 0.87819564 0.45194712 20.0
0.23736061 -0.31933218 -1.19211066 20.0
1.41821182 -0.81381530 -0.32781306 20.0
-0.41814724 -0.54242927 1.92741179 20.0
-0.23637360 0.03843896 -0.01995469 20.0
-0.58760208 0.98471832 1.72585130 20.0
1.10690343 -1.32028723 0.28689611 20.0
0.14396282 -1.50968695 -0.12166839 20.0
1.08281386 0.79829115 -1.38407898 20.0
0.31510144 1.05249107 -1.19590604 20.0
1.09696090 -1.30032742 0.50031960 20.0
1.31602967 -1.16733742 0.03108690 20.0
1.25032818 -1.21349370 -0.75235820 20.0
0.22475886 -0.85584623 1.25030529 20.0
-0.41802752 -0.46080756 2.10987353 20.0
0.56536478 1.45593703 0.67637354 20.0
-0.11212397 1.09344423 -1.18897808 20.0
-0.74185967 -1.29521155 -1.06683719 20.0
1.42421544 -0.69536984 0.14903939 20.0
-0.79699194 -0.91703856 -1.23980772 20.0
-1.25947750 -0.08242658 -1.11962235 20.0
1.34096694 0.34170270 1.16246879 20.0
0.77822399 0.22461604 -0.02817774 20.0
-1.40152919 -1.06994390 0.07116751 20.0
1.39011252 -0.31933218 1.04823720 20.0
-1.42500961 -0.91780537 0.40315443 20.0
-0.73699093 1.48580825 -0.67290604 20.0
-1.40317249 -0.15946773 1.07499468 20.0
0.21965073 1.51526523 -0.07211274 20.0
-1.41411650 0.08055543 1.08403015 20.0
-0.38576216 1.41406262 1.21867049 20.0
0.06856398 -0.82245785 1.26276004 20.0
0.04301278 -1.49214303 0.36342964 20.0
-1.37257218 -1.11695111 -0.27430728 20.0
-1.42637026 0.61190003 -0.02652938 20.0
0.76312739 -0.75234228 1.34711158 20.0
0.98539811 0.92392868 -1.49604547 20.0
-1.11582685 -1.31629539 0.38384777 20.0
-1.43963110 -0.69536984 0.53117055 20.0
-0.99404013 -0.84367943 -1.48408973 20.0
-0.26799464 -1.51549625 -0.41035348 20.0
-0.60190541 -0.67287862 1.59097493 20.0
1.36172211 -0.64475161 0.95473474 20.0
-0.11632036 0.75476801 -1.19047534 20.0
1.04210591 -0.71176898 1.40140045 20.0
1.41546988 0.24726647 -0.28839865 20.0
0.97793847 1.45807183 -0.52086723 20.0
0.30789128 -0.64820480 -1.18523455 20.0
1.30497193 -1.16326106 0.55270958 20.0
-0.96640640 1.41651607 1.05400062 20.0
0.10061919 -0.72326612 -1.19815969 20.0
0.94342273 -1.35081017 -0.94804943 20.0
-0.15901987 -1.50635338 0.02170007 20.0
-0.64936829 -1.47213459 0.40012190 20.0
-0.75282341 -1.28844988 0.83602011 20.0
0.21965073 1.51526523 -0.07211274 20.0
-0.43494627 0.48599443 -1.19362772 20.0
-0.23679912 0.22461604 -0.02242509 20.0
-1.43381727 0.78825140 -0.02619173 20.0
1.41815174 -0.69551402 -0.32688358 20.0
-1.00369167 1.06286466 1.45866156 20.0
-1.41337335 -0.88178152 -0.99310547 20.0
-1.40071392 -1.06994390 -0.08642934 20.0
-0.32891035 -0.95319271 -1.21261382 20.0
-0.69573629 -1.45047927 -0.80421644 20.0
0.58005786 0.14184806 -0.02393486 20.0
-1.26605916 0.67555922 -1.12340009 20.0
1.06736243 1.43894792 -0.54400426 20.0
1.40939724 0.96832049 -0.27319497 20.0
-0.98556501 -0.91703856 -1.50347817 20.0
1.41477692 -0.64973772 -0.32357925 20.0
-1.05167902 -1.34918153 -0.35928372 20.0
-1.11622190 -1.32028723 -0.35448658 20.0
1.04355407 -1.12955034 -1.13092113 20.0
1.00235844 0.83434588 -1.39048576 20.0
0.40340132 -0.63345027 1.70042217 20.0
0.69355088 1.46169972 0.92828602 20.0
-0.11449844 0.83435899 -1.20717955 20.0
-1.19227791 -0.79662764 1.19069982 20.0
1.13724208 -0.52018160 1.50779712 20.0
-1.42594326 0.42467052 0.72882414 20.0
-0.79676938 -1.02536428 -1.21507800 20.0
0.57789183 -0.89123642 1.23517764 20.0
1.05833900 1.16811717 1.35505450 20.0
-0.38924536 -1.50536633 0.02341800 20.0
0.06955311 -0.58758694 1.81544030 20.0
1.30030048 -0.94912952 0.95172334 20.0
-1.42557847 0.42532176 0.21068984 20.0
1.40005171 -0.31933218 -0.65469611 20.0
1.19287658 -1.23670900 0.59300262 20.0
-1.37489426 -0.15946773 -0.99751520 20.0
0.56718653 0.83435899 -1.20717955 20.0
-1.11177158 0.16332369 -1.11163878 20.0
-1.10448885 -0.68669325 -1.15029764 20.0
0.56759101 1.47274888 0.40006641 20.0
-1.38410604 -0.08242658 -0.99815714 20.0
0.31482545 -0.91703856 -1.21411169 20.0
0.79600132 -1.43610454 0.10997117 20.0
-0.79907984 -0.88058347 -1.24127531 20.0
-1.43158245 0.67253935 0.21076572 20.0
-0.57242292 -1.49393630 -0.70304215 20.0
0.97439373 1.23553956 -1.12251878 20.0
-1.09949350 -0.46266714 -1.10767746 20.0
-1.43074203 -0.77260470 -0.62442362 20.0
-0.77605838 -1.44377148 -0.77204859 20.0
-0.11581586 0.77288133 -1.19413459 20.0
0.53784430 1.46186519 1.00295818 20.0
-1.13149571 1.40490854 0.53126127 20.0
0.09837438 -0.84367943 -1.21662462 20.0
-0.55649030 1.41465282 1.20938993 20.0
0.86927098 -0.43898365 1.11294353 20.0
0.79478616 0.63038027 -0.02705589 20.0
-0.43262303 -1.45669866 0.52204359 20.0
0.14636427 -1.51043952 -0.75588948 20.0
-0.99079007 1.22448111 1.37355590 20.0
1.03077745 0.66756016 0.69301111 20.0
-0.25054941 -1.21442854 -1.15264750 20.0
-0.38837281 1.37162364 1.31332171 20.0
-1.43404865 -0.77349192 -0.32460305 20.0
1.40853834 1.09344423 -0.27197361 20.0
0.33390507 -1.34072173 0.77906686 20.0
0.90610987 -0.67287862 1.53457940 20.0
0.06955311 -0.58758694 1.81544030 20.0
-0.08309478 -0.43391857 1.18074691 20.0
-1.42731762 -0.51854324 0.40084821 20.0
1.38809741 -0.98591536 0.66863430 20.0
-0.76145124 -0.50222683 1.99105382 20.0
-1.33075070 -1.16733742 0.27638149 20.0
0.14396282 -1.50968695 -0.12166839 20.0
-1.35125482 -0.16945735 1.12017167 20.0
-0.80246723 -0.84367943 -1.24033856 20.0
1.42301071 0.08055543 -0.02670099 20.0
-0.81086946 -1.43574822 0.18158634 20.0
1.41561294 0.83239132 -0.59228873 20.0
-0.80870652 -1.43504429 0.22446184 20.0
-1.12130892 -1.32028723 0.28689611 20.0
-0.75625187 -0.46089977 2.07163310 20.0
1.41633677 -0.77260470 -0.62442362 20.0
-1.41910255 0.92394978 0.83900905 20.0
-0.93447012 1.09344423 -1.29500806 20.0
1.09482896 0.12402600 0.98238927 20.0
1.41011167 0.48599443 0.21069206 20.0
-1.10975099 -0.08242658 -1.11150110 20.0
1.08519375 -0.70810038 -1.23536015 20.0
1.39160883 0.33812767 1.09651840 20.0
-0.08006772 1.46110296 0.74565911 20.0
0.09766974 -0.91703856 -1.21411169 20.0
0.09932875 0.87819368 -1.21453893 20.0
-0.08190786 -0.96586657 1.20278454 20.0
-0.24128874 0.54287499 -0.02396047 20.0
-1.42996228 0.73906171 -0.61539179 20.0
1.41160250 -0.91780537 0.28562716 20.0
1.08567786 1.37537861 1.10078299 20.0
0.23787445 0.54415286 -1.19309711 20.0
0.99086732 0.67091030 -1.12040186 20.0
-1.43286312 -0.64948130 -0.07754639 20.0
0.91196293 1.32132876 1.30805790 20.0
1.19925284 -1.25300217 0.46452194 20.0
1.41031742 -0.91780537 -0.18298545 20.0
-0.07996663 1.44561839 -0.90751600 20.0
-1.27700722 1.36201608 0.55211347 20.0
1.37490880 0.54198068 1.10431170 20.0
-1.38309205 -0.98964196 -1.32668531 20.0
0.09837438 -0.84367943 -1.21662462 20.0
1.05066431 0.47964811 0.67094588 20.0
-1.13149571 1.40490854 0.53126127 20.0
-0.11216884 -1.05771983 -1.18970895 20.0
-1.42836237 0.96832049 0.21097572 20.0
-1.43914568 -0.77371377 0.43941700 20.0
0.30789128 -0.64820480 -1.18523455 20.0
0.31790158 0.92392868 -1.21974242 20.0
-1.38931417 0.54198068 1.10431170 20.0
1.13724208 -0.52018160 1.50779712 20.0
-1.40451777 -0.31933218 1.04823720 20.0
1.41657305 -0.85135216 0.45202041 20.0
-1.39169657 1.25768602 -0.27534816 20.0
0.37864712 -1.50902581 -0.75072813 20.0
-0.08343570 0.54287499 -0.02396047 20.0
0.78331470 -1.05771983 -1.20175815 20.0
-1.02891767 -0.63345027 1.58422673 20.0
-0.88879234 -1.25883150 0.82445657 20.0
0.37396747 1.37162364 1.31332171 20.0
0.76473182 -0.41873714 0.51171690 20.0
-0.49449459 -0.56406903 -1.18693984 20.0
0.06566884 1.50467682 -0.68440068 20.0
1.41120446 0.92392868 -0.58887106 20.0
1.40769041 1.05249107 -0.27239853 20.0
-0.23405609 1.51526523 -0.07211274 20.0
1.41136694 0.54398936 0.46392828 20.0
-0.41781044 0.62996727 -0.02077432 20.0
1.40791655 0.96832049 -0.58800930 20.0
-0.49355513 -1.49983323 0.13088687 20.0
-1.03267539 0.72680813 -1.13981485 20.0
-0.05664383 -1.50635338 0.02170007 20.0
0.42524025 -0.46266714 -1.18956518 20.0
0.38916901 -1.00801361 1.17566848 20.0
0.92129785 -0.88058347 -1.34404361 20.0
-1.01789033 -0.64821219 -1.11678326 20.0
-0.10285146 1.26727188 -1.14711261 20.0
1.26105917 1.36186194 0.64005065 20.0
-0.93570322 -0.88058347 -1.34404361 20.0
-0.23457821 1.10054719 1.55307853 20.0
-0.23843837 -0.89123642 1.23884964 20.0
1.09696090 -1.30032742 0.50031960 20.0
0.62368882 -1.48241651 0.13917132 20.0
-1.38712382 -1.06589186 0.62186140 20.0
-0.94298202 -1.39248478 -0.18585157 20.0
-1.05755436 -0.88058347 -1.63437116 20.0
-0.79782611 1.13301659 -1.20614135 20.0
0.35742506 -1.40120435 -0.93365353 20.0
-0.85633659 -1.39543855 -0.87941152 20.0
-1.25953960 0.79226279 1.28059518 20.0
-0.99404013 -0.84367943 -1.48408973 20.0
0.95273352 -0.00260630 -1.12048233 20.0
1.38712382 -1.06994390 0.07116751 20.0
-0.68597728 -1.19523168 0.97770876 20.0
-0.49449459 -0.56406903 -1.18693984 20.0
0.07639022 1.31389487 -1.11627305 20.0
-1.23139727 1.38328218 -0.28230947 20.0
-0.11216884 -1.05771983 -1.18970895 20.0
0.92433351 -1.39329851 -0.34280300 20.0
-0.57180339 1.47586083 -0.78853387 20.0
-1.42631459 0.57193542 0.21071619 20.0
0.69355088 1.46169972 0.92828602 20.0
-1.28426337 1.01470757 1.15228665 20.0
1.00392365 -1.32179701 -1.00495017 20.0
-0.80839366 0.33925471 -1.15825832 20.0
0.06955311 -0.58758694 1.81544030 20.0
-1.43850279 0.16332369 0.72969258 20.0
-1.41891670 0.52104282 -0.65604734 20.0
-0.70558727 1.46767020 0.87251586 20.0
0.21993646 1.46876168 0.48194891 20.0
0.38186812 1.47024632 -0.82768005 20.0
-0.73873329 1.10054719 1.52775884 20.0
1.04384494 1.05249107 -1.59801471 20.0
-1.31946695 1.33603084 0.57043487 20.0
0.94865876 -0.68643391 -1.16592598 20.0
1.40097582 -0.46266714 -0.65500915 20.0
0.20996459 1.41309774 1.22250009 20.0
-1.15025914 0.75799847 1.27102888 20.0
-0.97843343 0.63079792 0.02755531 20.0
-0.81105125 0.60228091 -0.03026523 20.0
1.04590511 0.57970333 0.26912910 20.0
-1.43190873 -0.60429633 0.38990003 20.0
-1.25569725 0.42532176 -1.11980355 20.0
1.02728534 0.22461604 0.27058619 20.0
1.31279957 -1.16733742 0.40295479 20.0
1.07287109 1.43247855 -0.05936603 20.0
-1.37229931 -1.00808537 0.80454659 20.0
-1.42562807 -0.60452551 -0.31773135 20.0
-1.37561584 -1.11695111 0.18505727 20.0
-1.42228997 -0.80902290 -0.97843993 20.0
1.41750336 -0.60429633 0.38990003 20.0
0.69597089 1.45415568 0.98953927 20.0
1.42474031 -0.77371377 0.43941700 20.0
0.67116731 -1.47294593 -0.71950829 20.0
1.00553560 1.42812574 0.41337219 20.0
-1.20052874 0.96832049 -1.70650709 20.0
0.78470331 -1.08485460 -1.18909621 20.0
0.89906830 -0.63345027 1.63144946 20.0
0.22219190 -0.96586657 1.20278454 20.0
-1.42683709 0.57180142 0.46421102 20.0
-0.08274383 -0.85584623 1.25030529 20.0
-1.33042574 0.52169633 1.17999434 20.0
-0.95959538 -0.30878663 0.15270975 20.0
-1.21048868 1.39403653 -0.04416486 20.0
-0.74005497 0.98471832 1.68587804 20.0
-1.42016399 -0.39591911 -0.29558203 20.0
1.22583270 -0.09558122 1.11096442 20.0
0.77313840 -1.23215079 0.90906805 20.0
1.42052591 0.83228546 0.21086052 20.0
1.09742880 1.41173625 0.74900109 20.0
1.40659952 -0.91780537 0.54618847 20.0
-1.02796078 -0.68648571 -1.14542460 20.0
-0.98211771 0.93571520 1.52768314 20.0
0.39674503 -0.41787255 0.52977747 20.0
0.74748045 -0.89123642 1.22048807 20.0
-0.55649030 1.41465282 1.20938993 20.0
-1.37681437 0.54415286 -0.99810499 20.0
-1.00068080 -0.80662674 -1.44477880 20.0
1.01451230 -0.63345027 1.58422673 20.0
-0.62146956 -1.45588851 0.50768298 20.0
0.06566114 1.22732365 1.47170913 20.0
-0.08321187 0.84912795 1.23528171 20.0
-0.58191323 -1.00801361 1.17227638 20.0
0.06756821 0.22461604 -0.02242509 20.0
1.04448128 -1.34903276 -0.04150690 20.0
1.41481555 0.33925471 0.21068947 20.0
0.84346330 -1.10544789 1.04749668 20.0
0.96262020 -1.15239239 0.94660348 20.0
1.41295981 1.05249107 0.21105643 20.0
1.17892992 1.39623630 0.45586088 20.0
0.57789183 -0.89123642 1.23517764 20.0
-1.19708848 -0.83381498 1.13915253 20.0
1.42160273 -0.64948130 0.55398560 20.0
0.97969246 0.96832049 -1.51327896 20.0
1.08508813 -0.46266714 -1.10767746 20.0
-1.25997937 -1.19388437 0.64729136 20.0
1.34765112 1.29954815 -0.02411222 20.0
-1.42880094 0.61180449 0.46458074 20.0
-1.20959496 1.37659121 0.93581098 20.0
-1.06050622 1.25659740 1.29461014 20.0
0.98445386 1.40115917 -0.91996783 20.0
-0.08395850 -0.58758694 1.81544030 20.0
1.35908473 -0.90225840 0.88520849 20.0
1.39561367 -1.02778482 -0.42807606 20.0
0.56016469 -1.32184100 -1.05845976 20.0
-0.07900010 -1.10544789 1.09083200 20.0
0.06533457 -1.35137618 -1.00452483 20.0
1.40005171 -0.31933218 -0.65469611 20.0
-0.32994461 1.01107669 -1.21030438 20.0
1.22888815 1.37686646 0.78848189 20.0
-0.56861901 -0.91703856 -1.21411169 20.0
-1.42044890 0.73810953 0.96632630 20.0
0.69965214 -1.44393146 0.40724054 20.0
0.79430103 -1.43504429 0.22446184 20.0
-1.02304161 1.38953841 1.14232635 20.0
-0.08358692 -0.71176898 1.48329055 20.0
-1.33505094 -1.10342717 -1.21335363 20.0
-1.43577063 0.08055543 -0.65619415 20.0
-0.49253789 -1.16918194 -1.16235507 20.0
-0.11207512 -0.91703856 -1.21411169 20.0
-1.24771011 1.37825418 0.39696264 20.0
1.18612325 0.96832049 -1.70650709 20.0
-0.41802752 -0.46080756 2.10987353 20.0
-0.84417433 1.45620191 0.80859447 20.0
1.39282823 -0.46266714 0.92138427 20.0
1.41422987 0.61151785 0.73070812 20.0
-1.11603785 0.72701639 -1.14134216 20.0
-0.96806967 1.43855453 0.86152762 20.0
-0.38924536 -1.50536633 0.02341800 20.0
1.40675950 0.57211339 -0.65465063 20.0
0.21638459 1.44281876 -0.91257346 20.0
-0.66063893 0.61190003 -1.18433011 20.0
-1.39564490 0.75495964 -1.21245539 20.0
-1.06227052 -0.89431643 1.14167225 20.0
1.41841269 0.73821199 -0.02630082 20.0
-0.58034378 -1.48714578 0.35953593 20.0
0.57981551 0.03843896 -0.02113275 20.0
0.98539811 0.92392868 -1.49604547 20.0
-0.55653018 -0.64820480 -1.18523455 20.0
0.62179428 -1.48400080 0.04156459 20.0
0.70628828 1.32274294 1.35780180 20.0
1.03937209 0.87544197 1.45710754 20.0
-0.11449844 0.83435899 -1.20717955 20.0
0.69118190 1.46767020 0.87251586 20.0
-1.43569636 -0.81429452 0.25205982 20.0
-1.11020136 -1.32040751 -0.52555859 20.0
-1.41205812 0.24704106 1.08906579 20.0
-1.41819978 0.54281574 0.95347929 20.0
-1.41705167 -0.51854324 -0.65908331 20.0
0.89602768 -0.92800760 1.17476332 20.0
-0.78754389 -1.23215079 0.90906805 20.0
-1.42967033 0.67253935 -0.02642178 20.0
-1.38851261 1.25819468 0.70588815 20.0
0.51006234 -0.60429633 -1.18584991 20.0
0.86565936 -1.05503845 1.09349346 20.0
1.40675950 0.57211339 -0.65465063 20.0
0.23787445 0.54415286 -1.19309711 20.0
-1.39793777 1.01107669 -1.36088240 20.0
0.22396670 0.39856631 -0.02304714 20.0
0.56668824 -0.68643391 -1.18764377 20.0
0.31497541 1.09344423 -1.18897808 20.0
1.19116724 -0.93432683 1.04805088 20.0
-0.76862252 -0.58758694 1.78431094 20.0
-1.42937410 1.09344506 0.60237086 20.0
-1.43109941 0.78924865 -0.96086174 20.0
-1.21054053 -1.25710440 -0.50657427 20.0
0.93126196 1.10054719 1.46427107 20.0
-0.76510543 -0.85584623 1.23169005 20.0
-1.31182241 -0.91591591 0.97874451 20.0
1.40352035 -0.91756576 -0.65794986 20.0
-1.03328431 -0.46497047 1.76611900 20.0
0.25633577 -1.50968695 -0.12166839 20.0
1.08629215 -0.39591911 -1.10901356 20.0
0.06639858 1.52688742 -0.33878404 20.0
0.20757960 1.47918904 0.84211135 20.0
0.58505148 -0.46082601 2.10222602 20.0
-0.98861027 1.13303256 -1.37404251 20.0
-1.18024397 1.40313995 0.77478170 20.0
-0.58109361 -0.68643391 -1.18764377 20.0
1.40405202 0.57083917 0.95541483 20.0
-1.42957532 0.33891532 0.72910577 20.0
-0.94560790 -0.80662674 -1.31528282 20.0
-1.04518294 0.66756016 0.69301111 20.0
-0.99409789 0.96832049 -1.51327896 20.0
-0.81105125 0.60228091 -0.03026523 20.0
-0.96279639 -0.12237110 0.04240519 20.0
0.97812593 -0.54242927 1.76902390 20.0
1.04582679 1.01107669 -1.63557410 20.0
-0.08321187 0.84912795 1.23528171 20.0
1.22583270 -0.09558122 1.11096442 20.0
1.40522659 0.67212951 0.96158695 20.0
0.61379945 0.42532176 -1.18663740 20.0
-0.07973997 -1.35137618 -1.00452483 20.0
0.56601381 1.10054719 1.54801488 20.0
0.95200098 1.41651607 1.05400062 20.0
1.39199376 1.09344423 -0.95740718 20.0
0.39562249 0.98471832 1.73584342 20.0
1.41171587 -0.39591911 0.66709912 20.0
-1.01676393 0.83434588 -1.39048576 20.0
-0.89380890 1.44730282 0.40303421 20.0
1.22745478 0.01091084 1.11140704 20.0
0.92363995 1.18198168 1.42113113 20.0
1.31562912 1.05249107 -1.60074341 20.0
0.38471931 -1.32184100 -1.06498992 20.0
-0.33993250 -0.70787358 -1.19372916 20.0
0.58450967 -0.78938991 1.28875732 20.0
0.27230769 -0.56406903 -1.18693984 20.0
0.09793844 -0.88058347 -1.21558583 20.0
1.41757333 -0.85134709 0.05701371 20.0
-0.98879689 -0.88058347 -1.50488496 20.0
-0.41002783 0.98471832 1.73584342 20.0
1.32235456 -0.84367943 -1.60645592 20.0
0.88245785 -1.35094666 -0.93201262 20.0
-1.43422949 0.24726647 0.21068984 20.0
0.28844845 -1.45669866 0.52254361 20.0
0.56094164 -0.80662674 -1.21270919 20.0
0.53825438 -1.12986302 -1.16725099 20.0
0.78468817 0.39856631 -0.02845621 20.0
0.55957651 0.92392868 -1.21974242 20.0
-0.76188582 -0.89123642 1.22048807 20.0
0.37203702 1.47442317 0.78512079 20.0
-1.19252217 0.62989980 1.17136955 20.0
1.30506146 1.33603084 0.57043487 20.0
0.59577781 0.60169870 -0.02548341 20.0
-1.26863635 -1.21410537 -0.49131486 20.0
1.29984009 1.33659887 0.67024392 20.0
0.94857264 0.22461604 0.02697241 20.0
1.33684945 -0.16945735 1.12017167 20.0
1.39309168 -0.91469598 0.72114670 20.0
-0.28559071 -1.16918194 -1.16235507 20.0
0.96990442 -0.95319271 -1.48026204 20.0
0.80203199 -0.68643391 -1.18330050 20.0
0.83368236 1.40628922 1.16926599 20.0
-0.39912465 -1.32184100 -1.06498992 20.0
-1.42473686 -0.73519480 -0.97400022 20.0
1.35560429 -0.51854324 -0.99529618 20.0
0.21703406 1.40562737 -1.00225914 20.0
-1.16149282 1.40835047 0.16367278 20.0
-0.88879234 -1.25883150 0.82445657 20.0
-1.43396580 0.16332369 -0.28839764 20.0
1.39858544 -1.02780914 -0.06598321 20.0
0.79478616 0.63038027 -0.02705589 20.0
1.04139543 -1.34910738 -0.19794692 20.0
-1.43636703 -0.69536984 -0.08427311 20.0
1.02913451 -1.23563576 0.77293187 20.0
-1.37076366 1.13429964 0.89989477 20.0
-1.42617202 -0.39591911 0.42236164 20.0
0.86060303 1.45322895 -0.77590483 20.0
1.03354716 -1.00813448 1.07580531 20.0
1.41011167 0.48599443 0.21069206 20.0
-0.96650910 0.42532176 -1.12050772 20.0
1.04327440 1.09344423 -1.53886187 20.0
-0.33638620 -0.68643391 -1.18764377 20.0
-0.24128874 0.54287499 -0.02396047 20.0
-0.33667201 0.83435899 -1.20717955 20.0
-0.22607885 1.47199571 0.78095305 20.0
0.52866691 -1.19523168 0.98800004 20.0
1.12625027 1.41754842 0.80741328 20.0
0.06581885 -1.05503845 1.13897288 20.0
-1.13384151 1.40200555 0.61767399 20.0
-0.60340106 0.48283699 -0.02467565 20.0
0.95082736 0.54415286 -1.11989653 20.0
-0.49761206 -1.34072173 0.77743095 20.0
1.12251627 -0.47859174 1.53790092 20.0
0.89602768 -0.92800760 1.17476332 20.0
-0.96717101 0.16332369 -1.12050998 20.0
1.03762162 0.63081676 0.27112827 20.0
-1.09841800 0.58394402 1.00471973 20.0
-0.41033360 -0.89123642 1.23884964 20.0
-0.08120136 1.50405610 0.15425403 20.0
0.79646397 -1.43574822 0.18158634 20.0
1.41117322 0.42532176 0.21068984 20.0
0.31566197 -1.08485460 -1.18217766 20.0
1.41367781 1.05249548 0.61602098 20.0
1.00869167 1.42257643 0.50044149 20.0
1.41602182 0.73838192 -0.27964130 20.0
-1.33003449 1.05249107 -1.60074341 20.0
-0.49761206 -1.34072173 0.77743095 20.0
1.41601825 1.13429964 0.59675813 20.0
1.04139543 -1.34910738 -0.19794692 20.0
-1.13386035 1.42297852 -0.70943290 20.0
0.98951340 1.42307520 0.73506212 20.0
-0.07996663 1.44561839 -0.90751600 20.0
-1.43757570 -0.00260630 0.73173457 20.0
0.57284588 -0.96586657 1.19927216 20.0
0.87492210 1.47240067 -0.05065478 20.0
-1.20213342 -1.12467480 -1.16607440 20.0
-1.33138299 -1.16733742 0.16370839 20.0
1.40565455 0.48599443 -0.28837398 20.0
1.30498242 1.33603084 0.42461258 20.0
-1.43314743 0.87819368 0.21089780 20.0
1.30696905 -0.98964196 -1.55506146 20.0
0.39307040 0.22461604 -0.02242509 20.0
-0.24235487 0.57807875 -0.02413430 20.0
0.06556124 1.44561839 -0.90751600 20.0
0.56212902 -1.49082649 0.27773303 20.0
-0.61967880 -1.49044883 -0.53012156 20.0
1.40456915 0.48599443 -0.65613747 20.0
-1.37612760 -0.64475161 0.95473474 20.0
0.97068036 -1.02537906 -1.38692510 20.0
0.10009632 -0.74371350 -1.19993436 20.0
0.32053164 -0.77181321 -1.20491946 20.0
-0.24175307 -0.71176898 1.48329055 20.0
0.78603923 -1.44139862 -0.29591534 20.0
-0.73454404 -1.05503845 1.12282288 20.0
-1.40343916 0.96832049 -1.36561012 20.0
-1.42093611 -0.95319271 -0.19961347 20.0
-1.38410604 -0.08242658 -0.99815714 20.0
-0.87505299 -0.46108320 2.00923300 20.0
-1.40510714 -0.94980037 0.69286990 20.0
0.40292385 0.67075932 0.00136785 20.0
0.91196293 1.32132876 1.30805790 20.0
-1.03494275 -1.34988606 -0.72808045 20.0
1.40097582 -0.46266714 -0.65500915 20.0
-1.40973890 -0.98964196 -0.67405266 20.0
-1.39939260 1.25787914 0.58554465 20.0
-0.77023441 -1.40772271 0.49543390 20.0
-1.43474650 0.24724950 0.46420583 20.0
1.42409754 0.16332369 0.72969258 20.0
1.40676785 0.42532176 -0.28839716 20.0
-0.22994035 -1.35137618 -1.00452483 20.0
-1.20598793 1.39734733 -0.29833174 20.0
-1.38967001 1.09344423 -1.31690907 20.0
-0.10981692 -0.64820480 -1.18523455 20.0
-1.28309655 0.67561865 1.20071220 20.0
1.01355529 -0.68648571 -1.14542460 20.0
1.42317045 -0.00260630 0.73173457 20.0
-1.36476958 -0.51484126 1.02193189 20.0
-1.39516127 -1.06933641 -0.69765985 20.0
1.24557400 -1.19388437 0.64729136 20.0
1.41698468 0.78835726 -0.27638382 20.0
0.75722468 -1.25854838 0.87694019 20.0
-1.42822576 -0.88441730 0.42732099 20.0
-0.95782816 -1.35081017 -0.94804943 20.0
-1.28933120 1.30044198 -0.92611545 20.0
-1.39483690 -0.88082308 -1.36463428 20.0
-1.04564059 -1.34935367 -0.52424276 20.0
0.61713934 0.57193542 -1.18533087 20.0
-0.62820786 0.08055543 -1.18663979 20.0
-0.74187887 -1.39799738 -0.87208307 20.0
-1.26579297 0.83630204 1.27697492 20.0
1.04584312 1.23523593 -1.12565935 20.0
-1.03267539 0.72680813 -1.13981485 20.0
-1.05236840 -0.95319271 -1.60146558 20.0
0.70093894 1.41218901 1.19141448 20.0
-1.42937410 1.09344506 0.60237086 20.0
-0.11556026 -0.70787358 -1.19372916 20.0
0.55981147 1.40990472 -0.99018008 20.0
1.37887561 0.67754298 -0.98434359 20.0
-0.11197394 -0.98964196 -1.20739579 20.0
-1.09949350 -0.46266714 -1.10767746 20.0
0.06804495 0.98471832 1.73584342 20.0
-0.45467231 1.31424189 -1.11575317 20.0
1.41227758 0.57139915 0.72923970 20.0
-0.58216107 1.48098934 0.30176899 20.0
0.37130159 -1.51182711 -0.26671055 20.0
-0.32522798 1.23561549 -1.16335249 20.0
0.62490237 -1.48174453 0.26759818 20.0
-1.01672113 -0.43846226 1.69226778 20.0
-0.79909360 0.39856631 -0.02845621 20.0
-0.57977015 1.45593703 0.67637354 20.0
0.87787521 1.36680448 -0.99279869 20.0
-0.22584684 1.37143075 1.31408751 20.0
0.37483999 -1.50536633 0.02341800 20.0
1.16797316 1.35803974 1.01657426 20.0
1.20116627 -1.25707555 -0.32862034 20.0
-0.40179768 1.45799959 0.67734474 20.0
-1.20807934 -0.80662674 -1.60933447 20.0
0.72740495 1.02788460 1.62382638 20.0
-0.23890688 -0.41787255 0.52977747 20.0
0.79430103 -1.43504429 0.22446184 20.0
-1.31946695 1.33603084 0.57043487 20.0
-1.42261350 -0.15946773 -0.29365262 20.0
-0.57097507 1.46086228 0.74613827 20.0
0.95082736 0.54415286 -1.11989653 20.0
-0.75433379 1.36783969 -1.02789545 20.0
-1.41897452 0.48599443 -0.65613747 20.0
0.92363995 1.18198168 1.42113113 20.0
-1.41838634 -0.95319271 -0.39962348 20.0
-0.52662969 -1.25847769 0.91009843 20.0
-0.94536912 1.06583250 1.49598181 20.0
1.09743357 -0.00260630 -1.11161113 20.0
-0.74652821 -0.42482671 1.72155201 20.0
0.79398817 0.33925471 -1.15825832 20.0
0.22385763 0.98471832 1.73584342 20.0
0.91860420 -0.91703856 -1.34260213 20.0
-0.08022425 -1.05503845 1.13897288 20.0
-0.90438455 -0.96598744 1.15446281 20.0
-1.09894538 1.42408478 0.16184594 20.0
-1.40343916 0.96832049 -1.36561012 20.0
0.95276552 0.16332369 -1.12050998 20.0
0.58025932 0.84912795 1.22682822 20.0
1.42525411 0.08055543 0.73082125 20.0
0.06556124 1.44561839 -0.90751600 20.0
-1.37348998 -0.90225840 0.88520849 20.0
-1.06227052 -0.89431643 1.14167225 20.0
-0.39030433 -1.50378191 0.12583679 20.0
0.99359685 -1.35050023 -0.90080643 20.0
-1.40723336 -0.46266714 0.92138427 20.0
0.22196825 0.03843896 -0.01995469 20.0
0.07204617 -1.21442854 -1.15264750 20.0
-1.18237865 1.35803974 1.01657426 20.0
-0.88019341 1.40975153 -0.92777407 20.0
0.68956232 -1.46566331 0.24394381 20.0
1.04786503 -0.89431643 1.14167225 20.0
1.39403439 1.21579325 0.71476161 20.0
-0.80820829 -1.43718684 -0.00017216 20.0
0.72631818 1.49279046 -0.54082429 20.0
-1.10848033 0.42532176 -1.11163652 20.0
0.73511094 -0.43008161 2.02983379 20.0
-1.19261432 1.09344423 -1.59634507 20.0
0.21772717 1.18198168 1.50089109 20.0
0.07272270 0.33925471 -1.19376338 20.0
-1.37229931 -1.00808537 0.80454659 20.0
1.16419351 -1.16565824 -1.10401106 20.0
-1.06024861 1.23523593 -1.12565935 20.0
-1.40192425 -0.81055099 0.82267016 20.0
-1.17027509 -1.25749838 -0.99111694 20.0
1.40870941 -0.56411487 -0.31127334 20.0
1.33887899 -0.08505750 1.12777388 20.0
1.03762162 0.63081676 0.27112827 20.0
-1.43001831 0.83239132 -0.59228873 20.0
0.47778356 -1.50141752 0.03029046 20.0
-0.10382766 -0.60429633 -1.18584991 20.0
0.74184638 -0.46089977 2.07163310 20.0
0.48039243 -1.50337052 -0.73008060 20.0
1.07863951 -1.25772297 -1.06542706 20.0
0.06459472 -1.10544789 1.09083200 20.0
0.77999109 0.30816242 -0.02816865 20.0
-0.23332883 1.13867795 1.52336979 20.0
-0.08125032 1.10054719 1.55307853 20.0
0.39463988 -0.30826977 0.11432091 20.0
1.33960652 -0.77112752 -1.50057590 20.0
1.26616693 1.17835641 1.08323205 20.0
0.73636502 -1.25775647 -1.09607828 20.0
0.37135679 1.41406262 1.21867049 20.0
-1.42703092 0.67403340 -0.63476771 20.0
0.78777868 -1.39648020 -0.86377466 20.0
0.53984946 1.44504893 1.09589887 20.0
-0.38784161 1.47256303 0.78076029 20.0
0.91986120 -1.37611222 0.37184453 20.0
-1.36092114 -0.39942044 1.07993901 20.0
1.02390695 0.75481075 -1.18772113 20.0
-0.75282341 -1.28844988 0.83602011 20.0
-1.43523943 0.73819947 0.46527907 20.0
0.22794951 0.57807875 -0.02413430 20.0
-1.42644143 -0.84895092 -0.63267368 20.0
-0.94838023 -1.39112782 0.17546730 20.0
0.40131992 -0.42327043 1.76237154 20.0
-1.20110428 1.39220250 0.56057030 20.0
0.39306384 -0.12237110 -0.00663128 20.0
1.41533434 0.33916986 0.46417391 20.0
0.38193110 1.48581433 -0.76527047 20.0
-0.62801671 -0.08242658 -1.18649542 20.0
0.92553753 -1.38755190 0.28726456 20.0
0.58217961 -0.82245785 1.25898230 20.0
1.17634630 1.16989291 -1.41651595 20.0
-1.34514093 0.42630914 1.17581344 20.0
1.39766908 -0.60415059 0.82381296 20.0
-0.98424697 0.54392159 0.02598451 20.0
0.65251428 -1.40794230 0.61956519 20.0
-0.39030433 -1.50378191 0.12583679 20.0
0.57646066 1.36645114 -1.05600846 20.0
0.38286120 1.22732365 1.47170913 20.0
0.23821183 0.24726647 -1.19374478 20.0
1.04583108 1.21747756 -1.19462299 20.0
1.05082250 1.40529501 1.05127120 20.0
-0.98981065 1.35941124 1.22546601 20.0
0.91809332 1.22732365 1.39476097 20.0
1.26368880 -1.21425831 0.01032223 20.0
1.30696905 -0.98964196 -1.55506146 20.0
-1.42560983 0.92392868 -0.58887106 20.0
-0.96490806 0.30816242 0.02714271 20.0
-0.88879234 -1.25883150 0.82445657 20.0
0.69011664 -0.56406903 -1.17986965 20.0
-1.43504274 0.73816186 0.73346776 20.0
-1.16653073 -1.29396105 0.30960578 20.0
-0.66093522 -1.25847769 0.90119320 20.0
-0.08712494 0.24726647 -1.19374478 20.0
0.58899570 0.48283699 -0.02467565 20.0
1.36989629 -0.65310395 -0.98841280 20.0
-1.39679658 1.25787914 -0.02440553 20.0
0.58247870 0.30816242 -0.02367773 20.0
-1.41356695 -0.95319271 -0.66596937 20.0
1.06736243 1.43894792 -0.54400426 20.0
-1.17783678 -1.21321404 0.71323866 20.0
-0.58159184 0.83435899 -1.20717955 20.0
-0.66093522 -1.25847769 0.90119320 20.0
1.35321331 -0.31933218 -0.99615830 20.0
-1.05157316 -0.50557536 1.72113562 20.0
1.19819713 1.39379239 0.34994039 20.0
0.48008919 -0.56406903 -1.18693984 20.0
-0.60062146 -0.50222683 2.01970315 20.0
0.92857653 -1.39248478 -0.18585157 20.0
0.17114300 -1.46657979 -0.87057996 20.0
1.41555703 0.73906171 -0.61539179 20.0
1.39985120 -0.98964196 0.49378794 20.0
-0.41732925 0.67075932 0.00136785 20.0
-1.03494275 -1.34988606 -0.72808045 20.0
-0.49355513 -1.49983323 0.13088687 20.0
-0.41021803 0.39856631 -0.02304714 20.0
-0.93714774 -0.43407789 1.55708241 20.0
-0.08045387 1.18198168 1.50089109 20.0
1.42636156 -0.73481381 0.49347535 20.0
-1.42901468 -0.88441730 0.02244012 20.0
0.97891992 1.21752310 -1.17472398 20.0
-1.36167002 0.78825319 1.14341760 20.0
1.08508813 -0.46266714 -1.10767746 20.0
1.19557452 -0.72270089 -1.36616480 20.0
1.38770926 1.21553695 -0.59288448 20.0
1.35025156 1.29954815 0.58097768 20.0
1.07661128 -0.72306609 -1.32731879 20.0
-0.70452207 -0.56406903 -1.17986965 20.0
0.06280180 1.47891629 0.84570485 20.0
0.84900141 1.06583250 1.53260696 20.0
-1.37561584 -1.11695111 0.18505727 20.0
1.20381880 0.87819368 -1.62066114 20.0
-1.05825031 1.05249107 -1.59801471 20.0
-0.25246316 0.52104282 -1.19344914 20.0
-0.49479780 -1.50337052 -0.73008060 20.0
1.23471034 0.26707512 1.12791467 20.0
1.41306269 -0.15946773 0.19484983 20.0
-0.98424697 0.54392159 0.02598451 20.0
-1.24186015 0.01091084 1.11140704 20.0
0.21653776 1.22732365 1.47170913 20.0
-1.43286312 -0.64948130 -0.07754639 20.0
0.68767035 -1.15239239 1.02633584 20.0
1.34734821 0.25098565 1.14735341 20.0
0.97848469 1.42351949 -0.85948390 20.0
-0.43491668 -0.08242658 -1.19359505 20.0
-1.28555083 1.09642589 1.11960220 20.0
1.29310536 -0.88326824 1.01285315 20.0
1.34571326 0.08459243 1.13359392 20.0
-1.00961137 -0.42387670 0.65181959 20.0
-1.43374491 0.87819564 0.45194712 20.0
-1.37145495 0.67187351 1.11633837 20.0
0.06280180 1.47891629 0.84570485 20.0
-0.23589049 -1.25775647 -1.13017535 20.0
0.73841798 -1.28844988 0.83602011 20.0
1.26497602 0.92796177 1.17764759 20.0
-1.10069764 -0.39591911 -1.10901356 20.0
0.76473182 -0.41873714 0.51171690 20.0
0.21638459 1.44281876 -0.91257346 20.0
-0.58196896 1.46647608 0.48162869 20.0
1.21320307 -1.21362817 -1.00095201 20.0
-0.33029717 1.19739640 -1.17842364 20.0
1.30809021 -0.95319271 -1.60231698 20.0
0.82179183 -0.51854324 -1.15277517 20.0
1.02869844 -0.67287862 1.49819052 20.0
-0.97205991 1.43248188 0.91569453 20.0
1.40796220 -0.95319271 0.25853971 20.0
-1.15164757 -0.52018160 1.50779712 20.0
1.41243184 0.57180142 0.46421102 20.0
-1.12130892 -1.32028723 0.28689611 20.0
-0.23589049 -1.25775647 -1.13017535 20.0
0.96802688 0.60301709 0.02468660 20.0
0.22805893 -0.42943603 2.07075500 20.0
-1.05202711 0.63081676 0.27112827 20.0
-1.15988052 -1.10880411 0.91572994 20.0
0.40131992 -0.42327043 1.76237154 20.0
1.14730573 1.32493138 1.09815192 20.0
-1.38040495 1.25691366 -0.60802555 20.0
1.26869106 0.67561865 1.20071220 20.0
0.07244236 -0.31933218 -1.19211066 20.0
0.39969927 0.84912795 1.23528171 20.0
0.31794688 0.72675610 -1.18930662 20.0
-1.21365821 -1.25300217 0.46452194 20.0
-0.74576485 1.44694233 0.67176813 20.0
-0.25416768 0.57193542 -1.19242549 20.0
0.09541154 -0.64820480 -1.18523455 20.0
1.00509989 0.79554194 0.97755778 20.0
0.97439140 -0.88058347 -1.50488496 20.0
-1.20360315 -0.90097135 1.07240725 20.0
-0.97843343 0.63079792 0.02755531 20.0
1.39858544 -1.02780914 -0.06598321 20.0
1.04740429 0.92133456 1.45400262 20.0
-1.42612112 -0.39591911 0.66709912 20.0
-0.93931764 1.21753454 -1.17026985 20.0
0.88997912 -0.96598744 1.15446281 20.0
0.07260970 0.54415286 -1.19309711 20.0
-0.58199644 1.47274888 0.40006641 20.0
-1.20557261 -0.93432683 1.04805088 20.0
-1.01672113 -0.43846226 1.69226778 20.0
1.03741384 0.83142745 1.36110520 20.0
-0.15943837 -1.50476897 0.12457431 20.0
1.35457909 0.92395645 1.00752628 20.0
-0.32951862 -1.05771983 -1.18970895 20.0
-1.18570209 1.41006601 -0.57303363 20.0
0.23822147 0.33925471 -1.19376338 20.0
0.21519460 1.27380109 1.43024433 20.0
0.86025286 1.46171677 -0.72476548 20.0
1.33841002 -0.25134200 1.11205411 20.0
-0.93031132 -0.42045680 0.52528781 20.0
0.37589899 -1.50378191 0.12583679 20.0
0.22805893 -0.42943603 2.07075500 20.0
0.06021393 -1.25847769 0.91232431 20.0
1.15131772 1.41320336 -0.74185961 20.0
0.14238745 -1.51549625 -0.41035348 20.0
1.24059331 0.57195663 -1.11845696 20.0
1.37352216 -1.06877542 -0.99308258 20.0
-0.08396631 -0.50222683 2.02686453 20.0
0.57989866 -0.85584623 1.24658263 20.0
1.40765440 -0.39591911 0.86757767 20.0
0.31698918 -0.84367943 -1.21662462 20.0
-1.41319406 -0.77066755 -1.29894400 20.0
-0.93129021 1.36632240 1.24549484 20.0
-0.41802752 -0.46080756 2.10987353 20.0
-0.75866759 -0.92769098 1.20577013 20.0
0.36635804 1.48009682 0.84180278 20.0
0.88245785 -1.35094666 -0.93201262 20.0
0.79345381 0.52104282 -1.15795112 20.0
-0.57264394 1.43824887 -0.92613995 20.0
1.41535997 1.13429964 0.21114473 20.0
1.09799314 0.08055543 -1.11163878 20.0
0.68413460 -1.47107899 -0.10864563 20.0
0.89713740 0.89313102 1.54180503 20.0
1.30809021 -0.95319271 -1.60231698 20.0
-0.49931157 -1.49060071 0.36445299 20.0
-1.20213342 -1.12467480 -1.16607440 20.0
-0.40360388 1.10054719 1.55307853 20.0
1.41362524 -0.15946773 0.45436612 20.0
-0.43505263 0.24726647 -1.19374478 20.0
-0.97185570 0.39856631 0.02708743 20.0
-1.16553736 -0.71516335 1.36054265 20.0
-0.88927180 -1.25775647 -1.05984843 20.0
0.95200098 1.41651607 1.05400062 20.0
1.40575862 -0.39591911 -0.29558203 20.0
-1.07781410 1.04991925 1.40088320 20.0
1.04408097 0.78113192 1.19965732 20.0
-1.12603498 -1.15574718 0.86643577 20.0
1.41929448 -0.81431997 0.49480072 20.0
1.18890893 -1.25722027 -0.75831938 20.0
-1.30751085 -0.88326824 1.01285315 20.0
0.99520588 -0.42387670 0.65181959 20.0
-0.08390430 0.60155314 -0.02428810 20.0
-0.11242240 1.19739640 -1.17842364 20.0
0.95273352 -0.00260630 -1.12048233 20.0
-1.38792753 -1.06877542 -0.99308258 20.0
-0.32681119 -1.40788972 0.64194369 20.0
1.05066431 0.47964811 0.67094588 20.0
1.42145932 -0.81429452 0.38079408 20.0
-0.57750022 0.87819368 -1.21453893 20.0
-1.42100191 0.78825271 0.96254796 20.0
-0.11393341 -0.77181321 -1.20491946 20.0
-0.77147925 -0.63345027 1.67184007 20.0
-0.81643742 -0.68643391 -1.18330050 20.0
1.32697904 1.21184897 -1.18980229 20.0
1.18772805 -1.12467480 -1.16607440 20.0
-0.43506944 0.33925471 -1.19376338 20.0
1.39985120 -0.98964196 0.49378794 20.0
-0.22218187 1.46761155 0.97193497 20.0
-0.07962911 1.27380109 1.43024433 20.0
-1.25106251 1.37440026 0.69710463 20.0
-0.96650910 0.42532176 -1.12050772 20.0
-0.75282341 -1.28844988 0.83602011 20.0
-1.42827260 -0.88441730 -0.15679716 20.0
0.98359251 -1.25775647 -1.05132866 20.0
-1.06371057 0.54011679 0.67082494 20.0
1.36989629 -0.65310395 -0.98841280 20.0
-0.57064658 -1.49696100 -0.09740228 20.0
-1.37223625 -0.56427968 -0.99511588 20.0
0.79380286 -1.43718684 -0.00017216 20.0
0.24084635 -0.46266714 -1.18956518 20.0
-0.22436994 1.41309774 1.22250009 20.0
1.30030048 -0.94912952 0.95172334 20.0
-1.43123400 0.87819368 -0.02593534 20.0
-0.07092153 -1.34072173 0.77906686 20.0
-0.59891504 -0.78938991 1.28875732 20.0
-1.42925358 -0.56406903 0.57941854 20.0
0.54902142 -1.10544789 1.08781540 20.0
-1.19943750 -0.84367943 -1.66509092 20.0
-0.39492494 1.27380109 1.43024433 20.0
-0.23434182 1.46242535 0.57515675 20.0
-0.08119807 1.48709774 0.30128905 20.0
0.97848469 1.42351949 -0.85948390 20.0
-0.96297801 0.22461604 0.02697241 20.0
-0.32938081 1.09344423 -1.18897808 20.0
-0.88932759 1.47240067 -0.05065478 20.0
0.39322463 -1.47960186 0.44295880 20.0
-0.11307690 0.92392868 -1.21974242 20.0
-1.40723336 -0.46266714 0.92138427 20.0
0.84200430 1.45012128 0.76905227 20.0
1.40376091 0.51956683 0.95286667 20.0
0.37319097 -1.50866520 -0.11931561 20.0
1.31562912 1.05249107 -1.60074341 20.0
-0.38784161 1.47256303 0.78076029 20.0
1.40753043 0.57197100 -0.28794423 20.0
-0.25262684 0.33925471 -1.19376338 20.0
-0.08064000 -1.29521155 -1.10027182 20.0
-1.10929048 0.33925471 -1.11166072 20.0
1.33073556 0.42630914 1.17581344 20.0
-0.79910874 -1.08485460 -1.18909621 20.0
1.34235156 0.00009713 1.13190567 20.0
-0.93488145 1.05249107 -1.31900668 20.0
-0.90491796 -0.58758694 1.73811603 20.0
0.79375756 0.48599443 -1.15812576 20.0
1.20538080 1.39057517 0.18723288 20.0
-0.55974317 -1.50085461 -0.53384966 20.0
-1.32597780 1.17275178 -1.39599383 20.0
0.39461383 -0.92769098 1.22379851 20.0
1.03969193 -1.08515704 -1.31205118 20.0
1.41179931 1.17490375 -0.02485505 20.0
1.41995645 0.08055543 0.95315593 20.0
-1.10975099 -0.08242658 -1.11150110 20.0
1.24019659 1.30957294 0.97013819 20.0
0.81914485 -1.15239239 0.99921626 20.0
-0.55265975 -1.12986302 -1.16725099 20.0
1.37174034 1.13442636 -1.28125834 20.0
-0.43504629 0.42532176 -1.19373775 20.0
1.40769041 1.05249107 -0.27239853 20.0
0.22545144 -0.82245785 1.26276004 20.0
1.40588474 1.21573007 0.42921758 20.0
-0.38091549 1.47735238 0.88216931 20.0
1.41194391 0.92392868 -0.27358031 20.0
0.22146103 1.06583250 1.59814644 20.0
-0.96306413 -0.68643391 -1.16592598 20.0
0.28950027 -0.60429633 -1.18584991 20.0
1.25154650 1.36372912 -0.27228490 20.0
0.95181930 0.48599443 -1.12040281 20.0
1.39765275 0.24704106 1.08906579 20.0
-0.08022639 1.40674949 -0.99986738 20.0
1.31697750 -1.16733742 0.16370839 20.0
0.85823184 0.84912795 1.15914559 20.0
-0.57902694 1.50603664 -0.33730283 20.0
1.04774737 0.54394531 0.26987192 20.0
-1.22595143 -1.17038107 0.76578170 20.0
1.34649372 -0.74028534 -1.43067622 20.0
1.04580021 0.39524490 0.66998917 20.0
-1.05538845 -1.29517603 -1.03785050 20.0
-1.10255694 -0.31933218 -1.11009276 20.0
0.06910922 -0.42327043 1.76237154 20.0
0.90637630 -1.35844541 0.49045730 20.0
0.77648503 0.03843896 -0.02584518 20.0
-1.27139902 1.36330354 -0.02623960 20.0
-1.40910423 -1.02780914 0.47438687 20.0
-1.42400396 0.61214918 -0.28667617 20.0
-1.40707517 -0.08242658 1.08175421 20.0
-0.94007325 -0.84367943 -1.33520401 20.0
-0.49761206 -1.34072173 0.77743095 20.0
-0.32007658 -1.12986302 -1.16725099 20.0
0.06786139 -0.30826977 0.11432091 20.0
-0.93574053 -1.08485460 -1.21677303 20.0
1.42522585 -0.69536984 0.53117055 20.0
1.11018896 -1.32028723 0.19841444 20.0
1.42166281 0.78825212 0.72902304 20.0
1.01254356 -0.70791900 -1.20878851 20.0
0.41916326 -0.31933218 -1.19211066 20.0
1.41196501 0.61190003 -0.02652938 20.0
0.06756821 0.22461604 -0.02242509 20.0
0.93620533 0.87819368 -1.32000291 20.0
-0.43504840 0.08055543 -1.19374013 20.0
0.83024937 1.32246006 1.33067441 20.0
0.06880648 0.84912795 1.23528171 20.0
-1.38619339 -0.95319271 -1.35034418 20.0
1.41116667 -0.15946773 -0.04080544 20.0
0.21760356 -1.32184100 -1.06498992 20.0
-1.43300438 -0.08242658 0.73032665 20.0
0.06219721 -1.19523168 0.99057263 20.0
0.34710085 -1.28822494 0.86951435 20.0
1.23665714 1.37440026 0.69710463 20.0
-0.57151031 -1.10570133 -1.17443705 20.0
-1.37489426 -0.15946773 -0.99751520 20.0
1.11492157 -1.25026643 0.66441220 20.0
-0.80558336 -0.31933218 -1.15664232 20.0
0.22482361 0.93901199 1.80969214 20.0
1.42456150 -0.77371377 0.29900566 20.0
1.37178814 -0.95319271 -1.35034418 20.0
-1.42822576 -0.88441730 0.42732099 20.0
0.78258651 -0.91703856 -1.23980772 20.0
-0.62244189 -1.34072173 0.77088648 20.0
1.32887554 -1.09656179 0.74005061 20.0
-0.08358692 -0.71176898 1.48329055 20.0
-1.43862081 -0.69536984 0.14903939 20.0
1.41084230 0.54415286 0.21070282 20.0
-0.59466469 0.84912795 1.22682822 20.0
0.39307040 0.22461604 -0.02242509 20.0
1.09534550 -0.08242658 -1.11150110 20.0
1.04590511 0.57970333 0.26912910 20.0
0.78470331 -1.08485460 -1.18909621 20.0
0.83563519 1.42835712 1.05968833 20.0
0.72740495 1.02788460 1.62382638 20.0
-1.43436158 0.08055543 0.95315593 20.0
-1.11177158 0.16332369 -1.11163878 20.0
-0.05693728 -1.49988389 0.27427119 20.0
-1.05996919 0.57561094 0.67027634 20.0
-0.07720718 1.47891629 0.84570485 20.0
-0.98434806 -0.98964196 -1.43970811 20.0
-1.27809429 -1.21425831 0.01032223 20.0
-0.49253789 -1.16918194 -1.16235507 20.0
-0.92869359 1.23561549 -1.14254403 20.0
0.83220476 1.44676578 0.91681898 20.0
0.60439461 -1.21442854 -1.14572918 20.0
-1.43396580 0.16332369 -0.28839764 20.0
0.76816815 0.79884553 0.50743026 20.0
-0.59422088 0.03843896 -0.02113275 20.0
-1.42920089 0.24726647 -0.65619659 20.0
1.23054576 -0.51854324 -1.11468208 20.0
-1.43896687 -0.77371377 0.29900566 20.0
0.84346330 -1.10544789 1.04749668 20.0
0.30789128 -0.64820480 -1.18523455 20.0
-0.57398188 0.92392868 -1.21974242 20.0
-0.93574053 -1.08485460 -1.21677303 20.0
-0.33088925 -1.10570133 -1.17443705 20.0
1.38770926 1.21553695 -0.59288448 20.0
0.06684495 1.10054719 1.55307853 20.0
-1.42883456 0.87819368 -0.27396536 20.0
1.22769535 1.37986100 0.19931273 20.0
0.86064750 -0.46108320 2.00923300 20.0
1.08508813 -0.46266714 -1.10767746 20.0
1.41132879 -0.31933218 0.43508971 20.0
-1.39349532 1.05249107 -1.34373844 20.0
1.09463298 0.52520680 1.00540197 20.0
-1.39083230 0.16332369 -0.99863189 20.0
0.31644490 0.96832049 -1.21966660 20.0
-0.16653788 -1.47966361 0.44310701 20.0
1.41804135 -0.85134709 0.33703253 20.0
-0.94560790 -0.80662674 -1.31528282 20.0
1.08281386 0.79829115 -1.38407898 20.0
0.31497541 1.09344423 -1.18897808 20.0
1.39931643 -1.02780914 0.21749774 20.0
-1.42631590 -0.46266714 0.40989795 20.0
0.38880533 1.47522640 0.40002376 20.0
1.41295981 1.05249107 0.21105643 20.0
-0.94827461 -1.39127243 0.08868797 20.0
-0.62586582 -1.48878813 -0.36880040 20.0
0.22482361 0.93901199 1.80969214 20.0
0.06280180 1.47891629 0.84570485 20.0
0.95745033 0.39856631 0.02708743 20.0
-0.98243237 0.60301709 0.02468660 20.0
0.24084635 -0.46266714 -1.18956518 20.0
0.39271849 -0.96586657 1.20278454 20.0
-1.43301845 0.83228546 -0.02607281 20.0
1.33841002 -0.25134200 1.11205411 20.0
-0.79909360 0.39856631 -0.02845621 20.0
0.79056466 0.92392868 -1.24425507 20.0
0.87438685 -1.25883150 0.82445657 20.0
-1.42663705 -0.51854324 0.17264459 20.0
1.40618038 -0.23858924 0.94239104 20.0
-1.42141330 -0.95319271 0.37488151 20.0
1.40410066 -0.98964196 -0.04557844 20.0
-1.23344123 0.75658774 -1.24732602 20.0
-0.70189536 -1.46812809 0.03064517 20.0
1.03636599 0.62709808 0.67233622 20.0
1.07559586 0.83429343 -1.47912455 20.0
-1.11669230 -1.29493773 -0.97217411 20.0
-1.42349994 1.13429964 -0.27152446 20.0
0.54723525 1.23561549 -1.16335249 20.0
1.17024958 1.40406644 -0.05506694 20.0
-1.42930746 1.09344447 0.43254566 20.0
0.97443038 1.05249107 -1.47329783 20.0
1.41083086 0.52086228 0.46383533 20.0
1.34571326 0.08459243 1.13359392 20.0
-1.05181932 0.83142745 1.36110520 20.0
0.96831787 -1.12980056 -1.12595773 20.0
1.16196918 0.98796016 1.30975521 20.0
-1.03794074 0.72906804 0.77169257 20.0
1.06429410 1.42629611 0.86564934 20.0
-0.39811090 -1.05503845 1.13897288 20.0
-0.58864450 0.77288133 -1.19413459 20.0
-0.33088925 -1.10570133 -1.17443705 20.0
0.55798584 -0.84367943 -1.21662462 20.0
-0.85035676 1.22732365 1.41868913 20.0
0.22532581 0.48280728 -0.02361020 20.0
-0.23094311 1.22732365 1.47170913 20.0
-1.19343328 1.05249107 -1.65870011 20.0
0.21638459 1.44281876 -0.91257346 20.0
1.16449201 1.40384746 -0.76648432 20.0
1.40659654 0.78825271 0.96254796 20.0
0.88997912 -0.96598744 1.15446281 20.0
-1.41645467 -0.73683530 -1.26440632 20.0
0.93723214 -0.77181321 -1.28767240 20.0
-0.09786317 -1.16918194 -1.16235507 20.0
1.37178814 -0.95319271 -1.35034418 20.0
-1.27530086 -1.21425831 0.37237623 20.0
1.14591253 1.41208279 0.85168773 20.0
-1.42363298 -0.77391672 0.68852627 20.0
0.75069994 -0.85584623 1.23169005 20.0
0.89844060 -1.23220742 0.85655046 20.0
-1.21365821 -1.25300217 0.46452194 20.0
-1.42918229 -0.64973772 -0.32357925 20.0
-0.87609786 1.44530702 -0.81818813 20.0
-1.44058836 -0.73481381 0.34061182 20.0
-1.42880940 0.92392868 -0.02579249 20.0
-1.43504274 0.73816186 0.73346776 20.0
-1.02421820 1.41777325 0.58746719 20.0
-0.77147925 -0.63345027 1.67184007 20.0
1.19367397 -0.80662674 -1.60933447 20.0
-1.41646767 1.05249929 0.76561636 20.0
-0.59446323 0.14184806 -0.02393486 20.0
-1.09101677 -0.72306609 -1.32731879 20.0
1.14562368 1.28073084 1.16213012 20.0
