-0.20086364 1.55260301 0.35467196 30.0
-1.37797332 -0.89874732 -1.09668279 30.0
0.44381964 -0.76228476 0.82263809 30.0
0.80045748 -0.23329984 1.70779240 30.0
-0.60768044 -1.02936232 0.48007441 30.0
-0.53656954 0.75775391 1.59944797 30.0
-0.05437066 -0.35835978 1.53060901 30.0
0.34204975 -0.58697480 -1.06823850 30.0
-1.46363473 -0.98503155 -0.17025444 30.0
-0.52748513 1.54384673 -0.81632173 30.0
0.55218172 1.34666157 -0.92899603 30.0
1.40800333 0.39033365 0.67582703 30.0
0.21506143 0.66409963 -1.07691145 30.0
1.46494722 -0.85811687 0.63225925 30.0
0.73275667 1.52673101 0.02162021 30.0
1.51019704 -0.85955071 0.11406585 30.0
1.15844488 1.48803985 0.70852017 30.0
1.44482291 -1.16252840 0.07563829 30.0
1.45808196 -0.64029187 -0.82433951 30.0
-1.21543264 -0.23834780 1.39859557 30.0
-0.35368097 0.18789327 2.07209015 30.0
1.47623110 -0.78723943 0.71726716 30.0
-1.21948206 -1.30380344 -0.20762686 30.0
-1.40440547 0.52827430 -0.70648736 30.0
-1.07594073 1.29315877 1.07227397 30.0
1.26731086 -1.24081516 0.05899601 30.0
0.58244491 1.54597890 0.99268502 30.0
-0.93234253 1.01113081 -1.44510341 30.0
-1.27733016 1.04656625 0.93931395 30.0
-0.94797850 -0.48976329 -1.01830566 30.0
0.43514013 -1.38640475 -0.14079443 30.0
0.96780813 1.14111769 1.19686019 30.0
-1.34905529 0.23386124 0.74166757 30.0
-0.53576070 -1.42432261 -0.37838086 30.0
0.72720855 1.49056637 -0.86863518 30.0
-0.68491071 0.77619869 -1.02550030 30.0
-0.89369780 0.72969979 1.50516760 30.0
0.22132471 -1.42030180 -0.19315906 30.0
-0.31215122 0.47935319 -1.06574142 30.0
1.46005964 1.04856014 -0.74025315 30.0
-0.30351281 -1.44348276 -0.93141615 30.0
-0.45735046 1.00128615 1.29425395 30.0
-1.48236525 -0.89766699 0.07399554 30.0
-1.52192461 -0.61376578 -0.07486976 30.0
-0.62128139 -0.65111637 -1.03778291 30.0
1.35385251 -0.86617118 -1.53433490 30.0
-0.77235395 1.15801096 -0.97512227 30.0
-1.17002034 -1.26054502 0.02389909 30.0
0.21655117 -0.10772715 -1.10517299 30.0
0.63375926 -0.28687942 -1.06755805 30.0
1.29678655 1.08609045 0.94984657 30.0
-1.29790926 -0.37037075 1.20254099 30.0
-0.46100864 1.54109406 1.04897583 30.0
-1.22160649 -1.10741699 -0.97037947 30.0
0.33027816 0.40337184 -1.06574142 30.0
-1.40901899 -1.22429371 -0.08192271 30.0
0.80578262 1.37519670 1.12998927 30.0
-0.27909878 1.15956211 1.30206192 30.0
-0.41932717 0.83037668 -1.05663812 30.0
-0.76001126 -1.33356452 -0.07645630 30.0
-0.70693374 1.52462864 0.36128929 30.0
0.88436151 -0.86438364 0.70006716 30.0
-1.22453463 0.14996423 -0.94493073 30.0
-1.34066534 1.17652261 0.78923595 30.0
0.44418705 1.28198433 -0.95178956 30.0
-0.18776058 -0.64653367 0.92727512 30.0
-1.39887023 0.71299255 0.40156624 30.0
1.55380881 -0.59558207 0.32606769 30.0
0.69843763 -1.15119731 0.26822180 30.0
0.75393236 1.53646839 0.84567130 30.0
-0.75029218 -1.14935708 -1.02875042 30.0
-0.93239892 0.87844235 -1.44740808 30.0
-1.46487319 1.04857743 -0.63534188 30.0
1.09751284 1.29315877 1.07227397 30.0
-0.61685008 -1.41695714 -0.63423866 30.0
1.02546978 -0.84304190 0.71243685 30.0
-0.27974689 1.11990917 1.30111587 30.0
1.44033289 -1.03360355 -0.59200436 30.0
-0.42348695 -0.68968856 -1.05760562 30.0
-1.47896349 -0.89767176 0.38699323 30.0
0.87688690 -0.06030917 1.89054894 30.0
-0.06035188 0.91974598 -1.07817125 30.0
1.50378740 -0.89767969 0.05080639 30.0
1.51825809 -0.78794366 0.48041818 30.0
-0.82753491 -1.27011192 0.05602560 30.0
0.19385505 1.01378489 1.31037998 30.0
1.42913675 -1.22664082 -0.11402765 30.0
0.44093317 0.97853941 -1.03069174 30.0
0.63965029 -0.42442122 -1.05237591 30.0
-1.40709782 -1.22701609 -0.13872337 30.0
-0.06054521 -0.76667911 0.82702523 30.0
-0.97821766 1.51080966 0.71243352 30.0
0.33609152 -0.20362180 -1.09899509 30.0
1.38211167 -0.64679921 -1.33911049 30.0
1.22477138 -0.81652600 -1.87561607 30.0
-1.41563702 0.58131105 -0.65201968 30.0
-0.41853073 1.55546904 0.57784253 30.0
-0.19282676 -1.14247620 0.33671468 30.0
-0.05941186 -1.06160867 0.47358334 30.0
-0.51865709 0.97307110 -1.02133739 30.0
0.51418686 0.23821872 -1.04646003 30.0
0.94964927 0.94326967 -1.47417450 30.0
-0.87493223 -0.58437461 -1.01678205 30.0
-1.33738136 -1.17116451 -0.81520224 30.0
-1.48278236 1.17730236 0.32010528 30.0
0.44631109 -0.65290856 -1.05624235 30.0
-0.77261281 -0.28157532 -1.05174160 30.0
-1.23070085 -1.27380478 -0.04710822 30.0
-0.88791192 1.51958168 0.71593314 30.0
-1.45861661 -0.78909850 -0.59088361 30.0
0.72459435 -0.28432721 1.62282217 30.0
-1.43958616 1.33092916 0.21087664 30.0
1.47059345 0.15113257 0.06032446 30.0
-1.32769561 1.44075906 -0.73669547 30.0
0.75802386 -0.46694869 1.25969410 30.0
1.01446724 -0.94706619 0.56881887 30.0
-1.41113389 -1.22065401 -0.10224297 30.0
1.52072620 1.08819151 -0.30275998 30.0
-0.56326586 -0.34852386 1.51698530 30.0
0.08163633 0.83821416 -1.08744013 30.0
1.47916722 0.52940726 0.39740652 30.0
-0.59612721 -1.14777076 -1.05038369 30.0
-0.80333918 0.18121801 2.01665425 30.0
-1.43050134 0.23349465 -0.16472667 30.0
-1.51078510 -0.71141070 0.17997904 30.0
0.47947651 1.18744755 1.28487957 30.0
-0.82000995 0.23321921 -1.01443505 30.0
0.78391725 -0.98641247 -1.07793164 30.0
-1.48915112 1.04881883 -0.51174462 30.0
0.63336927 -0.94808143 0.59850740 30.0
-1.35046661 -1.08405113 -0.83108598 30.0
-1.46834350 1.12796664 -0.48186064 30.0
1.41328943 -1.24167156 -0.14580858 30.0
-1.36454952 0.31304452 -0.70649433 30.0
1.43262661 -0.82500231 -0.83009171 30.0
-0.80945247 0.34046850 2.00198960 30.0
1.28548217 -0.01195363 -0.96133059 30.0
0.64384812 -0.58549392 -1.03985858 30.0
1.50857246 0.52903843 -0.28890347 30.0
-0.86509943 1.08881330 -1.06508446 30.0
-0.74639404 0.41966075 1.99721181 30.0
-1.04713464 -0.67243570 -1.23224115 30.0
0.08056197 0.72804135 -1.08445013 30.0
-1.42559791 -1.16446280 -0.11187168 30.0
-1.40756476 -1.22664082 -0.11402765 30.0
-0.32253695 1.51687169 -0.90710986 30.0
1.42480850 -1.03361619 -0.65196127 30.0
-1.08973229 1.36334634 1.03030479 30.0
-0.66912830 -1.25536537 0.10705564 30.0
1.54285061 -0.63919735 0.32275131 30.0
0.63512778 -0.91217929 0.64061117 30.0
1.22898090 1.00767183 1.02179754 30.0
-0.50094414 1.56022084 0.71693403 30.0
0.77385741 -1.12435114 -1.03772688 30.0
1.49110234 1.24734414 0.00221831 30.0
-0.60415107 0.75112319 -1.03172159 30.0
1.47307944 0.78425223 -0.67055011 30.0
-0.40407541 -1.32723558 -0.00602692 30.0
-1.42802119 -1.08161867 -0.43958420 30.0
-0.61946446 -0.68561608 -1.03913713 30.0
1.42358518 -1.23288047 -0.15521780 30.0
-1.40495062 -1.23000181 -0.14655831 30.0
-0.39876112 -0.48134464 1.26542318 30.0
-0.31900644 -0.68949676 -1.06745160 30.0
0.21727255 -0.97265804 0.59436983 30.0
1.08258760 -0.65659606 -1.10050285 30.0
1.44882560 -0.82500231 -0.70605040 30.0
-0.58801049 -1.41700172 -0.98245698 30.0
-0.53685528 0.62411582 1.78213751 30.0
-1.49760389 0.58241731 -0.23868845 30.0
0.19385505 1.01378489 1.31037998 30.0
1.50740516 0.39039683 0.08746670 30.0
-1.42781675 1.17505896 -0.67247331 30.0
1.23968220 -1.29727817 -0.86820054 30.0
0.55654842 1.48452544 1.09595263 30.0
-1.45690000 0.46224004 -0.45145229 30.0
1.47124052 1.08743703 -0.63417643 30.0
0.95879775 -0.68981510 -1.13835895 30.0
-0.39487770 1.56700456 0.89035630 30.0
1.20996833 1.23299110 1.03486204 30.0
1.41154850 0.31306174 -0.59209806 30.0
1.53509319 -0.19082454 0.17511946 30.0
-1.21204579 -0.74398208 -1.77404487 30.0
1.54428554 -0.35025987 0.09500041 30.0
1.53235710 -0.71141070 0.17997904 30.0
0.71557552 1.10456562 -0.97635740 30.0
-1.43286037 -1.12563860 -0.05414177 30.0
-1.41295230 -1.21729481 -0.13959086 30.0
-0.40727112 -0.69176954 0.87941796 30.0
1.45330977 -0.67395037 -0.82639784 30.0
-1.39114428 -1.08191073 -0.65199405 30.0
1.53776586 -0.67279726 0.18992917 30.0
0.76539147 0.31565973 -1.02222264 30.0
1.53750765 -0.27673209 0.18114619 30.0
-1.41649389 0.94326967 -0.84593409 30.0
0.63083458 -0.71920007 0.85179240 30.0
1.36601162 1.08651948 -1.42677951 30.0
-1.04459059 0.69703001 -1.07377720 30.0
-0.06045265 -1.45687485 -0.66928989 30.0
1.44313419 -1.19267976 -0.10502595 30.0
-0.06065251 -0.70848942 -1.09036601 30.0
-0.89614481 -1.13213265 0.26988235 30.0
0.32403958 -0.64654487 0.92677480 30.0
1.44151926 -1.19312024 0.01914936 30.0
-1.51609945 1.04972589 -0.09827641 30.0
0.84316885 0.15020558 -1.01591480 30.0
-1.44870424 1.04856014 -0.69120777 30.0
-0.70780182 1.52857995 0.99073684 30.0
0.70648295 0.77619869 -1.02550030 30.0
0.89583749 1.52768886 -0.70653772 30.0
-0.19382998 -1.00428689 -1.12849927 30.0
-1.40808475 -1.22357106 -0.03532394 30.0
-1.46556950 1.08850110 0.39763173 30.0
1.38499987 0.38922870 -0.81520569 30.0
1.28676641 1.45252788 0.71516997 30.0
1.37320399 1.44173145 0.05820096 30.0
-0.79513842 1.00279284 1.26521003 30.0
-0.20211630 1.55316675 0.12872277 30.0
-0.80215079 1.15055597 1.25913858 30.0
0.21356890 -1.18716872 0.26641634 30.0
-0.79620045 1.51781821 0.02343615 30.0
-0.51382875 0.78695863 -1.04188943 30.0
-0.50394291 -1.16065633 -1.05944228 30.0
-1.40918458 -1.22147834 -0.20093769 30.0
-0.45367387 0.62852752 1.78662241 30.0
-0.31632486 0.94965959 -1.04801357 30.0
1.46437001 1.17549598 -0.62004322 30.0
-1.24587166 -0.32982883 1.32960141 30.0
1.52355206 -0.64010644 -0.39790696 30.0
0.94861430 -1.38392365 -0.61405951 30.0
0.74360311 1.53157735 0.93559480 30.0
0.34471270 1.55092847 0.35627079 30.0
-1.38683307 -1.16826165 -0.59349322 30.0
-0.42644945 1.57830513 -0.64011240 30.0
-0.92254096 -0.40349028 1.37790644 30.0
0.08208610 1.09854245 -1.03737664 30.0
-1.11588490 -1.07858479 0.32331795 30.0
-1.44042575 -1.03332365 -0.42919466 30.0
0.82086784 0.86790991 1.38800800 30.0
-0.95085496 -1.29510069 -0.01775440 30.0
1.44533873 -0.19196831 -0.70775187 30.0
-1.25566983 0.15243314 1.07113373 30.0
1.37365794 -1.23533022 0.03109613 30.0
0.95900637 1.23222589 1.16074181 30.0
-0.95085496 -1.29510069 -0.01775440 30.0
-1.40228713 -1.23249471 -0.21135186 30.0
-0.05300735 -0.13106449 1.88090336 30.0
0.07984345 -1.16746294 -1.10785055 30.0
1.55518293 -0.59643120 0.19335520 30.0
1.43743300 -1.21169341 -0.06858099 30.0
1.49212313 1.01222289 0.28009099 30.0
0.77606785 -1.18379164 0.21557848 30.0
1.19109106 0.88076234 1.01518345 30.0
0.88945645 -1.33417439 -0.09320644 30.0
-1.53304887 -0.48285168 0.28001517 30.0
-0.19755539 1.09553635 -1.02796674 30.0
1.03338683 -1.33246183 -0.12422261 30.0
1.48648274 0.94437104 0.21564677 30.0
-0.49665859 -1.42050171 -1.01846397 30.0
1.21867669 -1.20439970 0.15350161 30.0
0.21981549 -0.68868375 -1.07883215 30.0
0.80834848 1.54172564 -0.67478615 30.0
-0.17660639 -0.19348210 1.80362713 30.0
-0.77644348 -0.35621777 -1.04413605 30.0
-1.21644342 0.87859106 -1.81894207 30.0
-1.24573874 -1.24081516 0.05899601 30.0
-1.33676684 1.46081591 -0.57583088 30.0
1.31624806 -0.06962755 1.07362783 30.0
1.52333891 0.78516746 -0.00090925 30.0
0.69878328 0.74762541 1.59173930 30.0
1.35957551 1.12320697 -1.34421694 30.0
-1.38661408 -0.09960987 -0.84875649 30.0
0.41977504 0.23924494 -1.05590153 30.0
-1.41031122 -0.66969270 0.83619833 30.0
0.56228256 0.83134896 1.48901868 30.0
0.21896599 -0.85734296 0.73942709 30.0
0.93873155 0.73396200 -1.13509035 30.0
0.08252777 -0.65363157 -1.08703995 30.0
0.86540413 -0.12136312 1.83932507 30.0
1.50420976 0.88050270 -0.52938974 30.0
1.42980707 -1.22513437 -0.14649498 30.0
-0.49692938 -0.64364046 0.92592686 30.0
-0.80115753 0.66697896 1.68166673 30.0
-1.37867093 0.14998150 -0.59361804 30.0
1.42480850 -1.03361619 -0.65196127 30.0
1.43992651 1.17468500 -0.71664304 30.0
1.04798567 -1.28590667 -1.00307798 30.0
-1.37186170 1.24705648 0.71431971 30.0
-0.92615491 0.92949450 1.21869493 30.0
-0.59454739 -1.17315161 -1.04293406 30.0
0.07362384 -0.06463370 1.95782936 30.0
0.78257895 0.91043395 1.33661795 30.0
-1.35591269 -1.23652983 -0.65173894 30.0
-0.06019102 1.02193725 -1.05333698 30.0
0.42884329 -0.69176954 0.87941796 30.0
0.08324150 1.36698186 -0.95978403 30.0
-1.08219922 0.15469489 1.57681596 30.0
1.14299977 0.52966565 1.36926973 30.0
-0.77967525 -0.71122253 -1.03162205 30.0
-0.31255144 0.54857939 -1.06574142 30.0
0.19094776 0.43533388 2.02776718 30.0
1.39711928 -1.24032891 -0.01503515 30.0
-1.29317105 -0.31884792 1.19389474 30.0
1.38111627 -1.19650221 0.12852424 30.0
0.99332213 -1.15048146 0.24158940 30.0
-0.77730972 0.88719583 -1.02445185 30.0
1.26621091 -1.29878283 -0.60370404 30.0
0.54409403 0.05980430 2.04740644 30.0
1.50591457 -0.78792554 0.64628875 30.0
-0.79619730 1.51624429 0.13986914 30.0
0.72850591 1.52462864 0.36128929 30.0
-1.41323400 -1.21686924 -0.13365459 30.0
0.81584835 0.97055167 1.27457726 30.0
-0.28539070 -0.24580137 1.72526145 30.0
0.38556919 1.42524481 1.14385116 30.0
0.92967272 -1.00867021 0.48550221 30.0
1.45440650 -1.12569940 -0.08132201 30.0
1.22735286 1.47135842 0.36459854 30.0
-0.40269071 0.32281786 -1.05590153 30.0
-1.42602432 -0.27777624 -0.71087563 30.0
-1.47024667 0.39000216 -0.20851989 30.0
-1.43351352 1.08741879 -0.69033700 30.0
0.34152937 -0.65323257 -1.06608343 30.0
0.07311387 1.29814887 1.25080144 30.0
0.45310721 1.55045640 0.01561565 30.0
-0.46100864 1.54109406 1.04897583 30.0
-0.86501157 -1.39179504 -0.61731166 30.0
-1.48712707 -0.01078390 0.41914627 30.0
1.48039877 0.31416017 -0.03463379 30.0
-1.43055081 0.52828240 -0.59446007 30.0
0.89583749 1.53441036 -0.66426331 30.0
-1.51584303 1.01229680 -0.14966153 30.0
0.83423960 1.37249160 1.12511230 30.0
0.53714412 -0.99295247 0.54415268 30.0
1.42917311 1.39932108 0.04713256 30.0
0.53232026 0.75654876 -1.04071832 30.0
0.77385741 -1.12435114 -1.03772688 30.0
1.42619526 0.84112912 -1.09052110 30.0
-0.16885233 0.00029758 2.02429247 30.0
0.88732451 0.88094336 -1.12223864 30.0
-0.61074883 1.17066205 1.27612126 30.0
-1.41729558 0.84107977 0.35067156 30.0
-1.36598420 1.40011537 0.61855710 30.0
-1.40440547 0.52827430 -0.70648736 30.0
-1.37164152 -0.94025600 -1.07706833 30.0
-1.12072468 0.58260679 1.30707681 30.0
1.47323442 0.84015292 -0.67961556 30.0
0.77043629 -1.24618208 0.11643180 30.0
-0.51938921 0.94104183 -1.02885640 30.0
1.10670149 0.08443218 1.57691491 30.0
-1.48862493 -0.85955071 0.11406585 30.0
1.04935336 1.14632642 -1.39005256 30.0
0.28830427 0.11810610 2.07227015 30.0
-1.52489030 -0.59384245 0.56887925 30.0
0.44319725 1.04914594 -1.01461267 30.0
-0.89303976 -1.38413346 -0.92105037 30.0
0.61920387 -1.12239802 -1.05822337 30.0
0.87585992 -0.90188324 -1.18057239 30.0
0.54413193 -0.42727289 -1.06155765 30.0
-0.61088538 0.95627540 1.30895972 30.0
0.08008727 0.40557513 -1.08669543 30.0
-0.68995845 1.53172684 0.57936972 30.0
0.20117664 -0.35719281 1.52795887 30.0
-0.41382623 -1.08481133 0.40873101 30.0
-0.92807716 0.94326967 -1.47417450 30.0
-0.45800731 0.96978605 1.31754577 30.0
-1.48263764 0.88050270 -0.52938974 30.0
0.39409655 1.54739749 1.05046201 30.0
-0.54345369 0.92958122 1.34857142 30.0
1.23271954 1.12696874 1.04611981 30.0
-0.69169253 1.13847303 -0.97413522 30.0
0.60852396 -1.39299107 -1.02720511 30.0
0.64624780 -0.18616650 1.78621745 30.0
0.32937375 -1.22350621 0.19746664 30.0
0.21896599 -0.85734296 0.73942709 30.0
1.35845292 -0.29448915 1.05700076 30.0
0.62772912 0.59454679 -1.03744435 30.0
-1.52254188 -0.48145545 0.50755268 30.0
-0.51861548 0.82579857 -1.04719412 30.0
-0.53312808 1.40772712 1.13844848 30.0
-0.68479490 -1.02439904 0.48084611 30.0
1.40192258 0.58153063 -0.81518960 30.0
1.05970907 1.01113081 -1.81252146 30.0
0.81724113 1.11328149 1.27178919 30.0
0.82246041 -1.36451745 -0.15922830 30.0
-0.05875276 -1.09165204 -1.12482274 30.0
-1.13537359 -1.32681549 -0.19959578 30.0
1.42911863 1.01113081 -1.11237347 30.0
-0.86354351 0.97847593 -1.10933506 30.0
0.43539843 -1.08481133 0.40873101 30.0
1.25373876 -0.28691056 1.35911870 30.0
-0.51956552 0.11722931 2.05882668 30.0
-0.30915093 -1.17934048 0.26792452 30.0
0.55521357 1.54429138 0.01780804 30.0
0.64217800 -0.49762648 -1.04589427 30.0
1.42652273 -1.23000181 -0.14655831 30.0
-1.19311249 -0.17651097 1.44206345 30.0
-1.27878952 -1.28497446 -0.18335529 30.0
0.30048054 -0.06387104 1.94883299 30.0
1.53559959 -0.35071009 0.43264237 30.0
-0.54283494 -0.06154681 1.93668449 30.0
-1.19128072 0.08000281 1.28724146 30.0
1.41296232 1.23426867 -0.79727685 30.0
-0.84861743 -0.97548902 -1.16628695 30.0
-1.10653853 -1.29750061 -0.06536574 30.0
1.41032422 -0.19196831 -0.85796273 30.0
0.89074409 -0.41618147 -1.02894318 30.0
0.21471998 -1.04385555 -1.12413096 30.0
1.04471040 -0.88086098 -1.85774314 30.0
-0.57460934 -0.41513097 1.39003634 30.0
-0.54196477 0.96267188 1.31283045 30.0
1.53928316 0.88141084 -0.32969856 30.0
0.71651739 -0.73832262 -1.03579438 30.0
0.39173862 1.04047060 1.28996313 30.0
-1.50527203 -0.75052238 0.29269189 30.0
-0.31492096 -0.88331819 -1.10023510 30.0
0.64533597 1.56473005 -0.62079769 30.0
1.38755620 1.40011537 0.61855710 30.0
-0.79511613 0.81210005 1.47435403 30.0
-1.23263824 0.52887428 1.07914424 30.0
-1.52635550 -0.61322302 0.32372150 30.0
-0.61255991 0.92342252 1.34472656 30.0
1.46856809 0.15108003 0.01227433 30.0
0.69782048 0.67343670 1.69664907 30.0
-1.08219922 0.15469489 1.57681596 30.0
0.84827542 0.60799152 1.73484957 30.0
-0.92184997 1.16718507 -1.10995948 30.0
0.32937375 -1.22350621 0.19746664 30.0
-0.19534139 1.21987653 -0.98396611 30.0
0.62496245 1.32187951 1.18020344 30.0
-1.26877439 0.46198091 -0.94338846 30.0
1.03674161 -0.95423913 -1.77541029 30.0
0.87688690 -0.06030917 1.89054894 30.0
-1.45847058 -0.67396581 -0.65193850 30.0
0.68371344 -1.39898014 -1.01184928 30.0
-1.20732260 -1.31105053 -0.35009363 30.0
0.65271413 1.53356779 0.13677838 30.0
0.67747432 0.11656345 2.05159497 30.0
-0.40269071 0.32281786 -1.05590153 30.0
-0.94838083 -1.36979771 -0.20022666 30.0
0.07914133 -1.26873088 -1.08781314 30.0
-1.49343348 0.52942777 0.18483961 30.0
-0.74023569 -0.51812273 1.13094151 30.0
0.82508403 -1.38819194 -0.23053664 30.0
-0.62128139 -0.65111637 -1.03778291 30.0
-0.31759250 1.05287731 -1.02430439 30.0
0.89617354 1.51279521 -0.77465296 30.0
-1.33738136 -1.17116451 -0.81520224 30.0
0.39805922 -0.12916413 1.86849999 30.0
0.71651739 -0.73832262 -1.03579438 30.0
-0.53335601 1.54668105 -0.02860627 30.0
0.45310721 1.55045640 0.01561565 30.0
1.41296232 1.23426867 -0.79727685 30.0
-0.28539070 -0.24580137 1.72526145 30.0
-0.63215083 1.53751934 0.99173772 30.0
0.78529578 0.64300841 -1.02210379 30.0
0.08099571 0.79874289 -1.08205724 30.0
1.52280736 0.46314898 -0.08292440 30.0
1.48072457 0.58156103 -0.47800106 30.0
0.30067092 1.15956211 1.30206192 30.0
1.29095638 0.97461832 0.89731228 30.0
-1.50799549 1.04933226 -0.34489304 30.0
0.32617524 0.06881718 -1.07348669 30.0
0.34936169 -1.44171917 -0.32918623 30.0
0.65372300 1.53751934 0.99173772 30.0
0.44116527 1.16133332 -0.99371815 30.0
-1.06031060 1.45996034 -0.84030098 30.0
-1.04689753 0.06889229 -1.01041090 30.0
-0.67721117 0.74762541 1.59173930 30.0
1.43270600 -1.22065401 -0.10224297 30.0
0.99044079 0.32055697 1.82582998 30.0
-1.46139717 1.24737465 0.38188842 30.0
1.01896286 0.64511025 1.48962116 30.0
0.91030735 -1.34728754 -1.01014316 30.0
1.35097599 -1.03124499 -1.04232883 30.0
-0.78421050 1.37519670 1.12998927 30.0
0.33913493 -0.76339883 -1.07156801 30.0
-1.04106498 -0.40679991 1.35615635 30.0
0.44810554 1.54935682 -0.82708097 30.0
-0.17282836 -0.06428499 1.95371616 30.0
-1.40274799 -1.23254800 -0.05433653 30.0
-0.86846107 -0.70737576 -1.07321131 30.0
0.51215452 1.56314480 0.84747416 30.0
1.34223521 -0.94474381 -1.43164325 30.0
1.47371113 0.31421018 0.34454450 30.0
1.52213848 -0.75091714 -0.10827227 30.0
-1.51928401 0.84127140 -0.21965855 30.0
-1.24137449 0.06889229 -0.95110029 30.0
-1.16210043 -0.73178905 0.81060284 30.0
-0.40148830 -1.43012321 -1.02226806 30.0
0.57679522 -0.24027684 1.71562660 30.0
1.43188334 -0.66969270 0.83619833 30.0
1.44717002 -1.16446280 -0.11187168 30.0
-1.30625629 -0.75048435 0.78399497 30.0
-1.44870424 1.04856014 -0.69120777 30.0
-0.30679467 -1.17903340 -1.07881510 30.0
-0.05923894 0.60744697 -1.08669543 30.0
-1.22172713 0.23272112 -0.94338846 30.0
-1.05919933 0.38922870 -1.00307798 30.0
-0.50333261 -1.42707396 -0.85636735 30.0
0.77898115 0.81439531 1.47725797 30.0
0.84682685 -1.29735231 -0.00570491 30.0
1.42385924 -1.23249471 -0.21135186 30.0
-1.48307645 0.94352853 -0.52605456 30.0
-1.30239618 0.15179375 0.91051233 30.0
1.14242387 0.46350032 1.44512081 30.0
0.47606534 0.50547320 1.94426930 30.0
0.94860327 0.52832347 -1.01015067 30.0
0.08007164 -1.13205564 -1.11564958 30.0
-0.77906710 1.05916059 -0.98460662 30.0
-1.40257573 0.23388174 0.58496159 30.0
0.79981798 -1.40031135 -0.62304074 30.0
1.21805835 -1.07617068 -1.07444704 30.0
-1.00146508 -1.36771071 -0.48551130 30.0
0.08264065 -0.58956301 -1.08925378 30.0
-1.21282911 0.97567338 -1.87773073 30.0
1.51207554 0.58246386 0.13087952 30.0
-0.42261487 1.28198433 -0.95178956 30.0
-1.15417409 1.43831670 0.93773234 30.0
-0.99438059 -1.26697862 0.04260450 30.0
1.36923277 0.94326967 -1.55229723 30.0
0.77237833 0.66882408 1.69274437 30.0
-1.51078510 -0.71141070 0.17997904 30.0
0.21504115 -1.40357864 -0.14492744 30.0
-0.62621140 1.49872923 -0.87736630 30.0
0.08057772 -1.05003524 -1.13387454 30.0
0.29653800 1.35356832 1.19387138 30.0
-1.49558067 -0.01078512 0.08353874 30.0
1.45500100 -0.35133576 -0.70334613 30.0
0.53315073 0.65619886 -1.04625893 30.0
0.61059034 0.05989304 2.04398561 30.0
1.36871064 -0.75736099 -1.52492058 30.0
-1.41006315 -1.22223341 -0.13349368 30.0
-0.19166903 -1.12563944 -1.10596895 30.0
0.87632829 -0.70582181 0.85187829 30.0
-0.40181369 -1.43608189 -0.98684514 30.0
-1.29951406 1.33162165 0.81169379 30.0
-1.36454952 0.31304452 -0.70649433 30.0
-1.48548567 0.46275428 -0.24539831 30.0
-0.65412468 0.18457352 2.05584836 30.0
1.46725941 0.23388943 0.03892117 30.0
0.77973598 1.15390110 1.26779413 30.0
1.54349673 -0.61376578 -0.07486976 30.0
-1.44266033 -0.78911585 -0.65193784 30.0
0.85807627 1.51466095 0.98857319 30.0
1.06300807 -1.27472603 0.01643030 30.0
0.71673971 -0.83239728 0.74183381 30.0
1.45440650 -1.12569940 -0.08132201 30.0
1.36378729 -0.79462618 -1.54654968 30.0
-1.08339477 0.97908783 1.11007988 30.0
0.19273768 0.51136571 1.95931017 30.0
-0.87460142 1.51279521 -0.77465296 30.0
1.07592607 -1.27900350 0.00237190 30.0
0.89583749 1.53441036 -0.66426331 30.0
-0.93114936 -0.75541049 -1.37931311 30.0
-0.83457696 0.96839720 1.24413967 30.0
0.53132588 -0.01482493 -1.06407583 30.0
0.21473667 0.76578653 -1.07130849 30.0
-1.38495266 0.64396465 -0.82983971 30.0
1.45089960 -1.12621546 -0.24463949 30.0
1.39064753 -1.22928536 0.04030247 30.0
-1.08589268 -0.35141259 -1.02440262 30.0
0.71728742 1.06676459 -0.98173308 30.0
-0.05912242 0.66585767 -1.08649123 30.0
-0.50394291 -1.16065633 -1.05944228 30.0
-0.17116553 0.51136571 1.95931017 30.0
0.32754019 -1.20486879 -1.07128811 30.0
1.02303720 -1.36771071 -0.48551130 30.0
-0.75029218 -1.14935708 -1.02875042 30.0
-1.43650985 -0.64029187 -0.82433951 30.0
0.19385505 1.01378489 1.31037998 30.0
-0.68491071 0.77619869 -1.02550030 30.0
0.79221439 1.17909563 -0.96989447 30.0
-1.36342776 0.38922870 -0.81520569 30.0
0.88374102 -0.79045516 -1.14301825 30.0
1.53301799 0.91377449 -0.35622922 30.0
-0.26827908 0.05965290 2.06048679 30.0
-0.19282325 -1.45014441 -0.79601490 30.0
0.88798845 -0.74002945 0.82763976 30.0
-0.87706929 -1.38955581 -0.48960304 30.0
0.33137381 -1.07787371 -1.10358047 30.0
1.47787535 0.88026106 -0.62678075 30.0
0.80124736 -0.71122253 -1.03162205 30.0
-0.76396805 1.50533259 1.04393470 30.0
1.42597747 0.52827430 -0.70648736 30.0
-0.41810718 -0.87663740 -1.09027171 30.0
-0.87345833 -0.46165824 1.25709319 30.0
0.61611956 -1.17315161 -1.04293406 30.0
1.21285272 0.08000281 1.28724146 30.0
0.55218172 1.34666157 -0.92899603 30.0
-0.75080621 0.66882408 1.69274437 30.0
-0.82000995 0.23321921 -1.01443505 30.0
-0.19661178 1.01915228 -1.04387176 30.0
-1.53761315 -0.55913365 0.18895243 30.0
0.87629044 -1.39251304 -0.70551848 30.0
1.45931017 -0.75169003 -0.70605040 30.0
0.55939353 0.50203609 1.93984580 30.0
-0.97821766 1.51080966 0.71243352 30.0
0.44301513 0.87170953 -1.05590689 30.0
1.41802299 1.33123648 0.61909407 30.0
0.84481227 -0.51411569 1.13007402 30.0
-0.06087893 -0.50500417 -1.09564972 30.0
-0.28633052 -0.29603413 1.63645065 30.0
0.60815340 -0.52595484 1.13263690 30.0
0.63977098 1.26505542 -0.94243604 30.0
1.22042179 -1.21863532 0.12214938 30.0
0.96955055 -0.48976329 -1.01830566 30.0
-0.19708183 0.91725570 -1.06862020 30.0
-1.03924978 0.87844235 -1.79121149 30.0
-0.47607294 -0.35179648 1.51947904 30.0
-0.27562985 0.77009958 1.61377788 30.0
-0.51746541 1.18309653 -0.98132139 30.0
0.07457950 -0.13106449 1.88090336 30.0
-0.76941007 -0.97685128 0.54948884 30.0
1.41491067 -1.03358638 -0.70616728 30.0
-0.94016850 1.50187540 0.36358520 30.0
0.90948403 1.51958168 0.71593314 30.0
-1.14988112 -0.84312361 0.69582826 30.0
0.93798161 0.38922870 -1.01014316 30.0
0.34651434 1.55550206 -0.03359133 30.0
1.49684453 -0.93941879 0.17203444 30.0
-1.41769314 0.31330371 -0.43059951 30.0
-1.42663074 -0.71257836 -0.82815361 30.0
0.21328688 0.40456772 -1.07711482 30.0
0.44004467 -0.29190511 -1.08673620 30.0
-0.51244980 -0.98048323 -1.09727418 30.0
0.82167339 1.29834032 1.16717303 30.0
-0.73999846 -1.31135106 -1.02116692 30.0
-0.40992329 0.40208420 -1.05590153 30.0
0.07311387 1.29814887 1.25080144 30.0
0.08184180 -0.90336162 0.69098371 30.0
-1.50281584 -0.09843918 0.41147462 30.0
-0.92184997 1.16718507 -1.10995948 30.0
0.21840879 -0.80748612 -1.08919573 30.0
-1.44905674 -0.48402247 -0.72861928 30.0
0.65782160 -1.41158831 -0.29109970 30.0
1.53601003 -0.59686655 -0.39155662 30.0
1.49417841 1.01114810 -0.63312209 30.0
-0.17228289 1.01378489 1.31037998 30.0
0.33600008 1.21588111 -0.98032594 30.0
0.08145127 -0.97863185 0.59474349 30.0
-1.40756845 1.08739710 -0.84569877 30.0
0.86297047 1.29652369 1.15163338 30.0
1.25469446 1.45536065 0.78823251 30.0
-0.63484240 -0.34557402 1.51493800 30.0
-0.18447280 1.57127297 0.89226055 30.0
-1.35965967 -1.26076758 -0.33761811 30.0
0.44794524 1.56212521 -0.76176488 30.0
-1.10084629 1.49055314 0.83489621 30.0
0.81671059 1.00279284 1.26521003 30.0
1.40177870 -0.37895671 0.95116746 30.0
0.82042235 0.41858611 1.98585069 30.0
0.68305385 -1.38166034 -1.02270484 30.0
-1.41189110 -0.98066258 0.47100738 30.0
-0.46010435 1.10963178 1.29078269 30.0
-1.41664159 -1.20959651 -0.10009769 30.0
0.63643765 1.52331948 1.04639173 30.0
-0.27562985 0.77009958 1.61377788 30.0
-0.68681437 -1.40927124 -0.71418035 30.0
0.63643765 1.52331948 1.04639173 30.0
0.85945398 -1.17605996 0.21963133 30.0
-0.79144830 1.51573718 0.36238855 30.0
-0.83457696 0.96839720 1.24413967 30.0
1.54885125 -0.41168359 0.07371409 30.0
0.49234712 -0.29252225 1.63041246 30.0
0.89583749 1.52768886 -0.70653772 30.0
1.09751284 1.29315877 1.07227397 30.0
0.44362983 1.08808959 -1.00713098 30.0
-0.19624113 0.83595902 -1.07785714 30.0
-0.62579674 -0.23803268 1.71310663 30.0
-0.05705910 -1.43854356 -1.05715239 30.0
1.47920597 -1.03245819 -0.02965328 30.0
-0.86032963 0.25172439 1.97307920 30.0
-0.19436924 0.79660159 -1.07249296 30.0
-0.54443747 1.10141015 1.28595126 30.0
1.02885509 -0.80390805 0.75907463 30.0
-0.53363925 1.54268086 0.13494761 30.0
-1.53304887 -0.48285168 0.28001517 30.0
-0.82614326 -1.28459787 0.02328375 30.0
0.33744797 -0.84247053 -1.08885264 30.0
-0.80333918 0.18121801 2.01665425 30.0
-0.19282325 -1.45014441 -0.79601490 30.0
0.91030735 -1.34728754 -1.01014316 30.0
-1.15417409 1.43831670 0.93773234 30.0
-0.80672932 0.11393625 2.01260066 30.0
-0.31587583 -0.84247053 -1.08885264 30.0
-1.50394058 0.91381425 -0.00711015 30.0
0.07984345 -1.16746294 -1.10785055 30.0
-0.31591448 -0.92825961 0.63662958 30.0
-0.50361711 -1.24643326 0.13927953 30.0
-0.31499434 -0.96556634 0.59392649 30.0
-0.43554002 -1.43192112 -0.30522370 30.0
0.52417523 -1.18623996 -1.05196798 30.0
-0.88926852 -1.28704095 -1.01015067 30.0
-1.40323639 -1.03361619 -0.65196127 30.0
0.96547711 -0.41403905 -1.02455652 30.0
1.37748480 -1.23652983 -0.65173894 30.0
-0.41222635 -1.43495953 -0.78726810 30.0
-0.42644945 1.57830513 -0.64011240 30.0
-0.37068552 -0.06340075 1.94460857 30.0
-1.30051374 0.23381948 0.89019364 30.0
-0.17116553 0.51136571 1.95931017 30.0
0.55954313 -1.42327189 -0.31147656 30.0
-1.35344887 0.14996423 -0.70845032 30.0
1.41720474 -1.21833801 -0.46549377 30.0
-0.57460934 -0.41513097 1.39003634 30.0
-0.16467299 0.27176344 2.08386254 30.0
1.45862281 0.23388785 0.37239489 30.0
1.36146343 1.46272087 -0.40052468 30.0
0.07828129 0.15410464 -1.08827269 30.0
0.63246161 -0.19883925 -1.06957757 30.0
-0.50975376 -0.01482493 -1.06407583 30.0
0.80834848 1.53502035 -0.71734226 30.0
0.79779363 -0.86812502 0.69580823 30.0
0.72433120 1.54238284 -0.72819275 30.0
0.62496245 1.32187951 1.18020344 30.0
0.76717329 -1.31094837 -0.02331344 30.0
0.70740342 0.91691440 1.34066367 30.0
-1.40901899 -1.22429371 -0.08192271 30.0
-1.50169003 1.08856809 0.18506505 30.0
1.47920597 -1.03245819 -0.02965328 30.0
-1.48036122 -0.35100222 0.64581156 30.0
-0.89175707 -0.12351610 1.81131601 30.0
0.19094776 0.43533388 2.02776718 30.0
-1.49529636 -0.09883620 -0.16049698 30.0
-0.59144574 -1.22125709 -1.03854239 30.0
0.78659093 0.58682942 -1.02222264 30.0
1.53927517 0.88141072 -0.22030100 30.0
-1.40912008 1.08828270 0.55568141 30.0
0.39409655 1.54739749 1.05046201 30.0
-0.40073404 -1.39563584 -1.04635262 30.0
0.63538563 1.14618766 -0.97974020 30.0
1.48520684 -0.98503155 -0.17025444 30.0
-0.06122480 1.56762099 -0.79272562 30.0
1.47569573 -1.03278852 -0.19345070 30.0
-0.31377983 -1.44218063 -0.73399097 30.0
-0.31960368 -0.50174999 -1.07448113 30.0
1.21208167 1.14636886 -1.41207623 30.0
-0.40501556 -1.36105895 -0.07973251 30.0
-1.48862493 -0.85955071 0.11406585 30.0
0.07813682 1.57640982 0.79871863 30.0
1.02546978 -0.84304190 0.71243685 30.0
-1.22308850 -1.23171091 -0.94338846 30.0
-0.28633052 -0.29603413 1.63645065 30.0
-0.58673680 -0.58218157 1.01024008 30.0
1.31324935 -0.85120976 0.66547036 30.0
1.45330977 -0.67395037 -0.82639784 30.0
0.64819020 -1.41577661 -0.49766007 30.0
1.52956760 1.04933226 -0.34489304 30.0
-0.58358043 -0.47433499 1.26228333 30.0
-0.85531479 -0.06030917 1.89054894 30.0
1.28810167 0.58324754 -0.94362712 30.0
-1.07889080 -0.19196831 -1.03397512 30.0
-0.76098728 -1.40138423 -0.77338165 30.0
-1.41021991 -1.22195196 -0.14394337 30.0
1.42880940 -1.22663724 -0.15355110 30.0
0.63681000 -0.87543786 0.68616724 30.0
1.48714852 1.17621207 -0.46295157 30.0
-0.30497900 -1.36955941 -0.08318011 30.0
1.03220379 -0.99384069 -1.67689025 30.0
-1.21308088 1.47181273 0.14512160 30.0
0.84361368 -0.05815680 1.91592491 30.0
-0.92703128 0.52832347 -1.01015067 30.0
-0.41932717 0.83037668 -1.05663812 30.0
-1.47471833 -0.93946832 -0.00551945 30.0
1.10618377 -0.62947601 -1.02318978 30.0
1.18367255 -0.73178905 0.81060284 30.0
1.21854007 -1.23723042 0.07840504 30.0
-0.50333261 -1.42707396 -0.85636735 30.0
-1.51079357 0.78517663 -0.21359769 30.0
-0.39895967 0.15314002 -1.05743718 30.0
-1.39760244 -0.78458440 0.74418199 30.0
-1.45630324 0.88026106 -0.62678075 30.0
-0.66795588 -1.32457042 -0.04090613 30.0
-0.85285169 0.46319008 -1.01443505 30.0
-0.19166903 -1.12563944 -1.10596895 30.0
0.42564759 -1.32723558 -0.00602692 30.0
0.07343717 1.01655424 1.31541991 30.0
0.82086784 0.86790991 1.38800800 30.0
-0.82988238 -0.28051394 1.61785936 30.0
0.90214545 1.30877519 -0.90387934 30.0
-0.77799058 0.84893626 -1.03162956 30.0
-0.74507242 -1.30357063 -0.00651678 30.0
-0.94657290 -1.37381172 -0.22681798 30.0
0.21257445 -1.16094458 -1.09819674 30.0
-1.48800576 0.63948625 0.08088837 30.0
-0.40181369 -1.43608189 -0.98684514 30.0
-0.77220637 0.06011749 2.03397703 30.0
-1.33661401 1.44867110 -0.67893785 30.0
-0.53685528 0.62411582 1.78213751 30.0
0.42265636 -1.41635990 -1.03842795 30.0
0.42897859 -1.17124009 -1.06892848 30.0
-0.19582973 -0.29444262 -1.10877836 30.0
0.78917021 0.11608652 2.04504490 30.0
1.08077145 0.38922870 -1.00307798 30.0
0.53402144 0.59872240 -1.04646003 30.0
1.38950241 -0.16991474 0.91185504 30.0
-0.41445994 0.47777969 -1.05590153 30.0
0.62671095 0.62015116 1.77845573 30.0
-0.60802615 -0.93247670 -1.08643401 30.0
-1.44266033 -0.78911585 -0.65193784 30.0
0.51730239 -1.38440049 -1.03893340 30.0
-0.06060573 1.29458606 -0.96739489 30.0
0.07869782 -1.45145786 -1.03467560 30.0
1.33510351 0.94341147 0.73946470 30.0
0.38508436 0.43262926 2.01742601 30.0
1.23585510 0.80003816 -1.61135960 30.0
1.48553813 -0.89855856 -0.41918081 30.0
1.50717890 -0.41206908 0.68021971 30.0
-0.91640961 0.38922870 -1.01014316 30.0
1.47486281 -0.82498503 -0.59116417 30.0
-0.85471839 -1.39251304 -0.70551848 30.0
0.64534134 -1.37656260 -0.15645511 30.0
1.51329696 1.17732203 -0.01290551 30.0
0.89583749 1.53441036 -0.66426331 30.0
0.55306685 1.56015098 -0.17857626 30.0
-0.05705910 -1.43854356 -1.05715239 30.0
0.07567119 1.56695175 0.99898803 30.0
-0.30659366 -1.26341629 0.12983549 30.0
1.07828891 -1.34950590 -0.23095970 30.0
-0.20174366 1.44906390 -0.94680852 30.0
-0.61255991 0.92342252 1.34472656 30.0
-0.41685447 -0.99909818 0.54258686 30.0
-1.51078510 -0.71141070 0.17997904 30.0
-0.63484240 -0.34557402 1.51493800 30.0
0.22521687 -1.43317389 -0.24050717 30.0
0.49082389 -0.24276526 1.71869636 30.0
-0.41431746 0.60192788 -1.05590153 30.0
-1.50197983 -0.64010644 -0.39790696 30.0
-1.34653425 1.45252895 -0.14150596 30.0
-0.77730972 0.88719583 -1.02445185 30.0
-0.20086364 1.55260301 0.35467196 30.0
-0.80010134 1.29834032 1.16717303 30.0
0.91539854 -1.37176836 -0.19449028 30.0
0.89583749 1.52768886 -0.70653772 30.0
0.38508436 0.43262926 2.01742601 30.0
0.08351944 1.45198238 -0.95546776 30.0
-1.28759968 -0.35133576 -0.96894020 30.0
1.36946690 -1.01609480 0.41402364 30.0
-0.40714175 -1.25575328 0.13254760 30.0
-0.87560380 1.36683488 1.10960603 30.0
1.15844488 1.48803985 0.70852017 30.0
-0.60410082 -1.00776374 -1.08378494 30.0
1.32471001 -1.24632597 0.01781101 30.0
-0.45367387 0.62852752 1.78662241 30.0
-0.16511080 0.11831918 2.07767391 30.0
-0.58785754 -0.63982546 0.92553025 30.0
-0.69708830 -0.70046675 -1.03363895 30.0
0.34277037 1.57117939 -0.72816521 30.0
-1.22792351 -1.29807782 -0.78882051 30.0
-1.53455949 -0.48361126 0.15987748 30.0
-0.67099172 -1.41019332 -0.85230672 30.0
0.78781682 0.53321683 -1.02222264 30.0
1.04471040 -0.88086098 -1.85774314 30.0
-0.43781534 0.18717563 2.06753683 30.0
-0.06026797 -0.81260216 -1.09881818 30.0
-0.76386547 -1.06190276 0.40622711 30.0
-0.06156134 -1.45711219 -0.54034197 30.0
-1.51556396 -0.67284977 0.11753780 30.0
0.08150512 1.56118035 0.57602406 30.0
0.34910053 -1.42448318 -0.23947519 30.0
1.39920402 -0.88985866 0.60416853 30.0
0.56546605 0.88861066 1.40275836 30.0
1.43059099 -1.22429371 -0.08192271 30.0
-0.60339028 1.32187951 1.18020344 30.0
1.51686847 -0.09883620 -0.16049698 30.0
-0.90810072 -1.00867021 0.48550221 30.0
-0.17960449 -0.35719281 1.52795887 30.0
-0.61227322 1.13269258 1.28288901 30.0
-1.23874938 0.70593899 -1.06452262 30.0
0.84771538 -1.28459787 0.02328375 30.0
-1.40754652 1.01113081 -1.11237347 30.0
-0.87081158 -0.67726010 -1.02953565 30.0
1.45795500 1.24285698 -0.60498881 30.0
1.52684402 -0.75052238 0.29269189 30.0
0.63504869 0.96593088 -1.01240456 30.0
0.63364363 1.17429304 -0.97688329 30.0
-0.94204164 1.18240511 1.18658841 30.0
-1.36311042 0.14996423 -0.65411299 30.0
-0.81378752 1.52752352 0.84509212 30.0
0.77829188 -1.06529891 -1.05721390 30.0
0.34536594 1.56897354 -0.18613689 30.0
0.07311387 1.29814887 1.25080144 30.0
-0.79481888 1.40646803 -0.89378721 30.0
-1.34616756 -1.26230812 -0.59540862 30.0
1.09212184 0.52867424 -1.00313091 30.0
0.91054535 0.65628809 1.61040008 30.0
0.87847698 -0.86588544 -1.17471528 30.0
0.84481227 -0.51411569 1.13007402 30.0
-0.76941007 -0.97685128 0.54948884 30.0
0.21782956 0.98519379 -1.05171001 30.0
0.08168013 1.17252958 -1.01703894 30.0
-0.27641472 0.57883453 1.86949003 30.0
0.08201484 1.05920362 -1.04494250 30.0
1.54085612 0.84127140 -0.21965855 30.0
1.42385924 -1.23249471 -0.21135186 30.0
-0.99041772 -1.36547768 -0.23352379 30.0
0.07276867 1.36180222 1.20189416 30.0
-0.51711386 -0.86782390 -1.08071184 30.0
1.25373876 -0.28691056 1.35911870 30.0
-0.87706929 -1.38955581 -0.48960304 30.0
-0.83481652 -1.13718355 -1.03163517 30.0
0.33256555 0.76335025 -1.05995905 30.0
1.45089960 -1.12621546 -0.24463949 30.0
-1.51619375 -0.67279726 0.18992917 30.0
0.88679719 0.10527924 1.96774483 30.0
-0.42107382 0.91108942 -1.04747200 30.0
1.50464857 0.94352853 -0.52605456 30.0
1.55613160 -0.48361126 0.15987748 30.0
0.21467401 0.72610396 -1.07487726 30.0
-1.41031122 -0.66969270 0.83619833 30.0
0.88436151 -0.86438364 0.70006716 30.0
-1.14409375 0.78484827 1.10089016 30.0
-1.49942803 0.71313423 -0.30140144 30.0
-1.44901395 0.15113257 0.17507532 30.0
-1.36342776 0.38922870 -0.81520569 30.0
-0.40714175 -1.25575328 0.13254760 30.0
0.90635592 1.50738120 0.14145054 30.0
0.20117664 -0.35719281 1.52795887 30.0
1.52676177 -0.19085817 0.39710605 30.0
-1.42617762 1.12770295 -0.68395072 30.0
-1.46946084 -0.67213333 0.80002111 30.0
-0.76939845 -0.10147466 -1.04867077 30.0
-1.06101549 -0.65659606 -1.10050285 30.0
0.08232154 -0.68799889 -1.08841872 30.0
1.42917311 1.39932108 0.04713256 30.0
1.46100104 0.63834226 -0.59651679 30.0
-1.27609134 -0.93042880 0.55197018 30.0
-1.48434246 -0.78792554 0.64628875 30.0
0.21794127 1.16931021 -1.00978351 30.0
1.53928316 0.88141084 -0.32969856 30.0
0.34669039 1.55310881 0.01333064 30.0
0.28761351 0.27102354 2.07835627 30.0
1.43743300 -1.21169341 -0.06858099 30.0
1.23968220 -1.29727817 -0.86820054 30.0
-1.51053059 1.01190305 -0.37669387 30.0
-1.21582270 1.04856014 -1.78292263 30.0
-0.40108418 -1.41635990 -1.03842795 30.0
-0.87426537 1.52768886 -0.70653772 30.0
-1.46725309 -0.98469549 0.04469733 30.0
1.53539383 -0.27666011 0.01284870 30.0
1.43057621 -0.67378074 -1.07311928 30.0
-0.31396902 -0.92240512 -1.10927176 30.0
-1.49107230 0.97593224 -0.52406240 30.0
-1.38875711 -0.82500231 -1.11379409 30.0
1.45669806 1.33165312 -0.12578204 30.0
0.60796535 -1.33702576 -1.03491461 30.0
1.00601387 0.39657515 1.78450775 30.0
1.49689424 -0.82474345 -0.41659167 30.0
0.56600958 1.10141015 1.28595126 30.0
0.66917241 -0.41183317 1.38836086 30.0
0.75568366 0.34344897 2.03801084 30.0
-0.51865709 0.97307110 -1.02133739 30.0
-0.66630173 -1.29286253 0.02973343 30.0
0.63322908 -0.85725737 -1.07158303 30.0
-0.89928931 -1.10514677 -1.13480151 30.0
0.44166940 1.01225412 -1.02291381 30.0
-0.41757834 -0.20262571 -1.08876550 30.0
1.52551270 0.91381425 -0.00711015 30.0
1.46433854 0.94326967 -0.68104541 30.0
-1.40113711 -1.23485708 -0.10480448 30.0
1.41767263 -1.23748219 -0.17208907 30.0
0.94542003 1.14634573 -1.20506215 30.0
1.26032138 0.70593899 -1.06452262 30.0
-0.40727112 -0.69176954 0.87941796 30.0
0.94828850 1.11895740 -1.28643751 30.0
0.62959832 -0.93247670 -1.08643401 30.0
1.14299977 0.52966565 1.36926973 30.0
1.42270923 -1.23485708 -0.10480448 30.0
-1.02641356 -1.28590667 -1.00307798 30.0
1.20965731 0.23372388 1.26773298 30.0
-0.42653334 1.54935682 -0.82708097 30.0
1.49708879 -0.59694397 -0.65199584 30.0
0.78781682 0.53321683 -1.02222264 30.0
-0.76704592 0.77081615 -1.02340043 30.0
-0.68926716 -0.84795719 -1.06408930 30.0
0.68866277 0.06883145 -1.03754735 30.0
-1.41006315 -1.22223341 -0.13349368 30.0
-1.38669384 -0.85245913 0.65559405 30.0
-1.06031060 1.45996034 -0.84030098 30.0
-1.39761233 0.06890956 -0.60237551 30.0
0.88812506 1.01404333 -1.09770072 30.0
-1.40014410 -0.89882278 -0.82853615 30.0
0.19407165 1.20242655 1.30123377 30.0
1.46633565 -0.55168742 0.89421856 30.0
-1.01934493 -0.91648215 -1.83447564 30.0
1.41772091 -0.00865912 0.78791803 30.0
0.77973598 1.15390110 1.26779413 30.0
1.49708879 -0.59694397 -0.65199584 30.0
1.42719984 -1.22883058 -0.16851261 30.0
1.48553693 -0.75167274 -0.59058380 30.0
0.88945645 -1.33417439 -0.09320644 30.0
-0.50100011 -1.34935033 -0.06882997 30.0
-0.85158855 -0.93761492 -1.17857337 30.0
1.42980707 -1.22513437 -0.14649498 30.0
0.73849815 -1.40142107 -0.27209246 30.0
-0.80297661 -0.05815680 1.92410541 30.0
-0.77637708 -0.76089168 -1.04252815 30.0
1.36580908 -1.12997317 -0.81518096 30.0
-0.50692391 -1.10024023 -1.07499385 30.0
0.43149549 0.40208420 -1.05590153 30.0
-0.05667644 -0.48634702 1.27066135 30.0
-1.50863111 0.88139904 -0.01181634 30.0
0.93742889 -0.93095195 -1.49744606 30.0
0.82186806 1.18980396 1.24152589 30.0
1.38566399 -0.98487914 -1.05122411 30.0
-0.57216460 1.54899240 0.93723255 30.0
0.44381964 -0.76228476 0.82263809 30.0
-1.52855980 -0.41157436 0.24401374 30.0
1.43230724 -1.22114909 -0.13568328 30.0
1.44000840 1.23899710 -0.70062250 30.0
0.56276250 0.99392247 1.28951132 30.0
-1.35403299 -1.10153270 0.27456361 30.0
1.07263100 -1.35257900 -0.68642706 30.0
-1.35599875 -0.97509795 0.48291141 30.0
0.81982738 0.90784168 1.33374345 30.0
-0.05209299 1.16656566 1.31331599 30.0
0.88320345 -0.18143840 1.76581883 30.0
0.31710714 -0.42328200 1.39644241 30.0
-1.52065015 -0.35027882 0.04259124 30.0
0.79327667 1.20262396 -0.95683283 30.0
0.32337171 -0.53526425 1.13578880 30.0
-0.74431127 -1.40188968 -0.92406064 30.0
0.90613121 -1.27099037 0.04680738 30.0
-0.58410865 0.18543960 2.05961990 30.0
0.40010682 -0.19166982 1.79578149 30.0
0.63462716 0.88274616 1.39894354 30.0
1.51527512 -0.82388788 0.05633871 30.0
0.44093317 0.97853941 -1.03069174 30.0
1.27676642 0.23377062 1.05288517 30.0
-1.44042575 -1.03332365 -0.42919466 30.0
0.62567306 -1.00776374 -1.08378494 30.0
1.42979550 1.39812148 0.21029910 30.0
1.42847502 -0.01195363 -0.67713255 30.0
0.42240098 -0.53334361 1.13469267 30.0
-0.74906737 1.30278265 1.17422724 30.0
-0.94429958 -0.46165824 1.25261366 30.0
0.07984345 -1.16746294 -1.10785055 30.0
-1.39095473 -0.27777624 -0.85889155 30.0
-0.50975376 -0.01482493 -1.06407583 30.0
1.46494722 -0.85811687 0.63225925 30.0
-0.54394412 1.06319737 1.28167224 30.0
0.69878328 0.74762541 1.59173930 30.0
0.19493198 1.12357402 1.30721080 30.0
-1.36959386 -1.23544955 -0.59380835 30.0
1.25647855 0.71230251 0.93652821 30.0
-0.80297661 -0.05815680 1.92410541 30.0
0.33874604 0.91429943 -1.05728173 30.0
-0.05069099 0.00013570 2.02857780 30.0
-0.92543161 -0.73501849 0.82910597 30.0
0.70038533 0.49568540 1.93237698 30.0
0.08422668 -1.45781302 -0.33279139 30.0
-0.36242512 0.00071796 2.01480365 30.0
-0.92243302 0.63720900 -1.01350665 30.0
-0.17319621 1.08454287 1.30280674 30.0
0.08007164 -1.13205564 -1.11564958 30.0
-0.18911421 0.06886041 -1.08493710 30.0
0.42884329 -0.69176954 0.87941796 30.0
1.53234911 -0.71141058 0.30810961 30.0
-1.03651857 1.49306965 0.36156818 30.0
-1.47415960 -0.27702960 0.61749941 30.0
-0.55522305 -0.24027684 1.71562660 30.0
0.53144759 -1.42664480 -0.78337520 30.0
1.23440123 0.97567338 -1.87773073 30.0
1.55313098 -0.55934280 -0.06907559 30.0
1.05192733 0.23272112 -1.00307798 30.0
0.42726552 -1.29144907 0.06630270 30.0
0.21811588 0.95273775 -1.05931354 30.0
-0.49705911 -1.42722678 -0.98460048 30.0
0.82372290 1.15055597 1.25913858 30.0
1.28507125 -1.24509513 0.04050871 30.0
-1.48966658 -0.75049806 0.67574883 30.0
-0.94204164 1.18240511 1.18658841 30.0
-1.47129250 -0.93977767 -0.15920326 30.0
-0.82253158 0.41644794 1.96110296 30.0
-1.49558067 -0.01078512 0.08353874 30.0
-0.73297554 0.06008015 2.03677106 30.0
-1.47532213 -0.82474345 -0.41659167 30.0
1.49178886 1.24739635 0.05072901 30.0
-0.05154171 1.29814887 1.25080144 30.0
-1.30625629 -0.75048435 0.78399497 30.0
-0.86468446 -0.75448501 -1.11935377 30.0
1.05192733 0.23272112 -1.00307798 30.0
-1.26186395 0.91251773 0.85856354 30.0
0.20938346 -1.45078361 -0.99188876 30.0
-1.50310397 1.12887323 0.03480400 30.0
-0.67349315 -1.11119342 -1.05076587 30.0
0.85666049 -1.39374042 -0.84844601 30.0
-0.45277533 0.68733001 1.70880187 30.0
0.63512778 -0.91217929 0.64061117 30.0
-0.69804817 -0.68299347 -1.03173149 30.0
-0.42637309 1.56877458 -0.71811575 30.0
-0.30254748 -1.44325006 -0.98918468 30.0
-0.31759250 1.05287731 -1.02430439 30.0
-0.79274553 0.55723441 1.84120810 30.0
-0.99837154 -1.27902830 0.01414074 30.0
-1.33676684 1.46081591 -0.57583088 30.0
-1.21114743 1.12696874 1.04611981 30.0
1.39296699 -1.25332594 -0.48420009 30.0
-0.05631248 1.57501364 0.85046655 30.0
0.21473667 0.76578653 -1.07130849 30.0
1.25227284 -1.27380478 -0.04710822 30.0
-0.76668692 -1.01915419 0.48166153 30.0
0.62496245 1.32187951 1.18020344 30.0
0.66917241 -0.41183317 1.38836086 30.0
-0.06026797 -0.81260216 -1.09881818 30.0
0.31885234 1.56962979 0.89123964 30.0
-1.21428311 0.80003816 -1.61135960 30.0
-1.36907542 -1.22928536 0.04030247 30.0
1.36906731 -0.50919276 1.04447246 30.0
0.33913493 -0.76339883 -1.07156801 30.0
0.62135202 0.39747706 -1.03744435 30.0
-1.42627800 -0.89883024 -0.65193784 30.0
-0.20364474 -1.43317389 -0.24050717 30.0
0.69915843 0.61596167 1.77456534 30.0
0.79989457 -0.82843167 0.74644065 30.0
-1.03512847 0.97567338 -1.84430504 30.0
1.24466062 -1.23171091 -0.94338846 30.0
-1.47696304 0.39039329 0.30625015 30.0
1.10046279 -0.19196831 -1.03397512 30.0
0.63119423 -0.10407821 -1.06433904 30.0
1.35114849 0.14996423 -0.81696129 30.0
-1.51073182 1.08858514 -0.03371840 30.0
-1.24137449 0.06889229 -0.95110029 30.0
-0.82296187 -1.33255649 -1.01376784 30.0
1.42133880 1.39795554 0.42446405 30.0
-0.06203691 1.55861747 -0.03900885 30.0
0.59951663 1.55165195 0.88869935 30.0
-0.42100883 1.12669992 -1.00055552 30.0
1.48072457 0.58156103 -0.47800106 30.0
-0.06051395 1.09854245 -1.03737664 30.0
1.15694559 -1.32681549 -0.19959578 30.0
1.48041511 0.52852416 -0.46602994 30.0
-1.44225311 1.12772548 -0.62934041 30.0
-1.46941507 -0.09843097 0.62624639 30.0
-0.92184997 1.16718507 -1.10995948 30.0
-0.05738866 -1.45762980 -0.93495774 30.0
1.42301106 1.04856014 -1.10032630 30.0
0.32915413 -1.15320647 -1.08673656 30.0
1.02295089 -0.34121111 1.47682273 30.0
1.52762437 0.88101649 -0.41825581 30.0
-0.51526427 -1.42646241 -0.72329080 30.0
0.43996501 1.18983448 -0.98596889 30.0
0.71289158 -0.80811632 -1.05285454 30.0
-1.39563262 -1.21833801 -0.46549377 30.0
-0.49584687 -0.53017211 1.13364112 30.0
-0.31643227 1.01584613 -1.03263533 30.0
-1.35743153 -1.20859885 0.09942614 30.0
-0.75198305 -0.67817175 0.87809050 30.0
1.44785011 -0.89883024 -0.65193784 30.0
-1.02706563 1.16705275 -1.22283852 30.0
-1.42562056 -1.16445959 -0.07196208 30.0
0.33921057 -1.44221520 -0.65457404 30.0
1.42405176 -0.98583066 -0.70606762 30.0
-1.01861382 0.79034418 1.28899133 30.0
1.40024304 0.14998150 -0.59361804 30.0
-1.47137940 -0.93938231 0.34205088 30.0
0.91449726 0.14996423 -1.01161718 30.0
1.48520684 -0.98503155 -0.17025444 30.0
-1.50754058 -0.61244148 0.75933152 30.0
0.93959206 -0.89553124 0.65445757 30.0
0.08191333 1.13754475 -1.02937257 30.0
-0.05991026 1.20131981 -1.00112760 30.0
-0.78691578 1.54944289 -0.60367328 30.0
0.91047055 -1.32148075 -1.01014316 30.0
-0.18634203 -0.48491621 1.26903164 30.0
-1.10197663 1.09022236 1.12688017 30.0
0.81183320 -0.33935294 1.51062047 30.0
1.01795757 -0.68568152 0.85856944 30.0
1.43126225 1.31697953 -0.68653482 30.0
-0.82753491 -1.27011192 0.05602560 30.0
1.32005203 0.63898271 0.78349090 30.0
-0.19966929 1.58247614 -0.65897167 30.0
0.94047189 0.69618374 -1.04616427 30.0
0.55964166 0.56985325 1.85550559 30.0
-0.79274553 0.55723441 1.84120810 30.0
-0.82296187 -1.33255649 -1.01376784 30.0
0.82491130 0.18121801 2.01665425 30.0
0.32195225 0.15348752 -1.06729054 30.0
-0.35739991 0.35357949 2.05812979 30.0
-0.77828676 1.02132487 -0.99270779 30.0
-1.53361082 -0.59643120 0.19335520 30.0
-0.93610793 0.99101329 1.18744802 30.0
0.85158378 0.48900172 1.89247870 30.0
0.52861291 0.40007952 -1.04646003 30.0
0.21811588 0.95273775 -1.05931354 30.0
1.52371371 -0.75051737 0.50363344 30.0
-1.48915112 1.04881883 -0.51174462 30.0
-0.17049374 0.69564551 1.72417164 30.0
-1.09965765 -0.57186091 -1.00567365 30.0
1.01994359 -1.27902830 0.01414074 30.0
0.45064399 1.35425627 -0.93630016 30.0
-0.06026959 -0.37221414 -1.11045361 30.0
0.34910053 -1.42448318 -0.23947519 30.0
0.07919730 0.06889682 -1.09458244 30.0
1.49090135 -0.71256107 -0.59032083 30.0
1.42774272 0.15022342 -0.42162266 30.0
-0.35739991 0.35357949 2.05812979 30.0
-1.08559334 -1.34126091 -0.20938599 30.0
1.27156734 1.40177870 0.85845661 30.0
-1.40617061 0.15022342 -0.42162266 30.0
-1.43776882 0.71218318 -0.65828985 30.0
0.08056197 0.72804135 -1.08445013 30.0
0.54886001 1.55691767 -0.75050879 30.0
-1.48152018 -0.89773923 0.00533281 30.0
1.53773260 0.88135839 -0.36042061 30.0
0.82574558 1.00279284 1.25826633 30.0
1.07985723 -1.34604275 -0.19653293 30.0
1.43894804 -1.19488811 -0.25813627 30.0
-0.51557195 -0.99295247 0.54415268 30.0
-1.44139028 0.84034723 -0.73077971 30.0
0.78382188 0.70281601 -1.02091384 30.0
0.69312984 -1.33522046 -0.06567628 30.0
