-0.39508885 -1.37346113 -1.15756631
-0.05474798 -1.62136030 -0.43390474
1.39905012 0.24705042 0.33823135
0.69478822 1.47383118 -0.20869029
0.28331867 -1.57556701 -0.74804425
-0.70157641 -1.52159464 -0.11824931
1.16313100 -0.83782136 -1.52227890
1.29260492 1.12129426 -1.19359398
1.05141091 0.93702179 1.14292312
1.40558136 0.38411888 -0.31768140
1.15359735 -1.28052068 0.47579479
-1.41406012 0.74010789 0.43295640
-1.14318693 0.29364172 1.11955738
1.10991967 0.64128029 -1.20788741
0.19588265 0.22420308 2.13634253
-0.60227817 0.46825099 -1.17277563
-1.32450223 1.14008725 1.03146553
-0.22147301 -1.43373525 -1.17017496
1.08521211 -1.38024390 0.30305564
-1.37502027 1.08250320 0.65981013
-1.04388809 -1.05352044 -1.69798040
1.38723004 -0.62793046 0.38502058
0.85847747 1.36289978 1.18152976
1.34374762 1.08316481 -0.93799585
-0.20981973 -0.03262411 1.99341321
-1.24797869 -1.29150641 0.40308967
-1.16581488 1.04624367 -1.57756162
-1.19213450 -0.81416458 0.89817387
1.21765208 1.42355013 -0.18862878
-0.93886876 -0.25185147 -1.16138101
-0.55723119 -0.89241999 0.71114767
-1.38335907 -1.00809872 -0.14360444
1.10695052 -0.26173672 0.86837626
1.00617754 1.36803007 -1.06149316
0.96477860 1.15221477 1.17565596
1.38712823 0.83168882 -0.06956114
1.35491002 -1.25246692 -0.27753770
-1.38396978 -0.97166693 -0.15454604
-1.39277291 0.38411888 -0.66446459
1.32037020 -0.30558953 0.65816981
0.79462010 0.64796317 -1.17692184
0.59130502 -1.54062152 -1.07361996
0.34033918 0.69667649 -1.19444513
0.91610593 0.97925436 -1.35527587
1.03233385 1.30545497 1.17760634
0.34900141 1.00731564 1.46460319
-1.12434793 0.96968216 1.11773980
-0.55366570 -1.24995220 -1.16946101
0.16257830 -1.59890389 -0.28039539
0.68162769 -0.85097808 0.71766359
-0.21223685 1.52658963 0.78970224
-1.37570035 -0.01114395 -0.78072673
-1.25033295 1.28549182 1.13207865
-1.35535121 1.00468600 0.88732487
1.34537756 -0.89775771 -0.97244287
-1.11174560 -0.86945105 0.85892332
1.40527368 -0.17402151 -0.28523725
-1.33949494 1.23464942 0.09101005
-1.37556088 -0.45655698 0.63852441
0.51241785 1.52068651 0.93615788
1.38393271 -0.97166693 -0.15454604
1.30175507 0.26137546 0.81697577
1.39373279 -0.09425238 -0.51182991
-1.33610451 -1.29516816 0.00279860
-1.30831027 0.33854556 0.90705121
-1.36807942 -0.53376955 0.65324503
-0.81420612 0.52464610 -1.16201472
0.80973279 1.49267375 1.07745123
-1.15671444 1.00619996 -1.65235221
-1.11174560 -0.86945105 0.85892332
-0.50130975 -1.54549897 -0.17475715
-0.53250164 1.48048925 -0.21136841
1.34003842 1.23464942 0.28190047
-1.34014988 1.23464942 0.41886181
-1.39784825 -0.53742445 -0.19419174
-1.38716137 -0.97166693 0.20228148
-0.93561435 -0.17579187 -1.16161478
-1.34828568 -1.04422975 0.53415680
1.08521211 -1.38024390 0.30305564
0.85643089 -0.73253763 0.72714037
1.37076890 -0.78917855 -0.20535614
1.37726128 -0.00953091 0.43914419
0.84774709 1.49628723 0.27313527
-0.76830256 0.37234360 -1.16410339
-1.18960559 -1.10413361 0.71734184
0.47952735 0.43235916 2.01313901
-1.03481925 0.92779869 -1.72732270
0.28331867 -1.57556701 -0.74804425
-1.42035711 0.69609863 -0.06693523
-0.53319776 1.51091027 0.27430323
-1.16583526 0.50504720 1.25214827
0.07549819 -1.38012934 -1.18776631
-1.32520568 0.40051287 0.97818798
-0.06643660 0.05316449 2.08896494
-1.06367528 0.37644231 1.30590391
-1.39386880 0.07157128 0.21230809
0.99574381 1.12129295 -1.33308005
1.37523317 1.00109589 -0.12977603
1.10013103 1.48180258 0.69474298
0.92633367 -0.87762159 0.69689840
-1.09927773 -0.47936934 0.75816303
-1.36083019 0.74067330 -1.28133583
0.90935808 -1.06215131 0.54344994
0.28510696 -1.59754622 -0.57664102
-0.97219133 0.93237382 -1.58399093
0.79290497 1.07692075 1.23350346
-0.47912836 0.45267698 2.00112438
-1.36570215 -0.78927255 -0.39706540
-1.18317914 0.95831370 1.09336507
-1.40754199 -0.46020734 0.14111914
1.32662177 -0.93478662 -1.33107316
-1.30971682 1.33083081 0.88897419
-0.07835443 -0.25563127 -1.22146356
-0.20981973 -0.03262411 1.99341321
-0.66546232 -1.44203615 -0.01568273
-1.16525936 -1.45872498 -0.38396043
0.36520287 1.13367987 1.27894807
-0.86055613 -1.52441657 -0.02923735
0.07977279 -0.55234545 -1.21807909
-1.21305263 0.82558393 1.11098576
1.35929966 0.51584011 -0.98209196
-1.38446856 -0.93478662 0.17488503
1.40216410 0.78598511 0.28707394
1.12906528 0.92697304 1.11631310
1.28519356 1.37510073 -0.15363687
-1.36972558 -0.86175501 0.39319077
1.17087078 -1.23781395 0.54209638
-1.37041187 1.00109589 -0.33853301
1.41154420 0.41073900 -0.30920023
0.62289298 -1.58898771 -0.28903374
1.36827409 -1.08065569 -0.42233551
1.33545768 -1.29516816 -0.43375620
0.56949079 -0.91545022 -1.24048233
-0.21413179 1.42772317 1.20708525
1.29777789 1.32302439 -0.66438490
-0.54593295 -1.45378089 -0.02077647
-0.20626079 1.05294847 1.41724348
0.25452846 -0.26512921 1.63271797
-0.28229585 -1.57387054 -0.82941234
0.69868606 -1.28281534 -1.14748979
0.92031986 -0.77139258 0.72965103
1.19295669 0.03025694 0.83980870
1.36625898 0.58607841 -0.97433275
0.55985308 0.94176656 -1.19693732
0.94495296 -1.20151925 0.40527350
-1.30821967 0.74241161 -1.50609803
-0.33149415 -1.17314339 -1.21138597
-0.33348989 -0.82883865 -1.22242665
-1.06393826 0.43919650 1.32746220
-1.06965148 0.07268737 -1.16174412
-0.06800257 1.53379869 0.96461588
1.29267812 0.00650595 0.65482771
-0.16298516 -1.60637915 -0.30034721
-0.61841458 -1.30014110 0.22608446
-0.71727300 1.38129735 -1.06508183
0.68373573 -0.88871294 0.70060384
-1.32212305 1.00109589 -1.30065465
-0.32240444 -1.25270855 -1.18294799
1.32147074 1.12563157 -0.94262391
-0.93854064 -0.81420875 -1.24812067
-1.04614675 -1.00389624 0.71558750
0.33209449 -0.87879980 -1.23299348
-0.34748903 0.05272134 2.04512000
1.22444212 -1.33468807 0.33610415
-0.07980981 -0.55234545 -1.21807909
-0.77414066 0.41954577 -1.16362941
1.11492419 -0.76088667 0.86445308
-1.16127372 -0.86675245 -1.59729230
-0.58881289 0.37416917 -1.17394090
1.00773871 -1.52154624 -0.43333480
0.85412920 -1.52460504 -0.72082394
-1.33987701 0.75451714 1.06200945
-0.21550249 1.52073276 0.27762416
0.11170924 0.69658059 -1.19504678
-0.22919108 -0.85970265 0.75736922
0.33086210 -1.10305655 -1.23881495
-0.09703788 0.58947158 -1.20935524
-1.15363443 -1.28052068 0.47579479
-0.80684495 0.44772089 1.67498910
1.36490011 -0.24539146 0.57482415
0.79327565 -0.87998211 -1.25256181
0.88442713 -1.35648739 -1.12916136
-1.17435169 1.13334596 1.12905276
0.40444252 0.07476634 -1.19087315
-0.92157960 -0.26157710 1.24744511
-0.35946995 1.52433527 0.87908357
1.42568517 0.64609116 -0.04915934
-0.82146418 0.05145833 1.64652872
-1.14250135 0.04056154 0.93935001
1.15670907 1.12985778 -1.30387211
1.26493037 -0.29204816 0.69946873
-1.21713722 -0.46221223 -1.13874555
-1.43408060 0.51360345 0.48744765
-1.34224546 -0.86168385 -0.96429694
1.29535449 0.67736363 -1.35216892
-0.21650866 1.46626210 -0.61277950
-0.06982963 1.13951290 1.30507946
0.60224116 0.46825099 -1.17277563
0.77022123 -0.99514544 0.61521077
-0.19271737 0.39528665 2.10804510
-0.37006071 1.51804256 0.50562078
-1.40531051 -0.17402151 -0.28523725
1.38718200 -0.97166693 0.30541766
1.18947387 1.04056036 1.09980404
-0.52251774 1.12969160 1.26098311
0.21546549 1.52073276 0.27762416
0.20978273 -0.03262411 1.99341321
0.33442837 -0.81306595 -1.21624947
-0.82887799 -0.40530655 1.17807722
0.97947145 -1.52800071 -0.23321705
-1.15544319 -1.08567882 -1.65951324
0.40832505 -0.47146082 -1.18850017
-0.93869382 -0.39426005 -1.16032028
-0.37800452 -1.22171295 0.38373268
-1.32318473 1.19201088 1.02588606
0.98404849 -1.16425788 -1.42740273
1.16681361 1.34515941 1.15922713
1.43420243 0.51388991 0.34050304
-0.76770705 -0.46812639 -1.16187811
1.03343678 1.24807823 1.18010938
0.34033918 0.69667649 -1.19444513
-0.83134329 -1.28239834 0.22266969
-1.37384510 -0.78917855 0.27215204
0.99645472 0.79770905 -1.53361726
-1.04921401 -0.89445251 0.79333311
-0.92741674 -0.95135933 -1.39499855
-0.10924076 -0.84916466 -1.22674239
0.68515307 1.50991380 0.76854777
-1.14250135 0.04056154 0.93935001
-1.28738880 1.38659716 0.37688518
-1.35252380 1.17768526 0.26994964
-0.64607626 -1.59141862 -0.33016279
-0.93217409 1.09740341 -1.28100216
-0.44301063 1.26944554 -1.15915120
-1.15363443 -1.28052068 0.47579479
1.24701869 1.11339843 -1.33927250
-1.05430019 1.10318720 1.15199184
0.65596449 0.99918169 1.36335766
-1.37890434 0.87607521 0.48969179
1.19999385 0.87127453 1.10048461
-0.79371578 -1.34234142 0.12584424
-0.07549816 -0.89961892 0.74996942
0.59325010 0.42157841 -1.17346346
-1.05731547 1.48937845 0.95839548
0.29553288 0.59019059 -1.19879019
-0.80801404 0.95029646 1.28324521
0.21545516 1.52258086 0.51045346
-1.05717146 1.08708680 -1.48056686
-1.19475639 -1.06598890 0.75835478
-1.32660627 -0.44560578 0.69390839
-0.41148597 -1.61230016 -0.35725969
-0.58493996 0.25436157 -1.17406297
0.97380680 0.71250802 1.33408988
0.78039998 0.98265344 -1.22230244
1.35964060 1.00109589 -0.61849606
-0.80960310 0.72293717 -1.21103084
0.58449233 0.69681209 -1.19359493
0.53204584 1.46850514 -0.39159998
-0.77902240 0.94028568 -1.22867680
-0.89700961 -1.28747857 0.26109451
0.64301610 0.47801086 1.85077107
0.85161448 1.20320821 1.19173527
1.34251988 -1.29516816 -0.10065088
-1.17218769 -0.40910020 0.75119609
-1.41911590 0.41008538 0.52708453
0.92834491 -0.91361934 -1.37447548
1.16693008 -1.46178973 -0.31504154
-1.35578489 0.96016890 -0.61678040
-1.36565793 -0.82882786 -0.38720548
-1.41219974 -0.38946095 0.30125725
0.55362874 -1.24995220 -1.16946101
1.28553355 -1.33834839 0.13593525
1.31002736 1.05626929 1.03383255
0.59205526 -1.36067104 0.12982790
-0.34903839 1.00731564 1.46460319
-0.78399724 -1.43632126 0.01483741
0.07478727 -0.79025996 0.78433895
-1.10473430 1.46228087 -0.02314536
-0.99807101 -0.81088674 -1.30237532
0.73595780 1.30892122 -1.13004792
-0.78399724 -1.43632126 0.01483741
1.41087925 0.74011308 0.75816816
1.37497675 -0.38581541 0.62431198
0.07781731 0.33687171 -1.22184110
0.20504463 1.53073931 1.02797341
1.31775749 1.09684110 1.03560722
-0.53830343 -1.60414696 -0.40558642
1.21966505 1.44280195 0.17829327
-0.60580862 -1.56993115 -0.22853132
-0.58581316 -0.09536897 -1.17401600
1.28735173 1.38659716 0.37688518
-1.37609756 0.07318431 0.45024648
-0.80801404 0.95029646 1.28324521
1.16436982 0.79103774 1.15273237
1.41691816 0.41073900 -0.05424656
0.53601921 -1.58478069 -0.56220049
0.95691508 0.47196719 1.47009063
-0.31669733 -1.55277812 -1.09844923
1.35427392 0.52702469 1.07149172
-0.79271400 -1.52151918 -0.04736340
0.62829274 -1.57506108 -0.23698054
-0.79136187 -0.95350271 -1.27432823
1.37741601 -1.08065569 0.11498996
-1.37123668 0.91880459 0.66064030
1.23956537 0.98789304 1.07071245
1.40750504 -0.46020734 0.14111914
-1.20211768 -0.92011845 0.86830956
-1.43423951 0.51388991 0.34050304
-0.95820779 0.13421994 1.42312288
-0.06443638 0.66236985 1.90804732
1.36723685 -0.78917855 0.38981834
1.07025802 0.21407117 1.21744466
-1.10869992 0.58471084 -1.16565776
-0.10803851 0.85332203 -1.20554221
1.18239093 -1.19178283 0.60854387
-0.25115433 -1.33288324 -1.17769873
0.51497531 1.08792782 1.31444132
-1.03417099 -1.31009161 0.37310049
1.40684736 0.74012554 -0.30870011
-0.06872673 1.53211617 0.89597028
1.32955670 1.28335679 0.54311967
-1.06293452 0.89256996 1.14823067
-1.10434842 1.47941744 0.38677418
1.25363672 0.39034873 1.04914141
-0.06443638 0.66236985 1.90804732
-1.25824261 0.92000371 -1.62838256
-1.40099227 -0.38946095 0.53743058
1.35871923 1.12569952 -0.33229989
-0.63704604 0.52662539 -1.17137229
-0.79371578 -1.34234142 0.12584424
1.35574782 0.96016890 -0.61678040
-0.90730357 -1.51215911 -1.06419098
0.25452846 -0.26512921 1.63271797
-0.92191613 -0.80440176 0.72381133
0.06868971 1.53211617 0.89597028
0.38004285 1.42391980 -0.98422235
-0.92121780 1.02096725 -1.33425546
1.24193370 1.33420324 1.13314664
-1.06367528 0.37644231 1.30590391
1.36373079 1.12575531 0.68399292
-1.33712244 -1.11856484 -0.98966515
1.24794161 -1.29150641 0.40308967
0.20943160 1.47610283 1.17428219
-0.65327018 -0.64066267 -1.16851234
0.39133272 -0.78651839 0.75884593
-1.15921485 -0.90189117 -1.66431785
1.34086478 -0.78917855 0.59007281
0.23637705 0.25621286 -1.20903099
-1.12059999 1.43610370 1.12573671
-1.03445828 0.67267603 -1.26619184
1.31501424 0.91878098 -1.33925343
0.23549704 0.07509022 -1.20900965
-1.40175629 0.78599775 0.56030554
1.15917778 -0.90189117 -1.66431785
1.36172986 -0.89775771 -0.64956450
0.66470015 -0.48586076 1.11597371
0.06830176 -1.50182939 -1.16751993
-1.40837836 0.36367458 0.49221927
1.11242497 -1.01592124 0.76505381
-1.27053976 -0.97283500 -1.62694168
0.64243931 0.43027937 1.88362849
-1.32204199 1.28330100 -0.34795174
-1.34439564 -0.00447324 0.54454869
1.27739096 1.36537778 -0.65041614
1.38723004 -0.62793046 0.38502058
-0.98619920 -1.25489092 0.39413503
1.21228397 0.44911450 1.15863442
1.38414848 0.78598315 -0.60095108
-0.08700252 -0.33705896 1.50630355
1.20010448 -1.02956176 0.79286373
-1.37890434 0.87607521 0.48969179
-0.97614902 1.44726694 -0.38719806
1.08002841 -0.17519602 -1.16161478
-0.56875867 -0.99136752 -1.24896610
1.39884734 0.36483729 0.74600798
-0.81099629 0.31122357 1.71204174
0.43126786 -1.32910776 -1.15998054
-1.37030745 1.08250320 -0.33477443
1.20316589 1.42629743 1.09455085
-0.65479863 0.81721067 1.54458392
-0.41159603 -1.60377872 -0.50778043
-1.37665105 -0.86175501 0.27821404
-0.20072781 0.96639001 1.54509163
1.34600949 0.78598315 -1.31280959
0.10859824 -1.10287213 -1.24106252
0.10901909 1.15829623 -1.18422341
0.58351302 -0.01029289 -1.17404211
1.41357732 0.74010444 0.12321147
1.11705482 -0.94335705 0.81999236
-0.23676696 -0.09573628 -1.20898283
1.13958263 0.40878853 1.20888710
-1.28172541 0.48343673 1.12004888
1.17460930 1.18421340 -1.12194955
-0.58353907 0.16025582 -1.17404640
0.48969284 0.65653121 1.81949592
-0.50848979 1.04607487 1.37409866
-1.40995240 -0.38946095 -0.20241185
0.61470783 -1.32471728 -1.14353764
1.15436172 0.83691561 1.13279104
-0.35218224 1.52617729 1.01622772
-1.43191230 0.51398540 -0.03422067
0.36926758 1.47365010 -0.39847484
-0.76143527 -0.01043910 -1.16420388
-1.40754199 -0.46020734 0.14111914
-1.37396586 1.04192495 -0.33851185
0.57033336 -0.87971359 -1.23069763
-1.08438241 0.38815004 -1.16148460
-1.36664271 -1.00809872 -0.66192317
-0.28968623 -1.55513048 -0.19333532
0.06300159 0.43631101 2.11041403
-1.15260100 -0.12299426 0.83727735
-0.07572677 1.32623577 -1.18618762
-1.22130740 -0.39112163 -1.13993156
0.22284012 -0.11475683 1.88879383
0.21552721 1.51546669 0.14325534
1.40515673 -0.46020734 -0.19480596
-0.95455933 0.38321093 1.48396027
0.66470015 -0.48586076 1.11597371
1.33516264 -1.25130773 -0.76998621
0.96183312 0.05086694 1.37142897
1.28158188 -0.61329436 0.76353180
-0.93420625 1.12686479 -1.24909210
-0.86207658 1.42807543 -0.79454631
-0.70794642 1.43554139 -0.79574686
-0.21223685 1.52658963 0.78970224
-0.75560284 -1.11345088 0.49028310
-0.39582279 -0.93321484 0.70099407
1.22475541 1.12192917 1.10538650
0.16703524 -1.58311331 -1.03846276
-1.40121794 0.32494175 -0.12576874
-1.22186708 -0.42005649 0.73160911
0.39541525 -1.59283733 -0.25903293
-1.32937467 0.80039912 1.05354929
0.32813534 1.02741981 -1.19034600
0.81296015 -0.33328545 1.31654549
1.34291589 -0.62427145 0.69608730
-0.38274321 -0.11452796 1.86554885
0.59075111 0.39432809 -1.17378020
-1.35616386 -1.20627332 -0.52839828
1.39569366 0.15539245 0.25908285
-1.32429314 -1.04422975 -1.32962298
-1.37556088 -0.45655698 0.63852441
0.23581088 0.16151011 -1.20901394
-1.12962794 -1.32370722 0.40437597
-1.17851877 0.63029128 1.24487281
1.24193370 1.33420324 1.13314664
-1.09163034 -1.17815161 0.58183646
-1.39386880 0.07157128 0.21230809
-1.29672992 0.17137277 0.73197353
-0.77414066 0.41954577 -1.16362941
-0.92828661 1.02903724 1.19288361
-0.35568151 1.52600944 0.94617814
-1.39607215 -0.24902664 0.49797559
0.23075914 -0.74788094 0.79537159
-0.84407693 -1.56375861 -0.33353347
-1.33937395 0.38466552 -0.99387830
1.22212374 0.38622153 -1.13978493
-1.35520506 -0.82882786 -0.64397818
1.37159741 0.83168882 -0.59863591
-0.10808677 -0.78740066 -1.21612835
0.33152887 1.10467827 -1.18245625
0.84624135 -0.80564862 0.71506959
-0.37006071 1.51726842 0.38164181
1.31500220 -1.33834839 -0.34371179
1.40698922 0.51641673 0.94960874
-1.34205091 1.18126667 0.90432280
0.33209449 -0.87879980 -1.23299348
-0.50530291 -1.30565310 0.22710423
-0.98429340 -0.72820765 -1.16725230
0.33007547 1.06815982 -1.18568850
1.38129699 1.04192495 0.28861055
-0.97493190 1.49249148 0.65902215
-1.16155553 0.83596885 -1.73061836
0.28079590 -1.57956052 -0.92294413
-0.38033184 -1.42973602 -1.15255725
-0.37006071 1.51726842 0.38164181
0.39485815 -0.89533472 0.72525305
-0.55166745 1.35320878 -1.12500894
-0.39230219 -1.04517341 0.61035287
0.58831954 -0.46998814 -1.17169893
1.33761787 1.23464942 -0.11666506
-0.84778661 -0.98951954 0.60951144
-0.10867398 0.64279264 -1.20153892
1.32919157 1.28335679 0.09394800
-0.38505897 -1.17441463 0.45524868
-0.93935394 0.39019519 -1.16148460
-0.05462180 -1.61217678 -0.53150398
0.74929178 -1.53847909 -0.72854459
-0.33337396 0.31624570 2.10200238
-0.21550249 1.52073276 0.27762416
-1.36493707 -0.24539146 0.57482415
-1.08362055 -0.39264479 -1.16032028
1.34276938 1.00109589 -0.95656461
1.31645620 -0.52280504 0.71297818
1.42198062 0.45602334 0.78389126
-0.52980620 1.41848695 1.17982614
-0.77759099 -0.73662788 0.73747581
-0.61474478 -1.32471728 -1.14353764
-0.79481590 -0.85123557 -1.24302411
1.28744149 1.38461959 0.23991445
-1.00604618 -1.51421475 -0.49545279
0.36926758 1.47365010 -0.39847484
-0.81200814 0.90535861 1.30906010
-1.00812876 -0.18872359 1.12243271
-0.21741450 1.33552611 1.22650349
-1.41146660 0.38326538 0.66538262
-1.30971682 1.33083081 0.88897419
1.28729224 1.38699961 0.49034908
-0.48575988 0.58748347 1.88797534
-1.41875982 0.41073900 0.16161390
-1.36807942 -0.53376955 0.65324503
-0.19755043 0.72936594 1.81937099
1.25820553 0.92000371 -1.62838256
0.07074090 1.50689936 -0.03478833
-0.48575988 0.58748347 1.88797534
-1.16581488 1.04624367 -1.57756162
-1.34542012 0.47078928 1.03767347
0.91656655 -1.02389598 0.58459395
-0.65669030 1.04131424 1.32300985
-1.04477251 1.06227648 1.15433097
-0.66208869 1.51401937 0.99895561
1.30106151 1.20533299 1.07530522
-0.84205264 -1.02623177 0.57574975
1.42800832 0.64607859 0.31468523
1.21097994 -0.53986090 -1.13742185
1.40411639 0.69662738 -0.61484730
1.41691816 0.41073900 -0.05424656
1.40705490 -0.17402151 -0.09970713
-0.82145548 0.76799381 1.42826033
0.85740095 -1.34660828 0.15878160
1.32162952 1.28693533 0.90217394
-1.38104022 -0.09425238 -0.77960807
-0.98403788 -0.94725215 -1.57871425
-0.71881992 1.21043527 -1.14870131
1.37893927 0.24738958 -0.69399852
-1.21457875 -0.59968346 0.76550907
-0.86087084 -0.11360353 1.47478569
-1.31891584 -1.11812174 -1.28163350
0.96183312 0.05086694 1.37142897
0.48238945 0.52771074 1.94122469
1.35461521 0.59377599 1.08905387
-1.39366293 -0.01114395 -0.31940219
0.40716976 -1.60840094 -0.31754768
-1.34685290 0.71051246 1.07646275
-0.34339258 -1.37083399 0.12453535
1.37497675 -0.38581541 0.62431198
1.17844415 -1.39073122 0.24067138
-1.11709189 -0.94335705 0.81999236
1.28643537 -0.89409095 0.80521423
1.22149515 -0.25000414 -1.14287746
0.84201556 -1.02623177 0.57574975
-1.08382237 -0.25090069 -1.16138101
-0.79312187 -1.20040226 -1.20971572
-1.33080161 1.23822927 0.90305662
-1.33080161 1.23822927 0.90305662
0.06848575 -1.31633019 0.24690203
0.69592679 1.48729420 -0.02707221
1.38712418 -0.97166693 0.20228148
0.92154253 -0.26157710 1.24744511
-0.49055323 -1.58650017 -0.25124660
0.99223727 -0.82544184 -1.37974811
-1.36635828 0.91878098 -0.32493410
-0.77305204 -0.95851535 0.64374214
1.11705482 -0.94335705 0.81999236
-0.55234277 -0.78397381 0.74431843
-1.32413805 -0.86178201 -1.28278065
-0.32515612 1.17875218 -1.18120623
-1.00016546 0.58764642 -1.16389775
-0.96924126 -1.50620675 -1.01010752
-1.24793243 0.34930068 1.00712645
-0.94686460 0.64718515 -1.18135846
1.29267812 0.00650595 0.65482771
1.30584431 0.89046317 1.03225207
-0.56875867 -0.99136752 -1.24896610
1.03344142 -1.07847369 0.64103597
-0.40672141 -1.56983912 -0.81712288
-1.08362055 -0.39264479 -1.16032028
0.99478483 -0.73800939 0.76932198
-1.37116623 0.91878098 -0.10778452
1.43292081 0.58041060 0.32949302
1.18314207 0.95831370 1.09336507
1.40216410 0.78598511 0.28707394
0.99088871 -1.45462036 0.14937927
-1.05452037 -1.20713055 -1.30826914
1.22227323 -0.34936374 0.73325634
1.15636277 -1.01276910 -1.74286020
0.86764246 1.20502460 -1.14240098
0.33007547 1.06815982 -1.18568850
-0.76142108 0.15936461 -1.16420805
-0.07577489 -0.74934727 0.80584872
-0.07048397 1.52742839 0.66215682
-1.15980136 -0.19804248 0.79813421
-0.07294449 1.39954114 -1.11836946
1.03413391 -1.31009161 0.37310049
0.10864480 -1.02797222 -1.25507140
0.16600858 -1.60000539 -0.58646137
0.06729669 1.53396749 1.03628504
-1.27017248 -0.36131829 0.71035761
-1.38267326 -1.04422975 0.17561905
0.96936733 -1.10988772 0.53477842
-0.48434067 0.31503850 2.04860544
0.23581088 0.16151011 -1.20901394
1.36618733 1.12575531 0.36846837
1.09393227 0.57209063 1.32834733
0.45938799 -0.64132601 -1.18527305
1.31699657 0.84610587 1.04387558
0.06382668 0.59274101 1.98019266
-0.33119300 -0.99077988 -1.25334656
1.39694405 0.24738958 -0.17877556
0.56821692 -1.10331750 -1.23563862
0.32967514 0.43396685 2.06608462
1.15095901 -1.20078123 -1.32365453
1.16123664 -0.86675245 -1.59729230
1.15500402 -0.48628762 0.73742294
-0.84415537 -1.52900565 -0.90114188
-1.41017759 -0.24902664 -0.24877982
-0.80801404 0.95029646 1.28324521
-0.34470522 0.96347111 1.52643824
0.35214528 1.52617729 1.01622772
-0.37085903 1.38154244 1.20619380
1.38414848 0.78598315 -0.60095108
0.92763299 -0.91460079 0.67327249
1.20208061 -0.92011845 0.86830956
-0.91492474 -1.46849287 -1.10943902
-1.25367379 0.39034873 1.04914141
-1.03445828 0.67267603 -1.26619184
-0.93561435 -0.17579187 -1.16161478
-1.36664271 -1.00809872 -0.66192317
0.66529018 -1.16562843 0.43597516
1.17734003 0.79004079 -1.67475259
-0.92035693 -0.77139258 0.72965103
0.33900267 0.82392234 1.69658554
1.15914989 -0.58768463 0.75302750
-1.37701178 0.87608272 0.68902349
1.35568416 0.91878098 -0.61235934
-0.98062450 1.01584589 -1.51566076
1.04451728 1.01088130 -1.63688135
-0.58353907 0.16025582 -1.17404640
1.36313188 1.04192495 -0.61748272
-0.06877119 1.09739757 1.36336994
1.26821828 1.11017466 1.08157301
-1.37360430 -0.82882786 0.15419519
-0.98251903 1.44534624 1.13621211
-0.84806472 1.47954726 -0.02674287
-0.37800452 -1.22171295 0.38373268
1.15095901 -1.20078123 -1.32365453
1.10574543 0.66950339 -1.29848349
1.29484808 1.26228487 1.07148290
1.08378530 -0.25090069 -1.16138101
1.39377105 -0.32015088 -0.71630025
0.39485815 -0.89533472 0.72525305
0.94329029 0.41718954 -1.16117072
1.35894167 1.08608758 0.90010279
-0.07317534 -0.11491878 1.90524209
0.39781839 -1.60022783 -0.27988401
-0.59078813 0.39432809 -1.17378020
-1.32888269 -0.79185092 -0.96927047
0.23794226 0.37678051 -1.20890582
1.38443148 -0.93478662 0.17488503
-1.40091026 0.36442626 -0.32766831
-1.36664271 -1.00809872 -0.66192317
-0.51791316 1.51901805 0.86990637
1.40888715 -0.24902664 0.40337771
0.86083376 -0.11360353 1.47478569
-1.37846124 0.87605220 0.09143429
-0.97514921 0.64556760 1.38085485
0.37332496 1.33153236 1.21210563
0.63700908 0.52662539 -1.17137229
-1.32024312 1.23325431 -0.65345609
-0.23865426 -0.25518000 -1.20863354
-1.36831117 -1.08065569 -0.42233551
-1.31625795 1.32687271 0.28453305
0.56509513 0.85230815 -1.19839513
0.06885205 -0.03261684 2.01085067
-1.37989974 -0.53789467 -0.69277614
-0.37075919 1.17533338 1.24192441
0.06639960 0.05316449 2.08896494
0.40838039 -0.17749926 -1.19074106
-1.36613393 -1.11879838 0.23769480
0.97434044 -1.06775165 0.58454490
-0.85112959 -0.95310700 0.63804281
1.11595142 -0.40201336 0.79438657
-0.06386369 0.59274101 1.98019266
1.32805717 -0.09431075 -1.03298163
-0.07549816 -0.89961892 0.74996942
1.27794504 1.27402401 1.10227823
-0.92983621 -1.19704306 -1.26939523
-0.97130489 0.76314586 1.29638994
-0.40720674 -1.60840094 -0.31754768
-0.93065017 -1.52748442 -0.08406692
-0.28901070 -1.29049790 -1.18008220
-1.39125752 0.74371481 0.95194167
-1.33810329 1.23464942 0.70753074
-1.39376986 -0.09425238 -0.51182991
0.84770656 1.49734235 0.37698695
0.07803530 -0.47363141 -1.21941531
-0.08783287 -0.64178801 -1.21611369
0.48430365 0.31503850 2.04860544
1.19560647 0.35866842 1.08982050
0.58667630 0.33374986 -1.17404008
-1.00016546 0.58764642 -1.16389775
0.56841958 0.64645708 -1.18396711
0.22786333 -0.78870952 0.77377486
0.10874359 -0.95229262 -1.25409949
0.22284012 -0.11475683 1.88879383
0.38784763 -1.12762547 0.51716059
0.16670460 -1.61957979 -0.42844954
0.88793737 1.30207491 -1.12765205
-1.35031879 1.17768526 0.70097572
-1.14599407 0.92348462 -1.74570680
0.91481751 -1.24173450 -1.16521931
-1.08896935 0.41501844 -1.16117072
1.38834620 -0.01114395 -0.51500070
-0.79081428 -1.13936996 -1.24584341
0.39485815 -0.89533472 0.72525305
-0.72857904 -0.67106354 0.80488646
-0.37579906 1.27304780 1.21772575
0.79367870 -1.34234142 0.12584424
-1.16743124 -0.26912493 0.77507263
0.81113714 -1.56408083 -0.21888325
-0.20870391 -1.31369817 0.24137063
0.07071750 1.52394032 0.27884290
1.05727839 1.48937845 0.95839548
0.09484772 -1.29300272 -1.19220757
0.41251013 -1.61288548 -0.41282204
0.71449929 1.41255498 -0.96166724
-0.08514336 0.52887338 -1.21683741
-1.33974898 1.23464942 0.53473359
1.36846435 -0.86175501 -0.38649371
0.16648775 -1.61894572 -0.37292126
-1.37250757 0.69894308 -1.24294460
1.40888715 -0.24902664 0.40337771
-0.53269428 -1.56297195 -0.73019117
0.37002370 1.51804256 0.50562078
-1.38252866 -0.09344587 0.45044565
0.95124203 0.46351475 -1.16057158
0.53120989 1.17120337 1.22632563
0.93850356 -0.81420875 -1.24812067
1.19295669 0.03025694 0.83980870
-0.53124690 1.17120337 1.22632563
-0.76992416 -0.84666562 0.71087831
0.09700088 0.58947158 -1.20935524
1.15579903 -1.12184823 -1.59142566
1.42021573 0.45645753 -0.29810214
1.21228397 0.44911450 1.15863442
-1.10439992 1.47840142 0.27799565
0.40498903 -0.01019628 -1.19087315
1.27271795 -0.86334020 -1.50853729
0.78039998 0.98265344 -1.22230244
0.19409266 0.31727469 2.12844872
0.39605412 1.31947625 -1.15602338
1.03999770 -1.04032552 0.68177080
1.42752004 0.64609116 0.14788286
-1.41875982 0.41073900 0.16161390
-0.65490413 -1.58869016 -0.45598128
0.88176918 0.59047174 -1.16369355
-0.83134329 -1.28239834 0.22266969
0.78653806 0.85113156 -1.22924590
0.10800151 0.85332203 -1.20554221
0.85122639 1.44266534 -0.58689201
-0.57161629 -1.22449732 -1.18142498
-0.75560284 -1.11345088 0.49028310
1.15713644 -0.97616005 -1.74417734
0.59968454 -0.54882950 -1.17040932
0.87898910 -1.19623423 0.36324763
1.33485699 0.36494792 -0.99411613
-0.44535464 0.52767587 -1.18738079
-0.97444057 0.97434354 -1.55739152
-0.59048295 -0.25380763 -1.17367578
-0.82335550 1.50432479 0.86611885
-0.21549219 1.52258086 0.51045346
-0.07872646 0.42543951 -1.22124362
-0.10867398 0.64279264 -1.20153892
1.17087078 -1.23781395 0.54209638
1.04084766 -0.33006558 0.95905221
-1.06393826 0.43919650 1.32746220
1.34586728 -0.89775771 0.58954358
-0.22978356 -1.01058936 0.65825093
1.05713439 1.08708680 -1.48056686
-1.16316819 -0.83782136 -1.52227890
-0.77141345 -0.32538024 -1.16342163
-0.97444057 0.97434354 -1.55739152
1.33971202 1.23464942 0.53473359
0.56859732 -1.13998687 -1.22384298
-1.19389164 0.74579757 -1.59292281
0.92979914 -1.19704306 -1.26939523
0.84472173 -0.77247614 0.72101361
1.37749052 -1.08065569 0.20773332
-1.15980136 -0.19804248 0.79813421
1.34983361 -1.00809872 -0.98619097
0.73501623 -0.73249036 -1.17090487
-0.52795142 -1.56693447 -0.90160900
1.10430765 1.48015320 0.52940774
0.57266629 -0.82998586 -1.22093570
-0.22790033 -0.78870952 0.77377486
1.37180746 0.87605220 -0.31141245
1.35568416 0.91878098 -0.61235934
1.32696068 -0.53847539 -0.99808079
-0.79026622 -1.10282528 -1.26044083
1.26891291 1.23498964 -0.96323079
-0.92983621 -1.19704306 -1.26939523
-0.26223198 -0.58186924 0.99812567
1.05094004 -0.93133146 0.77051514
-1.41146660 0.38326538 0.66538262
1.01956630 1.29577470 -1.12765205
-0.92533296 1.07023752 1.18965054
-1.28180718 1.21707726 1.10500193
-0.90939516 -1.06215131 0.54344994
-1.15980136 -0.19804248 0.79813421
0.99803394 -0.81088674 -1.30237532
-0.16261531 -1.59890389 -0.28039539
-1.39376986 -0.09425238 -0.51182991
-0.78399724 -1.43632126 0.01483741
0.07521099 -0.86139935 0.76777810
-0.94332737 0.41718954 -1.16117072
1.35531414 1.00468600 0.88732487
0.92979914 -1.19704306 -1.26939523
0.33152887 1.10467827 -1.18245625
-0.40190056 -1.60375094 -0.29442209
1.37353265 0.91878337 0.20584831
0.96058202 0.69441998 -1.26192117
0.21737748 1.33552611 1.22650349
0.57138467 -0.85086888 -1.22458518
-0.68161595 -0.03270318 1.78825247
-1.31649327 -0.52280504 0.71297818
0.99337918 1.09199810 -1.40123034
0.41163459 -0.19149508 1.74285793
-0.07567548 -0.93768787 0.72514969
0.79367870 -1.34234142 0.12584424
-0.16353528 -1.58196712 -0.93745297
1.27007043 -1.29581642 -1.00980425
-0.98225766 -1.05823398 -1.57513762
-0.06732083 1.52014482 1.12014270
-0.05369545 -1.58367002 -0.94771969
-1.38335907 -1.00809872 -0.14360444
1.35531414 1.00468600 0.88732487
-1.37128019 0.96016890 -0.12225396
-0.11174624 0.69658059 -1.19504678
-0.09703788 0.58947158 -1.20935524
-0.64440364 0.39065275 1.89910090
-0.34037617 0.69667649 -1.19444513
1.23105884 1.37588871 1.12831676
-0.99281687 -0.92054325 0.71422482
0.51497531 1.08792782 1.31444132
0.76777405 -0.17644460 -1.16407430
-1.29488516 1.26228487 1.07148290
1.26067424 0.96144402 -1.59917355
-1.08382237 -0.25090069 -1.16138101
-0.74610579 -1.53689516 -0.80844271
-0.37180635 1.46188772 -0.60260767
0.53428549 1.37671101 1.19290662
-0.97130489 0.76314586 1.29638994
0.56949079 -0.91545022 -1.24048233
-1.07442319 0.84676623 1.16441429
-1.32665884 -0.93478662 -1.33107316
1.14328206 0.43121573 1.22044277
-0.69898212 1.45022845 -0.58765012
1.40698922 0.51641673 0.94960874
-1.38139391 -0.93478662 -0.18286753
-1.11632371 -0.97978896 0.79414034
0.97611195 1.44726694 -0.38719806
-1.20999408 -0.20904297 0.73999536
1.31290591 -0.23448588 0.64063555
-1.35706115 -1.25246692 -0.15270583
1.35190725 1.17768526 0.08578435
0.64907515 -1.55055416 -0.72854459
0.50271928 0.05241069 1.99243772
-1.35616386 -1.20627332 -0.52839828
-1.30710566 -0.71750033 0.76029944
-1.41173100 -0.38946095 -0.03024778
0.07134514 1.33835196 1.23669136
-0.40720674 -1.60840094 -0.31754768
-1.33519971 -1.25130773 -0.76998621
0.10901909 1.15829623 -1.18422341
0.76139826 -0.01043910 -1.16420388
0.34033918 0.69667649 -1.19444513
-0.97493190 1.49249148 0.65902215
-1.37883437 -0.72116292 -0.02883622
-0.16353528 -1.58196712 -0.93745297
-1.40892410 -0.24902664 0.40337771
-0.41178414 0.42314935 -1.19028711
0.98655093 -1.19174385 -1.35988569
0.33163187 0.52964395 1.99318039
-0.64305311 0.47801086 1.85077107
-0.41745183 -0.55029291 -1.18719423
1.42800832 0.64607859 0.31468523
0.35564449 1.52600944 0.94617814
-1.09245765 0.70630091 1.25844228
1.36632133 0.91878098 -0.32493410
0.80797702 0.95029646 1.28324521
-1.08465803 -0.11534461 0.98102522
1.36313188 1.04192495 -0.61748272
-0.18441895 -1.55589414 -1.11533427
-0.79527694 -1.22241914 -1.18434262
0.99177414 -0.95699090 0.68801081
-1.28738880 1.38659716 0.37688518
-0.41082489 -1.59343445 -0.56752753
1.17046475 1.08308291 -1.48776877
-0.96097183 -1.29808855 0.31990793
1.24784338 -1.39258492 -0.81246263
-1.40561771 0.38483000 0.77649111
1.37350774 -0.86175501 -0.19670846
-0.81200814 0.90535861 1.30906010
-0.92748159 1.06127357 -1.30901933
-0.08357754 -0.26560095 1.64674568
-0.06872673 1.53211617 0.89597028
-0.98225766 -1.05823398 -1.57513762
0.79367870 -1.34234142 0.12584424
-0.86430889 1.31354392 1.18670607
1.35248685 1.17768526 0.26994964
-0.51791316 1.51901805 0.86990637
1.43282557 0.51326340 0.62264639
-0.81452245 0.69641966 -1.20672011
0.20928824 1.52889192 0.88897264
-0.19888079 0.92072374 1.60469735
-1.37768066 -0.93478662 0.39468804
1.37598312 -0.93478662 -0.39007586
1.19618881 0.19535565 0.94275475
-0.22978356 -1.01058936 0.65825093
1.17046475 1.08308291 -1.48776877
-0.57037032 -0.87971359 -1.23069763
-1.40132129 -0.09425238 0.05408145
-1.28864157 0.67364013 1.14285958
1.16766012 1.46554077 1.00010931
-0.07567548 -0.93768787 0.72514969
-1.38835692 0.15546027 -0.43731543
1.34086478 -0.78917855 0.59007281
1.42793882 0.45628801 0.35132205
-1.37250757 0.69894308 -1.24294460
1.32834196 1.28335679 0.71168095
-1.33549464 -1.29516816 -0.43375620
1.39902663 -0.09425238 -0.31309232
-1.37950516 -1.04422975 -0.16169080
-0.89645320 -1.15006173 0.43303773
1.09159327 -1.17815161 0.58183646
-0.25797054 1.27325797 -1.17685807
-1.32296121 -0.01109721 -1.03324425
1.34862494 -0.93478662 -0.97926092
1.15436172 0.83691561 1.13279104
1.22475541 1.12192917 1.10538650
-1.33610451 -1.29516816 0.00279860
0.75958842 -1.56301868 -0.16914849
1.31260455 -1.33834839 -0.04887851
-0.64291233 -1.55457973 -0.89994061
-1.16127372 -0.86675245 -1.59729230
0.11221485 0.67422879 -1.19756103
-1.05731547 1.48937845 0.95839548
-0.79210156 -0.91559714 -1.26522362
-0.18441895 -1.55589414 -1.11533427
-0.29556990 0.59019059 -1.19879019
1.15914989 -0.58768463 0.75302750
-1.31572497 1.32599092 0.08763145
-1.32959390 1.28335679 0.54311967
-1.34935796 -0.08910255 0.54214120
0.48815724 0.22255357 2.05629611
0.23061253 1.32343459 -1.17368793
1.41244960 -0.24902664 0.11621965
1.25718546 -0.50920963 0.72726381
0.33145717 -1.17314339 -1.21138597
0.79308480 -1.20040226 -1.20971572
-0.76992416 -0.84666562 0.71087831
-1.33949494 1.23464942 0.09101005
1.35264039 -0.97166693 0.58176112
-0.79061717 -1.02855062 -1.27604878
-0.41148597 -1.61230016 -0.35725969
1.41410124 0.74010527 0.28979421
0.86659628 1.25582421 1.19049549
1.15766335 -0.80563098 -1.35208881
0.94682175 1.48594427 1.07708371
-0.22296698 1.36203086 -1.15868020
0.93120843 -0.73165059 0.73286897
-0.94499010 -1.20151925 0.40527350
1.36532152 -0.93478662 -0.65436554
-1.36727393 -0.78917855 0.38981834
1.22997928 0.73572981 1.15034008
0.39541525 -1.59283733 -0.25903293
-1.22335041 0.77971846 1.12682688
-1.16581488 1.04624367 -1.57756162
-0.99482191 -0.73800939 0.76932198
0.93283778 0.33018610 -1.16174197
-0.80175567 0.99356759 1.26654541
-1.03417099 -1.31009161 0.37310049
-1.18676579 -1.14624429 0.66775471
-0.72857904 -0.67106354 0.80488646
-0.99807101 -0.81088674 -1.30237532
1.43370581 0.51398540 0.16820545
1.17297697 -0.33839202 0.76418644
0.16294816 -1.60637915 -0.30034721
-1.28959405 -1.19511795 -1.21362484
-0.86663324 1.25582421 1.19049549
1.10436285 1.47840142 0.27799565
-1.43165243 0.58004272 0.60899848
0.33216849 0.80581731 -1.19848275
0.37502256 1.21973455 1.22535968
-1.35494709 -1.25246692 -0.27753770
-1.20014143 -1.02956176 0.79286373
-0.92790842 -1.16937041 -1.30820858
-0.66208869 1.51401937 0.99895561
1.38129699 1.04192495 0.28861055
1.36744130 -0.97166693 -0.65669191
1.32021105 0.87605220 -1.34280396
-1.12910235 0.92697304 1.11631310
-1.32414615 -1.25246692 0.25254455
1.33146393 0.83168882 -1.33391285
-1.04088473 -0.33006558 0.95905221
0.71878296 1.21043527 -1.14870131
1.40012860 -0.32015088 0.52159351
-0.21505189 1.47805870 -0.40588278
0.85632485 -1.23907411 0.29383236
-0.82146418 0.05145833 1.64652872
1.09115577 1.14385116 1.15322697
0.07071412 1.52579212 0.51387298
-0.33446532 -0.81306595 -1.21624947
1.21934652 1.40452778 -0.62157696
-0.73213142 -1.57945287 -0.29334375
-1.36664271 -1.00809872 -0.66192317
-0.81449789 0.13530944 1.69354367
-0.94401634 0.94436550 1.18977797
-0.32515612 1.17875218 -1.18120623
1.21765208 1.42355013 -0.18862878
-0.65129960 -1.55965185 -0.64335954
0.20504463 1.53073931 1.02797341
-1.28888237 -1.04056275 0.72575068
1.16681361 1.34515941 1.15922713
0.45029196 -0.58028036 0.98472273
-1.35414863 0.25141799 0.69610196
1.37064314 -0.82882786 -0.19774128
-0.68500757 -0.96343100 0.65040147
-0.19625549 0.66093367 1.89157248
-0.50741321 1.52085388 1.00532722
1.41872275 0.41073900 0.16161390
0.44666004 -1.45958591 -0.03321466
-0.68521267 -0.92629939 0.67682785
-1.04438663 -1.12641370 -1.58097959
0.28079590 -1.57956052 -0.92294413
-1.32505322 -0.82896256 -1.24891043
0.23581530 -0.01012050 -1.20900965
-0.10878060 -0.95229262 -1.25409949
1.28643537 -0.89409095 0.80521423
-1.37368715 -0.78917855 0.14670697
0.59130502 -1.54062152 -1.07361996
-1.37968504 -1.00809872 0.39281413
-1.15439868 0.83691561 1.13279104
1.35531414 1.00468600 0.88732487
-0.69570029 1.50517952 0.37700388
1.32735085 1.28335679 -0.11843206
-1.31630111 1.32726812 0.42425808
-0.98062450 1.01584589 -1.51566076
-1.25475073 0.85948247 1.08150458
-0.89847529 -0.57326442 0.82501715
-1.40132129 -0.09425238 0.05408145
0.86051905 -1.52441657 -0.02923735
-0.62308872 -0.26369411 1.56642342
0.32919127 -0.78870666 -1.20743334
-1.27059877 -0.43202701 0.71724391
0.06561656 -1.37731826 0.13424674
1.37076890 -0.78917855 -0.20535614
0.84450471 1.49971390 0.64351672
-0.56952780 -0.91545022 -1.24048233
0.95691508 0.47196719 1.47009063
-0.71682554 0.59170389 -1.17036152
1.07521379 -0.09468289 -1.16171825
1.18350148 1.45957363 0.95563358
0.58881950 -0.19097489 1.69412971
-0.40867880 0.37557819 -1.19077075
-1.32024813 0.87605220 -1.34280396
0.56820029 -1.06590188 -1.24365664
1.39850891 -0.53742445 0.39853287
0.93557733 -0.17579187 -1.16161478
-1.13323534 1.36298978 -1.04136467
-1.30547607 1.29767120 1.01911402
-1.16685081 1.34515941 1.15922713
0.33163187 0.52964395 1.99318039
0.34149629 0.91793776 1.58524740
-1.34295309 -0.62427145 0.69608730
-0.07317534 -0.11491878 1.90524209
-0.68377268 -0.88871294 0.70060384
-1.08896935 0.41501844 -1.16117072
-0.89847529 -0.57326442 0.82501715
0.28597495 -1.61419618 -0.47196415
0.07769789 -0.09585904 -1.22181618
0.23672996 -0.09573628 -1.20898283
0.92529601 1.07023752 1.18965054
1.37407577 -1.08065569 -0.20206715
0.53331351 1.50567734 0.14339505
1.33708537 -1.11856484 -0.98966515
-0.10906075 1.13585603 -1.18139803
0.96477860 1.15221477 1.17565596
-1.40995240 -0.38946095 -0.20241185
-1.28715146 1.38729119 0.65178394
0.79665822 -0.83050543 -1.23421729
1.36894810 -1.11879838 -0.25685015
0.95817071 0.13421994 1.42312288
1.38100314 -0.09425238 -0.77960807
-0.85636193 -1.23907411 0.29383236
-0.32908127 0.85290188 -1.20258057
-1.07586563 -0.54198831 -1.15814495
1.41321838 0.38393852 0.35024425
1.38954020 0.83169162 0.27068985
-0.06872673 1.53211617 0.89597028
-1.39011455 -0.62793046 0.13445930
-1.36747849 -0.97166693 -0.65669191
0.65323317 -0.64066267 -1.16851234
0.79327565 -0.87998211 -1.25256181
1.11250722 1.39390993 -0.94598603
1.27013540 -0.36131829 0.71035761
-1.10434842 1.47941744 0.38677418
-1.31615579 1.32734871 0.53840470
1.18314207 0.95831370 1.09336507
-1.35330117 0.45722345 -0.98927855
-0.20325102 1.01036263 1.48241961
0.07071412 1.52501416 0.38702768
0.82586128 -0.66771650 0.76739693
-1.36664271 -1.00809872 -0.66192317
1.17473698 0.69675797 1.21281195
0.64633214 0.52521443 1.81254470
-0.11225186 0.67422879 -1.19756103
-1.43246508 0.58046067 0.16230150
0.98459572 -0.77766198 0.76991856
1.35427392 0.52702469 1.07149172
-0.84667724 1.46615219 -0.20802067
-1.08006549 -0.17519602 -1.16161478
-1.22335041 0.77971846 1.12682688
0.56737798 -1.36891973 -1.14115369
-1.33391321 -0.46072853 -0.99971431
0.34187937 0.67514586 -1.19446349
0.67853242 -1.03738964 0.58799142
-1.24316204 -0.06507489 0.72427028
0.85122639 1.44266534 -0.58689201
-0.65327018 -0.64066267 -1.16851234
0.28225884 -1.57387054 -0.82941234
-0.80684495 0.44772089 1.67498910
0.19751343 0.72936594 1.81937099
-1.17737722 0.79004079 -1.67475259
-1.37883437 -0.72116292 -0.02883622
1.10310984 -1.39940715 -1.11027181
1.41231382 -0.24902664 0.27684587
0.93931687 0.39019519 -1.16148460
1.40527368 -0.17402151 -0.28523725
0.34187937 0.67514586 -1.19446349
-1.15439868 0.83691561 1.13279104
1.32200491 1.28330100 -0.34795174
0.37002370 1.51804256 0.50562078
-0.56894821 1.31485593 -1.13963020
-0.76438838 -0.09514357 -1.16417801
1.38933814 0.83170998 0.53176427
1.42752004 0.64609116 0.14788286
0.51787615 1.51901805 0.86990637
0.07841216 -0.32905221 -1.22102666
0.79367870 -1.34234142 0.12584424
-0.07807232 -0.47363141 -1.21941531
-1.35616386 -1.20627332 -0.52839828
0.56353426 1.02631795 -1.18727255
0.82037824 -0.63886654 -1.15871513
1.31699657 0.84610587 1.04387558
0.07809586 0.37763125 -1.22173834
-0.40722153 0.33502096 -1.19087112
-0.93005520 0.25154361 -1.16176474
1.38045108 0.78960347 0.94420648
0.06382668 0.59274101 1.98019266
0.99568844 1.14161575 -1.25827456
1.21957886 1.43388546 0.00104447
-0.33337396 0.31624570 2.10200238
0.20500545 1.51694512 1.11104608
1.31126666 -1.33834839 -0.45706034
-0.80729073 -1.19942737 0.35405731
-1.10622811 -0.80052841 0.87368470
0.54707140 -1.12392056 0.50566983
0.95506972 -0.63608205 -1.15626574
0.21737748 1.33552611 1.22650349
-0.64305311 0.47801086 1.85077107
1.32103038 -1.20348227 -1.00031281
0.93120843 -0.73165059 0.73286897
-0.89700961 -1.28747857 0.26109451
0.65433466 0.65347224 1.69810188
-0.65129960 -1.55965185 -0.64335954
-0.35946995 1.52433527 0.87908357
-1.04352820 -0.82142889 0.82020354
0.08354054 -0.26560095 1.64674568
0.49808666 0.96006203 1.49014282
-0.06373855 0.31800288 2.14716220
0.58577621 -0.09536897 -1.17401600
1.22444212 -1.33468807 0.33610415
1.37879729 -0.72116292 -0.02883622
0.78954518 -0.57610202 0.90365231
0.10727429 0.89911801 -1.20699358
1.07446110 -0.63333845 -1.15626574
1.04349113 -0.82142889 0.82020354
0.74985290 -1.57925510 -0.37672606
1.37037480 1.00109589 -0.33853301
-1.34280658 1.00109589 -0.95656461
1.37037480 1.00109589 -0.33853301
-1.27918327 -1.11513221 0.64170581
1.28710556 1.38021088 0.05055396
-1.42797589 0.45628801 0.35132205
0.78954518 -0.57610202 0.90365231
1.23789966 0.94653577 1.06961346
0.84802765 1.47954726 -0.02674287
-1.23693383 0.55188960 1.20350754
1.39359951 0.15546027 -0.24050733
0.65043592 0.58472610 1.76146328
-0.88797444 1.30207491 -1.12765205
-0.37657461 1.44708598 -0.81493151
1.29459739 -1.33814633 -0.79794097
0.63700908 0.52662539 -1.17137229
-1.37309611 0.96016890 0.04445579
0.07739618 0.16191734 -1.22184753
0.35214528 1.52617729 1.01622772
-1.27017248 -0.36131829 0.71035761
-0.33219528 1.13476694 -1.18082952
-0.10905610 1.15829623 -1.18422341
-0.07108480 1.46935737 -0.61997718
-0.23860981 -0.39985111 -1.20753443
-1.06202734 0.41704959 1.32245278
-1.18986773 -0.78519708 -1.22836864
1.39603519 -0.24902664 0.49797559
-0.65438205 0.91049695 1.44763517
-1.41537142 0.69620436 -0.30600101
0.38784763 -1.12762547 0.51716059
-0.07088463 1.18137419 1.26719952
0.98425633 -0.72820765 -1.16725230
-0.50758159 0.59120673 -1.18385971
1.10147357 1.43788826 -0.38738647
1.32020605 1.23325431 -0.65345609
-0.65684617 -1.52568138 -0.15061708
1.18790233 0.91561639 1.09442949
-1.31866193 -1.15752268 -1.24766862
1.38712823 0.83168882 -0.06956114
0.92411512 0.84830689 -1.36592948
-1.31709874 0.37953684 0.95632172
1.04903626 -0.87053031 -1.58678579
0.92991447 -0.87815988 -1.34730482
-1.04680490 -1.18673801 -1.42012358
0.76777405 -0.17644460 -1.16407430
-0.07088463 1.18137419 1.26719952
-0.30480006 -0.73070627 -1.20269001
-0.34903839 1.00731564 1.46460319
0.39505187 -1.37346113 -1.15756631
-0.83029509 1.45235384 1.13810492
0.79665822 -0.83050543 -1.23421729
-1.29420412 1.34091270 1.00628173
-0.32817236 1.02741981 -1.19034600
1.26821828 1.11017466 1.08157301
-1.20326471 -0.63103098 -1.13502562
0.92154253 -0.26157710 1.24744511
-1.15544319 -1.08567882 -1.65951324
1.21454167 -0.59968346 0.76550907
1.34291589 -0.62427145 0.69608730
-1.35616386 -1.20627332 -0.52839828
1.36618733 1.12575531 0.36846837
0.06428913 0.22473943 2.15513110
-1.28188980 1.08180511 -1.41400743
0.81416905 0.52464610 -1.16201472
1.37701654 1.08250320 0.04896248
-0.79501277 1.03547418 1.25324619
-0.07743320 0.16191734 -1.22184753
1.34932089 -0.08910255 0.54214120
0.09700088 0.58947158 -1.20935524
-1.15368748 -1.45169246 -0.67799443
1.31383264 1.32496905 -0.12599859
-0.69130808 1.41209960 1.17215657
-0.57562089 -1.58395481 -0.26062778
-0.58111495 0.72367615 -1.19171381
0.33641100 0.22344504 2.10979080
-0.05462180 -1.61217678 -0.53150398
1.38654077 -1.00809872 0.30190253
-0.99165821 -1.36736798 0.27037391
0.33345291 -0.82883865 -1.22242665
1.42793882 0.45628801 0.35132205
1.10665655 -1.05234945 0.73120636
-0.20814338 -1.49916112 -1.15519488
0.86203951 1.42807543 -0.79454631
1.39569366 0.15539245 0.25908285
1.37706316 1.00109589 0.03365778
-1.40300000 0.32494175 0.06792996
-0.05436020 -1.58891797 -0.67968452
-0.27925298 -1.59640324 -0.26956317
-1.23656869 -1.18465757 -1.36337399
-1.32117605 0.07172261 -1.02619398
1.32977319 1.28335679 0.28919956
0.41001272 0.39580593 -1.19060791
-1.43408060 0.51360345 0.48744765
1.40684736 0.74012554 -0.30870011
-1.27059877 -0.43202701 0.71724391
-0.84415537 -1.52900565 -0.90114188
-1.20771658 0.66832244 -1.31222665
-0.70511955 1.26285291 1.19574845
-1.18317914 0.95831370 1.09336507
0.07084762 1.18137419 1.26719952
-0.50972116 -1.59640896 -0.28513759
-1.37962866 -0.89775771 -0.01397058
-0.41167161 -0.19149508 1.74285793
-0.11174624 0.69658059 -1.19504678
1.37516773 1.08250320 -0.12551190
-0.51998264 -0.03265465 1.91704798
1.07661796 -1.46217978 0.09160752
-0.41159603 -1.60377872 -0.50778043
0.79523987 -1.22241914 -1.18434262
-1.40981233 -0.38946095 0.43021303
1.36632133 0.91878098 -0.32493410
-0.19412966 0.31727469 2.12844872
0.23857278 -0.39985111 -1.20753443
-0.16604558 -1.60000539 -0.58646137
-0.07317534 -0.11491878 1.90524209
-1.22600114 0.49452135 1.18468380
1.30967975 1.33083081 0.88897419
-1.39187884 -0.01082134 0.33144030
-1.32150781 1.12563157 -0.94262391
1.33708537 -1.11856484 -0.98966515
-1.14272356 0.12331199 0.99356890
0.23861726 -0.25518000 -1.20863354
-1.37368822 -1.04422975 -0.39541605
-0.23006596 -1.37736619 -1.17525172
1.26968610 -1.00931287 -1.62560654
1.05003750 -0.96776336 0.74447525
1.00617754 1.36803007 -1.06149316
1.13984168 1.09277248 1.12628675
1.36618733 1.12575531 0.36846837
0.79497564 1.03547418 1.25324619
1.00184870 1.39898145 -0.95889395
1.41014051 -0.24902664 -0.24877982
-0.10887874 -0.91406804 -1.24601817
0.56923890 -1.17320013 -1.21024871
-0.93005520 0.25154361 -1.16176474
-1.33906758 -1.29516816 -0.31247139
-1.23193192 1.41721892 1.05592477
1.15670907 1.12985778 -1.30387211
1.39165199 0.24738958 -0.38476303
0.99163091 -1.21274304 -1.26974940
-0.75955594 -1.07075226 0.54025179
-1.43278313 0.58026028 0.47235849
-1.02213120 -1.46201026 -1.09736025
1.31611872 1.32734871 0.53840470
0.75485063 -1.57643723 -0.45214158
-0.07075450 1.52394032 0.27884290
-0.65669030 1.04131424 1.32300985
-0.99595290 -1.49751580 -0.75992024
1.32410920 -1.25246692 0.25254455
-0.58111495 0.72367615 -1.19171381
1.07087636 0.46711674 1.33148623
1.37037480 1.00109589 -0.33853301
-1.40291893 0.64944959 0.97231984
1.00600910 -1.51421475 -0.49545279
-1.37309611 0.96016890 0.04445579
1.41272497 0.38411888 0.14909950
-1.39100945 0.32490352 0.67982316
0.68231660 1.16589630 1.21084654
1.37765908 1.08250320 0.31962919
0.90603828 -0.66403562 0.73851711
1.05937231 1.13612723 -1.29193950
-1.37295198 -1.11879838 0.13300663
0.54303163 -1.17055035 0.44453588
-0.71613401 -1.24961841 0.29185420
1.35871923 1.12569952 -0.33229989
1.40527368 -0.17402151 -0.28523725
-1.06994402 0.04808464 1.11087108
1.43420243 0.51388991 0.34050304
0.39578581 -0.93321484 0.70099407
1.37363923 0.96016997 0.18142122
-0.33838800 0.72389424 -1.19265819
-0.67856938 -1.03738964 0.58799142
-1.14792931 1.28980076 -1.10721660
0.54112929 1.26858544 1.20415497
-1.22301090 -0.32147434 -1.14136422
0.81915241 0.58133560 1.57785690
-1.27487838 0.83280152 -1.61693275
-0.19412966 0.31727469 2.12844872
-1.05007458 -0.96776336 0.74447525
-1.17898369 1.14595735 -1.19507599
-1.31703365 0.84610587 1.04387558
-1.33664358 -1.16090620 0.37228903
-1.05430019 1.10318720 1.15199184
0.33345291 -0.82883865 -1.22242665
0.98782408 -0.99313968 0.65930706
1.39872074 0.24738958 0.00117994
1.18983066 -0.78519708 -1.22836864
-1.40754199 -0.46020734 0.14111914
-1.39972305 0.78600258 0.74702615
-0.85734874 -1.41188335 -1.12425089
1.38135684 -0.93478662 -0.18286753
-0.39231822 -0.82033139 0.75276959
1.10991967 0.64128029 -1.20788741
1.01432133 1.39611816 1.16612577
-1.33712244 -1.11856484 -0.98966515
1.20363641 0.42178625 1.14113331
-1.27198851 -1.39381146 -0.20874639
0.48401850 -1.36639428 0.12198830
1.07988214 -0.46405101 -1.15942264
-0.53337419 1.49401140 -0.02838922
-1.39964318 -0.53742445 -0.02649820
-1.33870292 -0.24928075 -1.01846027
1.37952936 -0.72116292 0.13881287
