1.46404660 0.41107520 0.27034083
-0.99221134 0.83355063 1.19935775
-1.31421626 -1.09469163 -1.69725132
0.85349619 1.08433604 1.34472573
-1.27625215 0.82285833 1.12225056
0.08644571 -0.02439508 1.52528107
0.94959229 -1.34753549 0.04270758
0.68169785 0.91639149 1.04238296
0.08561439 0.08563422 1.49232531
1.16945159 -0.69412476 0.31286928
0.73987770 0.92793286 1.28560865
0.65299541 0.83205485 1.18332863
-0.85237950 -1.51313841 -0.20482002
-0.11666528 0.51623857 -1.48391783
1.03488028 -1.07422543 0.28595117
-0.77213603 -1.77146018 -0.90411502
0.83949292 1.01825142 1.02205479
-1.42043936 0.49484751 -0.31836382
1.41239452 -1.18975866 0.12554410
1.32589841 1.03736699 1.32286453
0.92638689 1.07986438 1.35485148
0.87327993 -1.35008073 0.03467432
0.95890409 -1.54132807 -1.41654813
-0.95719963 -1.17007935 -1.63466501
-0.99137831 0.91198671 0.68975455
-0.29980034 -1.81185031 -0.65945911
1.20999897 -0.77252430 0.26171738
-0.09254467 -0.63361800 0.95055884
1.19141698 1.02834320 1.22990620
-0.99595988 0.30859378 -1.49699211
1.30639195 -1.61564410 -1.13003993
1.41103840 0.29712930 -1.48758614
-0.07504641 -1.46186471 -0.04165673
-1.07860696 -1.49743485 -1.42651200
-0.66043538 -1.77110255 -0.57449299
-1.32768738 0.77463019 -1.25880671
1.43943644 -1.18975866 -0.75074756
-1.24869943 0.44789723 0.59716719
-1.41508245 0.53461409 0.00660066
-0.37549466 -1.11091518 -1.50106299
-1.15786314 0.81936818 1.16647768
-0.71175271 -1.78807175 -0.62430531
0.64512402 0.94772458 1.06024325
0.56504661 0.83853608 0.68445879
-0.48893529 -0.85972154 0.48180461
-0.42307767 1.05129611 1.39237475
-0.76969534 0.90368283 0.77612108
-0.83909136 1.01098704 1.01605356
1.24940443 -0.29198784 0.35365716
-0.22464053 0.83220458 1.14694786
-0.24403378 1.04635072 1.23771262
0.09460285 1.05738521 -0.76899195
-0.56667435 1.05006337 1.39112878
-1.30497921 0.98001128 0.45920616
-0.86940759 1.07353854 0.04844035
1.45289028 0.45357659 -0.29593390
1.41687000 -0.99102658 0.10968476
0.81075525 -0.75560963 -1.44353831
-1.25831151 -0.64514536 0.25797588
1.19141698 1.02834320 1.22990620
-0.40867823 -1.45615315 -0.05734373
-0.30446202 -1.81973815 -0.69248098
0.85155010 -1.34610343 -1.53207803
-0.85475129 0.99525374 1.34527481
-0.62006474 -1.27728164 -1.52015722
-0.24055752 1.04324400 -0.94922590
-1.41943765 -1.25796032 -0.74205691
-0.75236058 -1.44235218 -0.07741722
-1.25939143 0.40522897 0.61139208
1.25861371 0.99478036 0.59710479
1.15302563 1.05837119 0.22339186
0.85349619 1.08433604 1.34472573
0.76692480 0.82613719 1.16648281
-0.70348203 -1.18182290 0.20709549
-1.35861480 -1.36031342 -1.55134332
1.46282458 -0.82009637 -0.04259717
1.02721822 1.04964173 -0.42448387
0.73599327 1.06341136 -0.42474362
-1.11902642 0.34338519 -1.74014437
1.04482138 -1.71326041 -1.08285832
-1.06767869 1.07356691 1.36151016
1.09212029 -1.05367637 0.34058002
-0.38905311 -0.35049662 1.36379302
0.10584386 1.07869649 1.40235889
1.08517551 0.54298675 -1.95156074
-0.96320593 0.74728912 -1.48661458
0.42653009 0.98683280 0.67763287
-1.44164431 0.01926911 0.26942652
-1.07397807 0.66809011 0.63609004
-1.07149005 0.98096156 0.65250856
-1.44177544 -0.74826211 0.08245001
0.25312954 1.07889998 1.27836335
-0.50549382 0.22625476 1.29309201
-0.90188754 -1.43298090 -0.07428242
-0.72498536 -1.77317262 -0.55373251
-0.68813139 -1.36126995 0.04534103
1.06937718 0.88531131 -1.41307187
-1.44968414 -0.61796892 -0.77767926
-1.41486895 0.57310039 -0.36054927
-0.56719857 1.00416732 1.35403991
0.07509033 -1.78945506 -1.08973384
-0.98384309 1.07307768 0.47262561
0.63974369 -1.78062773 -0.60651612
-0.62273252 0.98441625 1.08912623
-1.00990033 -1.37265909 -1.73387647
-0.36713380 0.84351695 0.69733125
-0.24359109 0.91738993 1.11741233
1.34132552 0.90247464 1.13642991
-0.23611866 0.73717058 0.75947225
0.68196696 -1.77110255 -0.57449299
-0.95518118 -1.27469480 -1.66079652
0.85347670 1.08521783 1.33073235
1.09714365 -1.11779165 0.32697985
1.38997185 0.87375897 0.23860173
-1.36900353 0.68749601 -1.50218046
0.76755720 0.84218270 1.20789230
1.29502630 0.19328205 0.68024939
0.55134577 0.65277505 0.83218312
-0.96351665 -1.09131479 -1.56069732
0.85132748 0.04063429 1.12410796
-0.97727048 1.01762199 1.36358297
0.94047409 0.85024488 0.66894543
-1.01518357 0.66222250 -1.71393132
0.86068684 0.43579322 0.84647495
1.04458535 0.74189872 -1.53036761
0.52056056 -0.91671360 -1.46214390
1.19420218 0.89727700 1.11198986
1.25126541 -1.10817504 0.40255848
0.67686087 0.88387519 0.68390185
-0.24474739 -1.45937383 -0.04849833
-1.39587641 -1.05473828 -0.99380040
1.43625093 -1.36094296 -0.28103289
-1.12660074 0.27496058 0.76606560
-1.41790485 -1.18975866 -0.75074756
-1.41136932 -1.12181807 -0.04739426
0.76400065 1.08659875 1.30445421
0.68209654 -1.76105881 -1.12621510
-0.83658093 -0.63017446 0.78148901
-1.36844027 0.87375897 0.23860173
0.70168072 -1.66164815 -0.43748227
-0.07664794 -1.41765690 0.02396166
-0.83325702 -1.13884461 -1.52506804
0.36458650 -1.00008428 -1.47795761
-1.43756318 0.41105705 -0.66971320
1.43700290 0.57310146 -0.23755786
0.77615833 1.04278362 0.64397407
1.17796409 0.82392746 1.09471059
-0.25679228 -1.19033206 0.23961647
0.84278095 -1.69299877 -1.39697838
0.56219661 1.09243691 0.37448037
-0.12253316 0.30721217 -1.47546005
-0.95670611 -1.40799046 -1.57519031
0.13906054 0.47364727 -1.48264420
1.45100820 0.45357659 -0.46293357
-0.83612615 0.84413016 1.08595562
1.43686640 -1.12181807 -0.57710856
-0.23726185 1.09193301 1.37235069
-0.61725646 0.04660745 -1.45315337
-0.62120795 -1.17189407 -1.51391137
-1.41533482 -1.12181807 -0.57710856
1.38936079 -1.22406805 -1.60577548
1.07925487 -1.36260927 0.13066924
-1.46566308 0.10409857 0.30344474
-0.84212226 -0.27226436 1.07807100
-1.18056524 0.84272259 1.20206773
0.11299739 -0.86234295 0.50314927
0.26066059 0.87787175 1.09758437
0.57169926 -1.81241965 -0.76456171
1.09421766 -1.08430302 0.33605221
1.14989603 -1.37379146 0.17550179
0.11133594 0.86652350 -1.46693850
0.09559162 0.87850797 1.10010481
1.21176934 0.73096031 -1.57131302
-0.37549466 -1.11091518 -1.50106299
-0.98286861 -0.03375769 0.92531127
0.40845820 -1.53822637 -0.19190001
-0.05355878 -1.78945506 -1.08973384
-1.26056337 -1.56178319 -0.09865656
-1.08344221 -1.08455694 -1.69166327
1.37683332 0.91342115 -0.32177866
0.93147117 0.82787323 1.18844092
1.29464722 -1.42221129 -1.62474430
-0.55529451 1.05680907 -0.58990788
1.03620040 -0.42545786 0.69090927
-0.66056496 -1.76105881 -1.12621510
-0.47343597 -1.76033235 -1.37152934
-0.06718864 -1.60109270 -0.28042385
-0.05277156 -1.81593823 -0.67577463
-0.79955447 -1.54724443 -1.41844392
-1.27508652 0.82706344 1.09912145
-1.17229295 0.02203874 0.65898216
-1.41685998 -0.67905599 0.16014665
-0.20349394 -1.68457711 -0.43369928
0.44609338 -1.08293128 0.27330330
0.44829649 -1.81192517 -0.85577786
1.47162938 0.16028196 0.45225480
-1.08090913 0.55156690 0.62584609
1.27713501 1.02208924 -0.24036667
0.27503982 0.84886801 1.21446729
0.10424677 0.07552356 -1.49550664
0.53428447 0.35371897 1.16980922
0.79122686 0.90368283 0.77612108
-0.22866078 0.65892673 0.86967337
0.84929854 0.07744622 1.11290538
0.76811981 0.83940041 1.09529829
-0.83058804 1.06830895 1.26571739
0.86430138 0.28428617 0.96746302
-1.35511696 0.91473848 0.23065782
1.05205369 1.03002143 0.61312312
-1.32212579 -1.32204807 0.21684520
0.52426976 0.95963764 0.67933476
-1.32768738 0.77463019 -1.25880671
-1.07561195 -1.11779165 0.32697985
-1.31265676 0.85438025 0.59616858
0.38736761 0.40396613 1.16294944
1.48883700 0.28075248 0.29965606
1.32946980 -1.52562129 -1.30724764
-0.08959700 1.00805628 0.69119185
0.11222391 0.96645731 0.70334649
0.94047409 0.85024488 0.66894543
-1.18929279 -1.36378026 -1.82952881
-1.33190310 -1.22065663 0.29825023
-1.29491746 -0.52569598 0.22397779
0.09499875 0.95027822 1.15213716
-0.53317368 0.84693944 1.21257091
1.27938294 -0.71091008 0.25649670
1.16853654 -0.62820357 0.34616137
-0.37172660 0.57572532 0.96747476
0.79329467 0.88082498 1.06251860
-0.67104077 0.28775233 1.12403798
-1.43619561 -0.17551233 -0.61643887
1.34741247 0.96980244 -0.06203626
1.05746341 -0.49570334 0.60744631
0.98279518 0.02428181 -1.44359565
0.32849056 -1.82408929 -0.77714324
0.44747674 -1.80230427 -0.90936863
-1.18426764 -1.43721080 -1.58907723
0.24669825 0.61932850 0.92807132
0.74711782 0.89772838 1.02687061
1.08854234 1.07563066 1.35024989
0.39539078 1.08825314 1.29466426
1.42950463 0.57310039 -0.70046496
0.99977833 1.06317794 1.26204395
-0.10549115 0.81505817 -1.46909809
-1.14199626 -1.67513216 -1.31615388
1.35352302 -1.48344123 -1.30435956
-0.61821210 -1.78062773 -0.60651612
-1.22973382 -1.10817504 0.40255848
0.08901819 0.58054119 0.99718136
0.71917683 -1.07762790 0.25265259
0.93134695 0.82344145 1.10890949
-1.27637494 0.27881172 -1.48294675
-0.40001866 1.07390952 -0.42762658
0.52550238 0.83478522 1.11990333
-0.38204715 0.35326299 -1.47130632
-1.27509570 0.82260418 1.13656521
-1.42667663 -1.18975866 -0.24342717
-1.31299305 1.04234290 1.27716649
1.43488300 0.45357659 -0.93802905
1.44346464 -0.82053387 -1.02256465
-0.11868246 -1.43826294 -1.47665012
-1.19965363 0.65317500 -1.81707919
0.92515498 1.07501626 1.37595618
-1.37998164 0.82844704 -0.31874475
-0.07829597 -1.08670914 0.29694736
0.98223275 -1.05571997 -1.47461522
0.53618008 1.07541990 0.58797157
-0.29980034 -1.81185031 -0.65945911
-0.44423816 0.04788572 -1.46692383
0.99104387 0.87781543 1.07733881
1.43865788 0.61117429 -0.51700497
0.29294476 -0.83300197 -1.48010671
-1.30844831 -0.72204626 0.24359713
-0.18316682 -1.79249775 -1.33063781
1.28784406 0.36430687 0.63250631
-1.23410892 -1.04066336 0.39474174
0.28417566 -0.25032949 -1.48344767
-1.22462714 -1.05059695 -1.50351286
-0.26758194 0.07455852 -1.48291552
1.36142409 0.58647001 0.51811934
-0.08117924 -0.16955833 -1.49604845
-0.66920722 0.90468699 0.69709110
0.79262340 -1.00165427 -1.45066345
1.40723169 0.77519423 -0.70171416
-0.35987908 0.22810309 1.33694494
-0.98409992 -0.19527204 0.87745827
1.35572171 0.31000936 -1.61468232
-1.46566308 0.10409857 0.30344474
-1.36537921 -0.66888183 0.20906998
-0.23726185 1.09193301 1.37235069
-0.95719963 -1.17007935 -1.63466501
-1.24793994 0.09767136 0.63995445
-0.97920215 -0.69540107 0.51853198
-0.98716283 0.84508145 1.21187615
0.09477451 1.09815383 -0.05320829
-0.85611004 1.07720959 0.29221460
-0.07129406 1.07943571 1.27937174
0.76317888 1.08841836 1.31974840
0.51714033 1.09560597 0.45295131
-0.83654952 0.82167757 1.15007985
-0.66920722 0.90468699 0.69709110
0.69257230 0.28775233 1.12403798
0.53679365 0.83901936 1.19945765
0.24565090 -0.27088773 1.45525610
1.12629533 0.46760306 0.64514470
-1.31589425 0.97434533 1.22649646
-1.41957879 0.68690681 -0.22229950
-1.01461852 0.76017511 -1.46687746
-0.98790252 -0.27281460 0.83103853
-1.41236043 -1.09118617 -0.57803601
-0.08139997 -0.08130102 -1.49606395
-0.54208642 -1.49335051 -0.12949039
0.39171940 0.63549459 -1.46891522
-0.74291527 1.08608627 1.36116958
1.44636524 -1.29157269 -0.16000995
-1.39274752 0.53796375 0.40155450
1.31780529 0.95725572 0.56642330
-1.42955613 -0.48202613 -1.08613241
1.05709684 -1.73561561 -0.78959292
1.43710160 -1.09118617 -0.15111339
-0.24805498 0.94632530 -1.43835270
-1.34508145 0.50825387 0.52646643
0.10348241 -0.48587918 -1.49592304
1.14850008 -0.49735713 0.42371812
1.40589345 0.49484751 -1.26424932
-0.07841664 0.85073322 0.71601999
1.47715783 -0.55180269 -0.15186897
1.48883700 0.28075248 0.29965606
-0.93660766 1.05552649 0.57991993
1.04218769 0.69573987 -1.65873826
1.20506930 0.49902987 -1.97539818
1.19081998 0.91540509 0.64435613
-0.83647740 0.83619207 1.09218156
0.86839724 0.85331267 0.67271543
-0.88303727 -0.42581984 0.92385018
1.45108771 -0.48202613 -1.08613241
-1.06186891 -1.53583860 -1.41654813
1.12265122 0.11441866 0.79517096
-0.77176309 0.88082498 1.06251860
0.92959487 0.83603513 1.20182860
0.09882098 -1.37392497 0.08076793
0.92998075 0.87111986 0.68109745
-1.41547132 0.57310146 -0.23755786
-1.40995514 0.45695162 0.43456954
0.39487359 -1.31144643 -1.52018523
0.53104055 -1.80241001 -0.64410287
-0.51283139 0.40156147 1.12421250
-1.40097189 -0.99321383 -1.01249623
1.28209496 -1.56178319 -0.09865656
-0.62228405 0.42901385 -1.47313190
0.11000838 -0.56716037 1.07650757
-0.05396476 -1.80999827 -0.93246549
1.19653547 0.87019145 0.64415371
0.88468611 1.06608140 1.39063895
-1.07420647 0.59138614 0.62860799
1.15773463 1.05056334 -0.26760870
0.39906546 1.09742272 0.38334715
-1.07223690 0.81539935 1.12977254
-0.99964660 0.21719691 0.87774813
1.29152846 0.82324469 1.15014350
0.44648007 0.89931488 1.26041687
-1.39352775 0.72869056 0.41125751
0.50318366 1.03145874 0.64990187
0.85805506 0.82627779 1.11159134
-1.20627034 -0.70071763 0.27408534
-0.97831041 0.09319811 0.92791224
-0.70198041 -1.14685845 0.22844081
-0.30470780 -1.79407275 -0.99237901
-1.43619561 -0.17551233 -0.61643887
-0.71200025 0.97738469 0.75616986
-1.25831151 -0.64514536 0.25797588
-0.26933619 0.93340892 1.29099309
-1.44417453 -0.40781769 -0.35190570
1.02913857 1.01547813 -0.92971581
-1.39536476 0.17015044 0.56170261
1.07005596 0.34689754 -1.66850090
1.23035467 0.78152680 -1.40795135
-1.42336154 0.64915729 -0.24658130
-0.26300842 -0.16997238 -1.48345149
0.81137568 0.02623371 -1.44553626
1.44407547 0.41442505 0.44740370
0.09499875 0.95027822 1.15213716
1.36913490 -0.00518993 0.41403922
0.65752035 -1.79835570 -0.66001433
-1.20451987 0.68744612 -1.73644757
1.22060835 -1.67717373 -0.74525601
1.05240262 -1.72040832 -0.92190528
-0.86141980 -1.66111374 -0.33930662
-1.41197348 0.68690681 -0.70108825
0.96243489 -1.27265632 0.12448090
-0.86630851 -1.03876281 0.24698222
-0.79804194 -0.82878661 -1.44238913
-1.33134365 -1.25454867 0.27848688
0.98673111 -0.62152696 -1.44298470
1.29416406 0.96737623 0.59761417
-0.07603457 1.04717636 1.24376357
-0.94220179 0.84522343 -1.41581953
-0.74433863 1.08151805 1.28806043
0.44181511 1.07552218 1.40078688
-1.31589425 0.97434533 1.22649646
-1.00418699 -0.93736964 0.25807220
0.20406277 -1.82584047 -0.73425204
-1.32972145 0.41203842 -1.81240630
-1.36700618 -0.82107413 -1.29672027
-0.50950903 -1.80241001 -0.64410287
-0.92986107 -1.66546845 -0.29332736
0.92323899 1.07092917 1.38396633
-0.94971859 0.62964368 -1.59855103
0.24049661 1.10322261 0.45310050
-1.42106867 0.49485025 -0.18621698
0.96920949 1.03263974 0.62417495
1.12164474 -0.27540287 0.59706420
-1.29627371 0.95725572 0.56642330
-0.69487029 1.08629692 0.37031516
-0.98156089 0.86127502 1.22594678
-0.98712498 1.07287943 0.45377374
-1.22951472 0.93442708 0.63246578
1.20261502 0.87975371 -1.39472151
-1.35865784 -1.56518841 -0.53171873
-0.97817785 0.07353746 0.93154633
-0.54477298 0.73054421 0.73072964
1.47795498 0.03653533 0.07118326
1.10563064 -1.44311762 -1.57526147
-0.95548749 -1.74113989 -0.47595936
0.53011608 1.08718300 1.29358721
1.00651276 0.96791935 1.13623154
1.27580452 0.86243314 1.20326304
1.33442318 0.45461169 -1.85243344
-0.71270579 1.03978789 -0.74839795
0.92643541 1.08214784 1.31374776
1.16838515 -1.02798116 0.37578720
1.15741944 1.05520713 -0.15083650
1.43895972 -0.74486613 0.17290905
-0.51871204 0.57277739 0.93626171
-0.57394314 0.97988582 0.67846733
-1.32236362 -1.05089152 0.32218733
0.69504923 0.35073349 1.06752384
-0.57111341 -1.36546409 0.05274718
1.43745613 -1.32545924 -0.58192056
-1.31151485 -1.43906677 0.07547298
-1.43260562 -0.90429330 -0.16103339
0.88303757 1.07851660 0.49578276
1.44435632 0.64915729 -0.02222921
-0.42350936 -1.05149055 0.27874747
-1.31927288 0.85642815 1.13446510
-0.83612615 0.84413016 1.08595562
-0.29978648 -0.91696531 -1.47836208
-0.23820810 0.81318611 0.71206850
-1.22970283 -1.31181490 0.28051364
-1.40456176 0.64915729 -0.95495301
-0.82137913 1.02715015 1.12356591
-0.41914961 1.09732938 0.50742918
0.42141429 1.08967638 -0.15297146
0.39397162 0.67337644 -1.46488857
-0.98409992 -0.19527204 0.87745827
1.33067036 0.84836674 1.08890665
0.85775208 0.88675457 0.72421038
-0.10549115 0.81505817 -1.46909809
-0.48341537 0.17064884 -1.46415663
-1.19965363 0.65317500 -1.81707919
-0.50753951 -0.69966727 0.78143108
0.24617209 0.83340120 1.17363501
-0.83776665 0.16792698 -1.44367373
-0.50397080 0.83478522 1.11990333
1.26006842 -0.90717769 -1.41969323
1.29416406 0.96737623 0.59761417
0.64349979 -1.43780255 -1.47422516
0.09001499 1.09692395 1.34170091
1.30167592 0.83122796 1.16598797
1.30649400 -1.52161157 -0.03850530
-1.39728856 -1.44232023 -0.87495750
1.28844869 0.93107235 0.62055892
1.42404413 0.49484751 -0.94378126
-0.50557101 0.83418685 1.18542528
0.74785179 1.08585286 0.41650271
1.46458530 -0.82009637 -0.15210912
-0.44603795 -0.49821216 1.16138089
-1.42089939 0.49486873 0.03926120
0.09680997 0.81597197 0.72163635
0.60470104 -1.21995091 0.19168569
-0.62679613 -0.83061439 -1.45012987
0.96633184 -1.03775477 0.25473845
-0.08167940 -0.00684661 -1.49604249
-1.42165160 -1.15531099 -0.41301468
-1.31868124 0.88115638 1.14651632
-1.44417453 -0.40781769 -0.35190570
0.27749988 -1.25984275 0.18864404
-0.70090979 -1.25062323 0.15770772
-1.24865866 0.89503521 1.11197436
-1.03052211 1.03002143 0.61312312
0.41982931 -1.49695909 -0.12219989
-0.92664647 1.07524025 0.49686196
-0.23937750 1.09561157 0.05719008
1.03641999 -1.24404395 0.19157133
-0.36974868 0.83255535 1.17280340
1.32826805 0.82876348 -1.26542592
-1.19907677 -1.67717373 -0.74525601
0.80235875 0.85621613 0.67486906
0.49585676 -0.56606042 1.04493678
-0.56598443 1.02104068 -1.12042034
-1.29444420 0.86176795 1.18147981
-0.83081341 0.83905095 1.20480716
1.27372897 1.06663001 1.28647292
-1.15092885 1.07140863 1.35807443
-0.22411937 -0.27088773 1.45525610
-0.43785080 1.07827711 0.59154737
0.64946234 1.09097683 1.35112011
1.30644596 0.00481556 0.50390422
1.26719105 1.02790868 1.23274064
-0.68548787 0.72598493 0.71066058
-0.84355921 0.34693241 0.91886967
-0.11828374 0.27804551 -1.47850776
-1.29829931 1.05678082 1.28803098
-0.24995963 1.05208111 0.64997220
0.76699537 0.82892007 1.18023884
0.22483614 -1.76709175 -1.39951479
0.09237014 1.10475874 0.40321156
1.30812800 1.03568971 1.34046602
1.23437536 0.26621839 0.71739429
-0.74568260 0.83393210 1.19445145
-1.45035744 0.10463490 -0.98711491
1.43389213 -1.09118617 -0.57803601
0.28993115 1.06628704 1.40087616
-1.15576148 0.81581825 1.12816501
-0.11871821 -1.13715708 -1.50892103
-1.45195603 0.28170690 -0.95561546
1.02571845 -0.93736964 0.25807220
1.43610120 -1.09118617 -0.41535634
1.38894284 0.87375897 -0.50681841
1.10163903 0.82414317 1.18357098
-0.23788719 1.06477857 1.25984347
-0.98279631 0.11893099 0.91963410
1.44050956 0.68690681 -0.35650238
-1.14199626 -1.67513216 -1.31615388
0.98003852 0.71374291 0.65903980
1.13753569 -1.60416317 -0.12833326
1.41228616 -1.25796032 -1.28604364
-0.65261620 -1.48862243 -0.13550417
-0.23591526 0.84096915 1.20137489
-1.26977992 1.06624663 1.30409181
0.56349677 -0.35051465 1.31916869
-1.06186950 -0.76575530 0.32896495
-0.66920722 0.90468699 0.69709110
0.55831409 0.69170111 0.77867675
1.39417207 0.82818753 -0.70767832
1.30388463 -1.07558227 -1.64145863
1.49837220 0.21967506 0.02369634
0.08714359 -0.11113224 1.53242731
-1.02944982 0.98132348 -1.26153159
0.98605603 0.04285927 -1.44345260
0.26670596 0.89388472 1.10394895
-1.42150104 0.36856189 -1.25831318
1.30514264 0.22534406 -1.42668819
0.73751909 1.04670024 1.38778293
1.20919740 -0.96472299 0.33995828
0.10584386 1.07869649 1.40235889
0.26039791 1.05421305 -0.76384652
0.55956227 1.08159208 1.39485979
1.43745613 -1.32545924 -0.58192056
0.10321093 -0.00684661 -1.49604249
-0.50549382 0.22625476 1.29309201
0.65752035 -1.79835570 -0.66001433
-0.26526865 -0.75971895 -1.48129261
-0.73381573 0.99388540 -1.26379514
0.94817805 1.07524025 0.49686196
-1.40797305 0.57310039 -0.70046496
0.75393444 -1.51325536 -1.42961895
-0.99310625 0.43103689 0.73179823
0.29364082 0.11800999 -1.48209071
-1.19213355 -1.67113638 -0.91295272
0.56935757 -1.79440439 -0.90516579
0.24536970 1.09603035 1.32706034
-0.79555571 1.02053368 1.02234185
1.03878903 -1.71708882 -1.19663703
-0.06506281 0.23111780 1.37554276
0.84319091 0.60417098 0.73685575
1.12064826 -0.19824325 0.64758533
-0.38251370 0.86427361 1.09358048
0.09108117 0.83682859 1.18802273
-0.06436354 0.04830725 1.50681031
-0.90993959 0.82787323 1.18844092
-0.70323473 1.08445299 0.28954011
1.11525214 0.84743911 0.65456712
1.37095618 0.66250169 0.52788556
-0.28077766 -1.55952597 -1.45539308
0.76086736 0.93300253 -1.40193319
1.39417207 0.82818753 -0.70767832
0.65204918 0.82929087 1.16959345
-0.61769110 -0.62391794 -1.45268154
-1.31711912 0.99620277 1.21522224
0.59820414 -1.04929125 0.26680577
1.20060575 0.53897339 -1.96806920
-0.94641918 -1.06846273 0.24949449
-0.83039153 -1.27702308 -1.54600596
-1.45744514 -0.61796892 -0.13452984
1.40536296 -1.32545924 0.03760367
-0.41655657 -1.81189930 -0.66416544
-1.32350278 0.79154319 0.58400828
-0.87234735 -1.13807607 0.21747264
-0.08547468 1.03399646 1.37968814
0.73895425 0.96598792 1.31989443
-1.45057571 -0.74826211 -0.13782130
-0.44616282 0.07331078 -1.46663642
1.25758636 1.03286159 0.39360109
1.03184223 -1.23614705 -1.83651114
-0.84211326 0.39432171 0.88207161
0.66858429 1.08373213 0.53741366
-1.24258542 -0.17459111 -1.42649901
0.77536440 0.80565071 -1.43074930
-0.88164866 -1.75775373 -0.89650983
0.42874682 0.96414733 0.68351597
-0.92986107 -1.66546845 -0.29332736
1.41311896 -1.22406805 -1.28369606
1.34006834 0.88580680 1.10742939
-0.97908866 0.98391116 0.68622816
1.46668434 0.41106436 -0.01947616
-1.37264049 0.82818753 -0.70767832
1.18095660 0.62042940 0.60722327
0.79513717 -1.78094840 -0.85096246
-0.51981962 0.86307627 1.09192240
-1.44177544 -0.74826211 0.08245001
0.31838149 -0.63298887 0.93808049
-0.83190107 1.08325255 1.30119967
1.43559897 -1.15531099 -0.75272238
0.39128026 0.83135879 1.14611590
1.12164474 -0.27540287 0.59706420
-1.15090489 1.07580769 1.32089651
-0.78146100 -1.51650858 -0.21215741
-0.22464053 0.83214217 1.16041052
-0.06624785 0.35964900 1.24548042
1.09932458 -0.85045272 0.26179627
-1.43437052 -0.33020255 -0.10284459
1.42867768 -1.09118617 -0.74817002
-0.73168164 -1.74374104 -1.36247969
1.45499945 -0.01788094 0.20999427
1.33142281 -1.61678517 -0.58791834
0.12702268 0.81505817 -1.46909809
1.45570517 -0.08999138 -0.74597675
-0.38733155 1.09019768 1.37721145
0.10569473 -0.95179349 0.38683772
0.84760618 0.47161859 -1.50399125
-0.23938945 1.09389329 -0.15142481
1.42859304 0.72714382 -0.33698475
1.44464874 -0.40781769 -1.10053742
1.37738669 0.91424143 -0.14496608
1.32505274 -1.61703122 -0.50878590
1.41755676 -1.48529363 -0.64969116
0.54024351 0.57277739 0.93626171
-0.78267318 -0.17188902 -1.44563007
0.26512259 0.91738993 1.11741233
-0.86540306 1.05811822 0.58295554
0.74110985 0.87083626 1.23534513
1.45289028 0.45357659 -0.29593390
1.43705440 0.53460646 -0.10918135
0.08787385 0.49413037 1.10350740
-1.47702205 0.21981488 -0.10459320
-1.36186063 0.87370706 -0.71292114
-1.32928967 0.74882585 0.56795031
0.39128026 0.83129632 1.15957868
-0.42494848 0.89931488 1.26041687
-1.31927288 0.85642815 1.13446510
-0.55529451 1.05680907 -0.58990788
-1.07517290 0.87593096 1.08909714
-1.27557158 -1.61714363 -0.35346311
0.98204172 -0.75365192 -1.44160128
-1.07895327 0.84739816 1.07841337
1.10991800 0.84338933 1.20871186
0.69023120 -1.79232037 -0.85096246
-0.61979443 -1.34658122 -1.50957155
-1.40058291 0.15974556 -1.28236282
-1.22031915 1.05734897 1.37074006
0.99190789 -1.43789744 -0.03654427
-0.08245043 0.88493365 0.71214259
0.39789250 -1.09137201 -1.49795663
0.40588680 0.32799676 -1.47292483
-0.93660766 1.05552649 0.57991993
0.86473840 0.87290615 0.68816352
1.07200170 -1.68022990 -1.38587070
0.50318366 1.03145874 0.64990187
0.66858429 1.08373213 0.53741366
0.68217927 0.04326570 1.30448747
0.11000838 -0.56716037 1.07650757
-0.83458471 0.28282267 -1.45655429
1.00869441 0.84508145 1.21187615
-0.50397080 0.83478522 1.11990333
-1.13458693 -1.62199080 -1.39746499
-0.93341899 -1.30824471 0.08753460
1.29735041 -0.22532851 0.31313887
-0.07768215 -1.33348739 0.12763485
0.99933702 0.86188060 1.07870960
1.42934012 0.22508763 -1.27539515
0.10346986 -0.76063353 -1.49386704
-0.66043538 -1.77110255 -0.57449299
0.28560692 -0.40917155 -1.48342371
-1.21768248 0.57137460 0.58134431
0.78933996 -1.78930163 -0.73875976
-1.44995046 0.36839613 -0.67767423
-1.31927288 0.85642815 1.13446510
-1.23517919 0.49040288 0.58773744
1.49217260 0.28081971 0.13613668
-1.37702107 -1.40011549 -0.06616347
1.21209824 0.83409786 -1.39634848
0.87391114 -1.51313841 -0.20482002
0.65287435 0.83680540 1.10736895
-1.39872396 -1.32545924 -1.01721370
0.84788924 1.07403767 1.38712561
-0.73366386 1.00736451 1.00838685
-0.37335330 -1.34633863 -1.51242375
1.29416406 0.96737623 0.59761417
1.28091633 1.00857270 0.52302909
0.11222391 0.96645731 0.70334649
0.59288484 0.99956816 -1.27035964
0.10346986 -0.76063353 -1.49386704
-0.22464053 0.83375716 1.13388240
0.73599327 1.06341136 -0.42474362
-1.11047006 -0.75183779 -1.44160128
-1.23664248 -0.99516964 -1.42929530
-0.65923923 0.12453024 1.26109838
-1.36981952 -1.52483010 -0.91401148
0.87764168 1.07720959 0.29221460
-0.35915253 -0.02609282 1.48316455
-1.44591749 -0.01784537 -0.33947009
0.98673111 -0.62152696 -1.44298470
-0.23842393 -1.50029886 -0.11423457
0.84728366 0.88663995 1.01568007
1.21051681 -1.29608071 -1.93789732
0.10045653 -1.60369790 -1.46548438
0.99791360 0.28196746 -1.46114671
0.44916794 -1.59725523 -1.43731964
-1.31486642 0.89636737 0.57987303
-0.43866345 -0.32963267 -1.46716154
-0.18233676 -1.81790829 -0.87069619
0.66598904 1.09009099 0.46888492
1.21176934 0.73096031 -1.57131302
-1.05724227 0.27924576 -1.47405791
1.34185243 0.97305930 0.35003400
1.27687562 1.02581000 -0.12148992
-0.33539921 0.81252027 -1.45759547
-1.25939143 0.40522897 0.61139208
-1.34942448 0.66250169 0.52788556
1.23314226 0.20358895 0.73218030
0.96760136 -0.56347829 0.71970415
0.91810954 0.86379755 1.07665133
-0.78640336 -1.07383442 0.24676251
1.09463716 -1.33441830 -1.87930024
1.32997990 -0.72204626 0.24359713
-0.22484532 1.09416103 1.31189060
1.21176934 0.73096031 -1.57131302
-1.19711745 0.99854952 0.61171114
0.85297000 -1.77518523 -0.59702098
0.39638963 0.73529154 -1.46070528
1.41384149 -1.48529363 -0.35126606
-1.13588786 1.05520713 -0.15083650
-1.09372056 0.84743911 0.65456712
-1.08500779 1.06530857 0.48594433
-1.38949943 -1.18975866 -1.27982056
1.48432648 0.06181897 -0.07929288
1.02683342 1.06611907 -0.06046871
1.46450627 -0.61796892 0.06790812
0.73917711 -1.73566055 -0.50720930
0.36880013 1.08142686 0.59702903
-0.22669642 1.10157025 0.39416927
-1.41471934 -1.36094296 -0.28103289
-0.63051772 0.82929087 1.16959345
1.33781040 0.96121037 1.16987169
-0.24967451 0.87789190 0.70349509
-1.39519620 -0.08624382 0.22461219
0.89999908 0.96335107 0.85660321
0.19995368 -1.81415534 -0.66865885
-0.66064769 0.04326570 1.30448747
-1.17907417 0.53897339 -1.96806920
0.93372095 0.96728343 1.07628357
1.20933211 0.45843902 0.61674774
0.42139471 1.09066999 -0.05823126
1.42230523 0.65249342 0.40208864
-0.05416181 -1.82556021 -0.83642089
-1.41686666 0.68690681 0.19202310
-1.30898213 -1.15631056 -1.80423999
-1.16938102 1.00213695 1.20580423
1.44969344 -1.25796032 -0.35018402
-1.23212540 0.91403693 0.63206154
-0.22464053 0.83214217 1.16041052
-1.29353976 0.90507638 1.21336162
0.85807765 0.83045220 1.10118163
-0.91117829 0.89117235 -1.41307187
1.43922317 -1.29157269 -0.07786249
0.57756615 1.08510268 -0.15427956
0.42333177 1.03917456 -0.94009179
-1.43062162 0.32836542 -1.25697756
-1.01213992 -1.16642332 -1.78385746
-0.22464053 0.83220458 1.14694786
-1.05577314 -0.56229848 0.52990168
1.25215566 0.01353026 0.57816130
1.47651422 -0.68244737 -0.42763117
-1.30514526 0.83176297 1.10469508
1.30135965 0.84103251 1.08526027
1.24687696 0.83545977 1.08349061
-1.25750363 -0.55271202 -1.42674398
1.25365698 0.91403693 0.63206154
1.01922989 0.38981175 0.76365536
0.53428447 0.35371897 1.16980922
-0.23441797 0.98705703 1.17414892
-0.49827757 1.08993852 0.54348338
0.46553472 -0.55683619 -1.46682906
-0.83196461 1.08433604 1.34472573
-1.34373200 0.62452739 0.52204651
-0.46284708 0.84098363 0.69012201
1.38853765 -0.82107413 -1.29672027
-0.40076354 0.91857558 0.68942380
-0.79955447 -1.54724443 -1.41844392
-0.22613122 0.84667176 1.10243177
-0.86117285 0.99056518 0.87916648
1.11029899 0.95435607 1.30646312
-1.40773416 0.72714382 -0.06959432
-1.16702068 -1.68253469 -0.47329408
-1.20494151 -1.47166204 0.08631917
-0.62473178 -1.09243917 -1.49661803
0.69374591 0.56887710 0.86008209
1.09376836 0.81539935 1.12977254
1.34517181 0.95910752 -0.53843141
0.44087368 -1.78563321 -1.21608603
-1.41548371 -1.29157269 -0.75554287
0.88292301 1.07307100 0.53549445
1.26970208 1.01360333 0.54157174
-1.11849737 1.06074917 0.33914962
-0.58323175 -1.18526447 0.21556689
-1.36665416 -1.18975866 -1.59573889
1.08920121 -0.94342667 0.27925768
-1.42023146 -1.22406805 -0.74235868
-1.24869943 0.44789723 0.59716719
1.47216499 -0.74826211 -0.27374810
1.46507704 -0.01868798 0.10529604
0.65287435 0.83680540 1.10736895
1.21140981 -1.26230502 -1.96551311
1.35726202 -1.06493020 -1.49926257
1.09302163 0.98096156 0.65250856
-1.36700618 -0.82107413 -1.29672027
-1.08876741 0.95435607 1.30646312
0.80235875 0.85621613 0.67486906
-0.22473730 0.83675301 1.12183678
-1.29542804 -1.61544323 -0.95242715
-0.98408878 0.35029584 -1.56000972
-1.15092885 1.07140863 1.35807443
-0.08163913 1.05507874 0.66149604
1.49804211 0.21986145 -0.25472689
1.11189234 0.88332719 1.24280906
-0.71446180 1.06341136 -0.42474362
-0.39451352 0.73399282 0.74573046
-0.83915532 0.43579322 0.84647495
0.83376735 -0.85605341 0.41078895
-0.83748257 1.00662732 0.90252209
1.28844869 0.93107235 0.62055892
-0.21191762 0.10365871 1.46324527
0.26768184 1.00783670 -1.29578185
0.84788924 1.07403767 1.38712561
-0.93341899 -1.30824471 0.08753460
-1.23605478 1.03286159 0.39360109
-0.92664647 1.07524025 0.49686196
1.45590222 -0.33020255 -0.10284459
-1.26978898 1.06180894 1.34155071
1.47729886 -0.55180269 -0.29610720
1.02242017 -1.31345475 0.12443686
1.13200176 -0.75183779 -1.44160128
1.18306744 0.54221863 0.60195094
-1.07519472 0.82947499 1.08630955
-1.45113754 0.01888673 -0.29320952
-0.87906027 -1.74654996 -0.97090274
0.28602922 -0.00762648 -1.48344588
-0.09146584 -0.86234295 0.50314927
-0.74602568 0.84218270 1.20789230
1.11010003 -1.49871969 0.00028164
1.26970208 1.01360333 0.54157174
0.64812225 -1.07819712 -1.48683214
1.12861252 -1.68038750 -0.31820825
-0.99595988 0.30859378 -1.49699211
-0.39093632 0.91739714 1.10777378
0.85805506 0.82627779 1.11159134
-1.36844826 0.64927512 -1.53965509
0.46018660 -0.17050779 -1.46716535
-1.42947757 -0.74826211 -1.02248096
1.26719105 1.02790868 1.23274064
-0.07664794 -1.41765690 0.02396166
-0.90973449 0.82046467 1.12088263
-1.41664636 0.61117637 0.17331345
1.42989600 -1.44247568 -0.49142411
1.40355217 -1.52501822 -0.57547259
1.49855363 0.21981488 -0.10459320
0.24628738 1.09526587 1.35491681
0.22502549 -1.68457711 -0.43369928
1.43907750 -0.17551233 -1.05353975
1.32929587 0.99909508 1.20614409
-1.31227756 0.85889447 1.15699446
0.85297000 -1.77518523 -0.59702098
-0.07664794 -1.41765690 0.02396166
-0.11633893 0.55726051 -1.48164749
0.09237014 1.10475874 0.40321156
-0.64732689 1.07997775 1.39326870
1.42478108 -1.44247568 -0.73276150
-1.21161067 0.20358895 0.73218030
0.09256294 -0.35047966 1.40303683
1.33936131 -1.08777595 0.33334464
1.32667685 0.83022857 1.11760843
0.65204918 0.82964683 1.12984061
-1.42336154 0.64915729 -0.24658130
1.06780112 1.06852639 0.43636173
0.38858101 -0.19212751 1.47418904
0.76285321 1.08856928 1.33398438
0.07530710 -1.79806828 -1.00983632
-0.12115750 0.35341993 -1.47196209
-1.13149405 1.05837119 0.22339186
-0.83652353 0.82627779 1.11159134
1.15972781 1.00688779 -0.93696785
-0.87225240 -1.73708987 -1.12112713
1.37059522 0.91792363 0.39780653
-0.24713428 0.97845918 -1.39160347
1.16587555 0.97660547 -1.24994051
0.85371774 1.08278131 1.35777724
1.09672606 0.89902055 1.10494661
-0.75811672 -1.75540507 -1.20966840
1.46336210 -0.40781769 -0.68161827
0.80420470 -0.17188902 -1.44563007
-1.26691711 0.93107235 0.62055892
-1.41546404 -1.15531099 -0.05010581
-1.37807107 0.82844704 -0.50523168
-1.42615879 -1.22406805 -0.53924781
-1.13620305 1.05056334 -0.26760870
1.41443908 0.77545387 -0.32343730
0.81075525 -0.75560963 -1.44353831
-1.47818792 0.15766482 0.03724599
-0.82918543 0.12191013 1.08696306
-0.50557101 0.83418685 1.18542528
1.36236727 -0.07698049 0.33315375
0.94151318 -1.39002705 -0.01161270
-1.32000077 0.12960102 0.60530561
-1.35745060 0.70024526 0.52947927
-0.26583010 1.07703245 1.40157545
-1.34873426 0.87349933 -0.99696791
1.16318893 0.27644134 -1.48512125
-1.45313609 -0.68244737 -0.58223009
-1.08560646 0.89364171 0.65894127
-1.42336154 0.64915729 -0.24658130
-0.51275289 0.35371897 1.16980922
-0.85919017 1.01871657 1.12147629
-1.11389828 0.42482948 0.66861469
1.00824225 0.82110029 1.10682940
-0.45245212 -0.83188373 -1.46386528
-1.23824608 -0.44473502 0.28456926
1.20083416 0.78015345 0.63770288
-0.98165846 1.07541943 1.36384821
1.29710317 -1.61714363 -0.35346311
0.79232007 -1.75718796 -1.29714489
-0.79955447 -1.54724443 -1.41844392
1.41956675 -0.47836536 0.09660286
0.81308323 1.08201671 0.49538103
1.39855266 -1.40011549 -0.06616347
-1.09337556 1.06436408 0.47150570
-0.95255715 -0.17285016 -1.44368947
-0.69949412 -0.35055920 1.20497096
-0.95871437 -1.43372917 -1.54033113
-1.30409598 1.04464054 1.26078784
1.15931761 -1.06485951 0.38407692
1.49104106 0.28091687 -0.44461328
0.29051295 0.97152507 1.32533908
1.47591639 -0.61796892 -0.02077142
1.26811755 -0.82236296 -1.42184496
-0.40977377 -1.80174553 -0.63237196
-0.49418056 1.09576833 0.47477356
0.52546465 1.09219909 1.30993688
1.37683332 0.91342115 -0.32177866
0.49496755 -1.76033235 -1.37152934
0.46126550 -0.08270545 -1.46718049
0.28774628 -0.69195110 -1.48212588
-0.52362138 -0.27139834 1.38679039
0.24049661 1.10322261 0.45310050
-1.18085825 0.96905917 1.31105745
-1.08849347 0.95815712 0.65773708
0.10739425 0.90102726 1.26210070
-1.11986661 0.06595212 -1.44317091
1.43162990 -1.12181807 -0.74753088
1.41465008 0.77545387 0.06795690
-1.05661929 0.32264388 -1.60840416
0.84108102 0.59394252 -1.49777794
-1.25219750 1.06663001 1.28647292
1.41193581 -1.39955068 -1.05219531
1.20746553 -0.43455598 0.35138407
-1.10395885 -0.08742767 -1.44370425
-1.06701076 1.07563066 1.35024989
1.31352520 0.47943273 0.57069385
-0.94443035 0.59084046 -1.61741471
1.19382465 0.02203874 0.65898216
-1.45699048 -0.61796892 -0.43689191
-0.07335658 0.98763132 1.18562865
1.10101473 -1.22043657 0.26805016
0.40404528 0.86427361 1.09358048
0.68697590 -1.77106500 -0.97818977
1.42025554 -1.32545924 -1.01721370
1.33978355 0.95438749 1.18551433
-0.77176309 0.88082498 1.06251860
0.82716191 0.11344073 -1.44455874
-0.21210243 0.08464643 1.47429454
-0.21854894 0.35804528 1.22997940
-1.30126429 -1.48188579 0.01796895
-0.23947221 1.07808042 -0.42980683
1.45032752 -0.25355348 -0.83866400
0.11407621 -0.63361800 0.95055884
0.46193808 -0.40901017 -1.46713793
1.32667685 0.83022857 1.11760843
-1.28173256 0.94655973 0.60565853
-0.36567149 0.35597172 1.20993876
-0.08227338 -0.55788833 -1.49570382
-0.72247458 1.08651555 0.44605252
0.75534731 0.99388540 -1.26379514
0.89459372 1.02196217 -0.92748338
-1.00033462 0.34270394 0.79750896
0.27595478 -1.08506143 0.28663546
-0.42494848 0.89931488 1.26041687
-1.40389836 -0.01388211 0.31231517
-0.78380930 -1.28026712 0.12165688
-1.27489030 1.04886246 1.35373509
1.22647309 -1.47166204 0.08631917
1.33275199 1.04362929 1.26763725
-0.85526651 1.00556195 0.78877240
1.28844869 0.93107235 0.62055892
0.57682610 1.05680907 -0.58990788
1.12637317 -0.90932429 -1.43876624
-1.22787285 -0.29198784 0.35365716
-0.64634001 0.97777826 0.69893813
-1.31627882 0.96121037 1.16987169
-1.28428280 -1.56653357 -1.31171942
-0.74246907 1.08659875 1.30445421
1.44429588 0.64915729 -0.36942178
1.27023113 0.44789723 0.59716719
0.24617209 0.83340120 1.17363501
-0.05372528 -1.82386696 -0.70539224
-0.35646108 0.04623484 1.46512771
1.48381829 0.32743990 0.29013634
-1.44151294 -0.08999138 -0.39940989
-0.71942234 0.80032837 0.67843026
0.68196696 -1.77110255 -0.57449299
-1.47274637 0.15711361 0.30120191
-0.99861872 0.54724288 -1.82285261
-0.64181554 1.07489109 1.27248716
-0.86940759 1.07353854 0.04844035
1.35769784 -0.39285594 0.17138663
-1.00305033 0.84840214 0.66275942
-0.79258680 1.01659143 0.80625856
-1.43993974 -0.40766764 -0.08661333
0.51714033 1.09560597 0.45295131
0.40999186 1.06356871 1.25579560
0.94151318 -1.39002705 -0.01161270
-1.34462082 -1.56515074 -0.92868400
-0.77176309 0.88082498 1.06251860
1.20653331 0.10686469 0.70719248
-0.50246865 1.09325719 1.35265219
-0.81223625 0.85130090 -1.41771436
-0.05318491 -1.81935596 -0.68699181
0.73743969 1.06103158 1.39538693
-1.08500779 1.06530857 0.48594433
-0.05277156 -1.81593823 -0.67577463
-1.45206833 -0.55180269 -0.03824663
-0.87947303 -1.57287240 -0.25940865
0.57682610 1.05680907 -0.58990788
-1.40452051 -1.36092043 -0.81084591
-0.59083360 1.07235157 0.58585942
0.65287435 0.83680540 1.10736895
-1.31002295 0.92329162 1.13317347
1.40905845 0.64928049 -1.25257564
0.59264493 -1.36546409 0.05274718
0.67329305 -0.56539667 1.00467288
-1.05772328 -1.36260927 0.13066924
0.97784299 -0.40842137 -1.44366252
-1.47192168 0.28090519 -0.11789021
-0.97859770 1.06169820 1.38641024
1.09260309 1.06658578 1.37873626
-0.83196956 -1.17196882 -1.53636801
0.85642081 -0.19425847 1.12028921
1.31317067 0.84175301 1.17110658
-1.10813212 0.37711334 -1.81931174
-1.21690249 -1.42883968 0.14598730
-1.23212540 0.91403693 0.63206154
0.44607559 -1.29199910 0.14570186
0.20406277 -1.82584047 -0.73425204
-1.41552281 0.53460646 -0.10918135
-1.44869328 -0.74826211 -0.02341375
1.41672778 -0.08624382 0.22461219
-0.59408224 0.90275919 -1.42252219
-0.07888100 -1.15681195 0.27169994
-1.03394437 0.95252979 -1.35366297
-1.37953782 -1.52501822 -0.68106073
-1.10236633 1.06302822 0.44896272
-0.37484157 0.75571084 -1.46005714
-0.10806227 -0.99924052 -1.48968625
1.38967609 -0.40787199 -1.32806039
0.97701907 -1.74113989 -0.47595936
-1.45876241 0.32753667 -0.67525047
-0.23947221 1.07808042 -0.42980683
-1.06905901 -1.28794050 0.21174319
-1.28964221 0.96496582 1.17177224
-0.50956678 -0.77334577 0.62798768
-1.35282695 0.84612131 0.51654720
1.09436464 0.81981516 1.10541320
1.14813232 0.27496058 0.76606560
1.32508481 0.83441126 1.09543419
-0.37191162 0.83530015 1.18651986
0.13753022 0.77809668 -1.46762931
-0.84686565 0.85331267 0.67271543
0.09445721 1.10039890 0.19352761
-1.16478705 1.05243754 0.46825337
0.46126550 -0.08270545 -1.46718049
1.46025610 -0.55180269 0.04669982
0.43546817 -0.42664480 1.27130902
0.38720301 0.35597172 1.20993876
-1.00621605 -1.74162006 -0.60989237
-0.62106514 0.70609868 -1.46146119
1.30142486 0.52069038 0.56340766
-1.34068489 0.78321415 0.56413567
1.33442318 0.45461169 -1.85243344
1.15476775 1.04628551 0.55870402
-1.33340406 -1.56500030 -1.11699986
-0.77784431 -1.31624627 0.08466274
0.83949292 1.01825142 1.02205479
1.33032691 0.96307755 1.16929007
0.38788378 1.05966997 0.63141775
-1.08342040 1.03489435 1.37470067
-0.74546379 0.82892007 1.18023884
-0.36567149 0.35597172 1.20993876
-0.22866078 0.65892673 0.86967337
0.42087811 1.06129301 -0.59365696
-0.52867252 1.08600807 1.38689399
0.20350651 -1.80822873 -0.92564481
0.51971537 1.09492791 0.42303747
1.38300252 0.87708807 0.40965953
1.37819207 0.46698865 0.53690392
-1.39086294 -1.18975866 0.12554410
1.43501770 -1.36094296 -0.48314297
1.48536229 0.10450255 -0.66815752
1.03469443 -1.48754871 -0.04654633
1.12134099 -0.25251520 -1.44368577
0.43803793 -1.41217315 0.00673277
-0.83118320 -1.20722353 -1.54448950
-0.98485422 1.07218456 0.49819824
-1.17077351 0.89358646 0.64411408
-0.54619330 -1.78262293 -0.97936273
-1.38615251 -1.44169772 -1.07285309
0.89387894 -1.13807607 0.21747264
1.46413851 0.41105705 -0.45974585
-0.11752900 0.47364727 -1.48264420
-1.43837011 -0.17557545 -0.16781971
1.44009161 -1.12181807 -0.15064040
0.08727453 0.29587430 1.31084263
0.43317103 1.08235562 1.39547694
1.31644905 -0.52569598 0.22397779
1.40357268 -1.32545924 -1.28821754
0.81386459 -1.17747533 0.20128034
-0.26301354 -0.32956219 -1.48344767
1.17267346 1.07574677 1.30806994
1.09730268 -0.69343758 0.39252314
0.66442055 -1.55221832 -1.42602706
-1.30357420 0.82989961 1.13328433
-0.41964200 -1.36866677 0.06220401
0.27104765 -1.41526520 0.01644764
1.17772710 0.82015264 1.10413206
0.84968895 0.56391621 0.75185180
-1.45756185 -0.61796892 -0.27707645
1.41740799 -1.05473828 -0.99380040
-1.17229295 0.02203874 0.65898216
-0.81227171 -1.73559058 -0.44300056
1.43895972 -0.74486613 0.17290905
-0.07551756 1.01090455 -1.30643535
1.32505274 -1.61703122 -0.50878590
-0.06652977 -0.19129002 1.51608956
0.08569572 0.13059567 1.46156490
0.80534083 -1.28026712 0.12165688
-0.74164730 1.08841836 1.31974840
-0.52665508 -1.53448737 -0.19819084
-0.08271523 0.07552356 -1.49550664
1.06402802 -1.57638323 -1.41442728
-1.07858956 -1.15223622 0.31192330
-0.59408224 0.90275919 -1.42252219
1.34254670 0.85841244 1.10258102
-1.01334870 -1.07422543 0.28595117
-0.87947303 -1.57287240 -0.25940865
1.44009519 0.49484751 -0.47932464
-0.50013041 0.98291743 0.67380488
0.26208907 1.04324400 -0.94922590
-1.15643251 0.82392746 1.09471059
-0.74658823 0.83940041 1.09529829
-0.53486532 -1.80893230 -0.67633206
-0.07728944 -1.37392497 0.08076793
1.47591639 -0.61796892 -0.02077142
0.63846362 -0.55620158 -1.45305967
0.73298061 1.08226645 0.17463833
1.43148685 0.45695162 0.43456954
0.63204479 0.55584991 -1.47463751
1.42950463 0.57310039 -0.70046496
-0.08586271 0.90102726 1.26210070
-0.22475585 1.09526587 1.35491681
-0.81331176 -1.56890285 -0.29717833
0.73480678 1.05088735 -0.58779496
0.44829649 -1.81192517 -0.85577786
0.10321093 -0.00684661 -1.49604249
-1.35609949 -0.80649608 0.23976663
1.15210116 -0.76608831 0.28034148
0.73980802 1.08564723 0.49572194
-1.16306078 0.83619630 1.08087027
-1.37515748 -1.39902925 -1.29131484
1.34646118 -1.15189981 0.32259223
0.13985564 -1.38042438 -1.50265110
1.43439662 0.53459758 -0.49725717
-1.08490705 0.83207822 1.19659591
-0.98995119 1.07048059 0.30657732
-1.00968945 -1.27051568 -1.83533072
1.24750435 0.81973898 1.11318994
-1.14685357 -1.02798116 0.37578720
-0.99861872 0.54724288 -1.82285261
1.25817406 -0.99516964 -1.42929530
-1.06701076 1.07713759 1.33756781
-0.68123955 0.88772285 1.07229149
-0.83261001 0.70431113 -1.47890949
1.37026584 0.87349933 -0.99696791
-0.47432521 -0.56606042 1.04493678
-1.33190310 -1.22065663 0.29825023
-0.27210927 0.11800999 -1.48209071
-0.86944968 1.07184625 -0.15520099
0.98204172 -0.75365192 -1.44160128
0.40686873 1.03487849 0.65357965
-0.92445225 0.96123296 0.75052816
-0.71270579 1.03978789 -0.74839795
-1.08042014 -1.18654430 0.29143333
1.14876664 0.10884689 -1.44263291
-0.92445225 0.96123296 0.75052816
0.74400610 1.08651555 0.44605252
0.74065298 0.89480460 1.25598192
1.34006834 0.88580680 1.10742939
0.77964824 -1.75540507 -1.20966840
-0.67281866 0.60934693 0.82352704
0.38068411 -0.02609282 1.48316455
-1.16153586 0.54221863 0.60195094
-0.18316682 -1.79249775 -1.33063781
0.95495051 -1.30824471 0.08753460
0.23387614 0.12950684 1.44384980
0.63922268 -0.62391794 -1.45268154
0.10424677 0.07552356 -1.49550664
-0.08586271 0.90102726 1.26210070
0.76697439 0.82948643 1.11470294
-1.31342649 0.82832754 0.59830356
1.24940443 -0.29198784 0.35365716
-0.66317314 -1.76260126 -1.05468369
-1.17267060 0.89727700 1.11198986
-1.28964221 0.96496582 1.17177224
0.53856373 1.07711244 1.27536035
-0.63996702 0.86173940 0.67852151
0.10697936 1.05312228 1.39412987
0.59438276 1.00381386 0.67004311
-0.98384309 1.07307768 0.47262561
1.46527922 0.01888673 -0.69470716
1.09670448 0.87593096 1.08909714
-0.41126084 -1.64959276 -1.43283153
0.57756615 1.08510268 -0.15427956
1.20919740 -0.96472299 0.33995828
1.46668434 0.41106436 -0.01947616
1.05420256 1.06994069 0.47671798
-1.07895327 0.84739816 1.07841337
1.23314226 0.20358895 0.73218030
-0.05372528 -1.82386696 -0.70539224
0.52827519 0.84464580 1.10045815
0.68209654 -1.76105881 -1.12621510
-0.26660132 -0.62555909 -1.48272288
-1.43417346 -0.08999138 -0.74597675
1.25682580 -1.27792704 0.31150177
-1.00146413 1.06831515 0.19131550
1.46413851 0.41105705 -0.45974585
-1.29989135 1.05403769 1.31167114
0.85308516 1.07818186 1.28479576
-1.13819623 1.00688779 -0.93696785
0.59264493 -1.36546409 0.05274718
1.29201555 0.31754503 0.65636975
-0.79952174 1.01593971 0.91390496
1.36788416 -0.98761934 0.28225988
-0.86630851 -1.03876281 0.24698222
-1.04623413 1.06446171 0.53189903
-0.87518519 0.96537673 0.97681040
-1.03034997 -1.73973584 -0.73003918
-1.08344221 -1.08455694 -1.69166327
1.44324172 -1.25796032 -0.04773245
0.96795076 -1.06846273 0.24949449
0.08773196 0.45011044 1.15329731
-1.40764022 -1.36094296 -0.18702564
-0.34095761 -1.68135011 -0.43332338
-1.43417346 -0.08999138 -0.74597675
-0.12193266 0.32789922 -1.47351539
1.09782922 0.81930834 1.16957796
-0.61681515 -0.68990707 -1.45209920
-1.08546650 1.01578498 1.36010766
-0.23912907 0.87787175 1.09758437
-1.32597423 0.96796274 -0.18503244
1.29713464 -0.30227759 0.27817136
0.42153198 1.08479393 -0.27175412
0.71640188 1.08629692 0.37031516
0.86521226 0.89451045 0.94423348
-0.55617607 -1.45267379 -0.06542863
-0.83060104 -1.38009238 -1.51904082
-0.25616521 -1.15500665 0.26164672
-0.83158368 -1.41087782 -1.50410187
-1.10708094 -1.68038750 -0.31820825
-0.64295393 1.08417177 1.38546324
-0.67104077 0.28775233 1.12403798
-1.07223690 0.81539935 1.12977254
-0.06574298 0.29587430 1.31084263
1.27181566 -0.87801540 0.28693801
-0.98772049 0.81783360 1.15798283
0.12959380 -0.99924052 -1.48968625
-0.71216249 0.98128057 0.98512781
1.00538790 -0.11729103 0.90766960
-1.41907990 0.61117595 -0.02434611
-1.27508652 0.82706344 1.09912145
-0.66016632 0.91639149 1.04238296
-1.43062162 0.32836542 -1.25697756
-1.45009780 0.16028196 0.45225480
0.85162175 1.07800055 1.37903333
-1.44305372 -0.82009637 -0.15210912
0.26100376 1.07808042 -0.42980683
-1.00530183 1.06611907 -0.06046871
0.96577275 -1.58199632 -0.20596655
1.33968127 0.95939064 1.17560518
1.48029399 0.32753667 -0.67525047
0.39750719 1.09271991 1.36557448
-1.40422320 -1.29157269 -1.00415826
-1.42483366 -1.29157269 -0.16000995
1.37988257 -1.39696789 -1.52084374
-0.82575202 0.88663995 1.01568007
-0.77025181 0.90175432 0.94742149
-1.41712630 0.61117429 -0.51700497
-0.61681515 -0.68990707 -1.45209920
0.75341213 -0.42614949 1.11414635
-1.28835905 1.02708483 1.23447454
-0.50405848 -1.59098816 -0.29380986
-1.16928840 0.91540509 0.64435613
-0.21883018 0.49222428 1.08946168
0.95813924 1.05552649 0.57991993
0.86629248 1.07915092 0.37176108
-1.08685172 0.69117081 -1.72998035
1.29713464 -0.30227759 0.27817136
-0.90844917 0.87111986 0.68109745
1.46984816 -0.48202613 -0.65660518
-1.45003963 -0.74826211 -0.42464370
1.35191596 0.18244037 0.62963796
0.57794553 0.85814804 1.22473049
-1.35869217 -1.52407789 -1.10635483
-1.45690179 0.15917809 -0.97746253
1.29285407 0.10677242 -1.42271864
1.09463716 -1.33441830 -1.87930024
-1.24113870 0.33945209 -1.74710381
-0.49844459 0.10087580 1.39458191
-0.87947303 -1.57287240 -0.25940865
0.51980913 1.08993852 0.54348338
0.78887451 -1.39892638 -0.01459401
-0.78263277 1.02981615 1.12490320
-1.20085001 -1.68002474 -0.68336868
1.42792928 -0.54842091 0.11570789
-1.27311563 -1.42221129 -1.62474430
-0.30695900 -1.82408929 -0.77714324
-0.75160056 0.23039867 -1.45032024
1.43402267 -1.05430090 -0.58487397
1.40097725 -1.09118617 0.13618119
-1.38085246 -0.61828893 -1.30704749
-1.33670616 0.91066140 -0.99707001
-0.39139265 0.89504623 0.69170702
-1.01898968 -1.21041501 0.21734655
1.45499945 -0.01788094 0.20999427
-0.08416319 -0.95179349 0.38683772
-1.29121399 0.90682083 0.60794586
-1.11849737 1.06074917 0.33914962
1.43895972 -0.74486613 0.17290905
0.52530986 0.83143753 1.17170441
-0.81105763 -1.47958863 -1.44117880
-0.07037782 -1.71692669 -1.44732714
1.02567410 0.95920336 0.68636942
-0.86568195 -1.74255490 -1.20967162
0.60585159 -1.01155734 0.28552300
1.44046605 0.49487576 0.21825595
-1.44185495 -0.09030690 -0.09674638
-1.37359416 0.77415591 -0.97239411
1.44599307 0.45357659 -0.66923082
-0.83485538 -1.11210835 -1.51657987
-1.31930768 0.87371701 0.58002728
1.44117665 0.68690681 -0.11345064
-1.40990078 -1.32545924 -0.77971584
1.10244071 0.55156690 0.62584609
1.49988425 0.15793134 -0.09470646
0.20409326 -1.82375574 -0.83058453
-0.80008441 0.89469862 0.94517249
-0.66317314 -1.76260126 -1.05468369
1.02571845 -0.93736964 0.25807220
0.27594391 -1.29474008 0.15730253
-0.56866908 -1.78807247 -0.62018651
-0.57994270 -1.11490321 0.25246930
