-0.9406482585152522 2.046499266726746 1.148760496464156
0.3569377057285513 1.435521760501626 0.1133750622939487
0.8284736204444014 2.020582243363067 1.154331375678592
-0.6339690657778254 -0.6906691517977832 1.059625293256975
0.2357562254998721 2.206174398929758 0.274499741871378
0.6187270972811222 0.2716171222531965 0.1431249462176457
0.7853599494055314 1.683794028998423 1.090391032521088
-0.9886936548666212 -0.9035771642088761 0.4560449181615641
0.8387857098838124 1.675041325011551 1.065365942509116
0.8672801107639648 1.966746946318426 1.160539415239106
-0.1425220402970137 -2.338923778261236 0.491927677015421
-0.1101364159327658 1.497340756444903 0.1161839578439189
-0.4608292597866011 1.623193677450229 0.9432943631091093
0.3441130998754854 -2.246688476763686 0.2088579899692525
-0.1075026894072261 -1.443149258194755 0.1197255527199105
0.9313929233824283 1.83324056496022 1.056976158952666
-0.7888751504244959 2.038313628770418 1.148387339314448
0.9274805792236915 1.497340756444918 0.3031537476452525
0.6548691569637538 -1.491275356595418 0.08565694099368777
-0.314505597120832 0.481032207858967 1.231753200605317
0.9289819041115296 -0.08370093159831159 0.6120462500179774
-0.4299638127583717 2.14661878671507 0.6516552811722818
-0.2079531586634072 -0.4262308912876803 0.1216426043444459
0.6977640590620882 2.088409633157971 0.7559103916185066
-1.002302449864108 1.700276929779008 1.034060148636629
0.5944022245124147 1.263187177760718 0.9852813608576203
-0.5335598871598755 -1.253118730460076 0.8454936992689182
0.6363440656673687 1.869663435320838 1.082416432112754
0.7968129513672035 0.7612966331156335 0.9041311802135683
0.5567504057908107 1.869462340900486 1.023267598458363
-0.7344247340967123 1.862020246493121 1.122254683615665
0.03705952415459266 -1.510315650422545 0.1269452720316208
-0.5053103499789011 1.734084088562056 0.9256991781745024
-0.9656716226408626 -1.395398439186089 0.5845534044605356
0.5750977214281033 -1.395398439186086 0.08624625391771756
0.3551563096480981 1.616432015768061 0.1225825057758137
0.5776531062141904 1.752071425131463 1.105500740189732
0.3821952257499626 1.665364068440151 0.9361818329530167
0.9055610975490628 -1.141872266087334 0.4488027049323229
-0.5800004760457875 -2.145509362519645 0.6121758049790308
0.9195805839378162 2.034598751403598 1.108547750283891
0.3883667783912159 -0.5369641468966887 0.1241104879681767
-0.9762301297491443 -1.08287790958581 0.3819205991556695
0.8914009791391349 1.963693236139447 1.175739369453408
-0.5202303460005955 2.037671748784855 1.151716382117886
0.5874823809821693 1.893579657915722 0.883473384399915
-0.998849959147796 1.793239032184826 0.656021998329982
0.1079577034120607 -1.884478865841513 0.7407328728376188
0.5627342888453437 0.360236686725364 1.164565170979962
-0.999460061252618 1.751755606343382 1.108920969553404
-0.5219079607598892 1.916703111693489 0.8963777655625611
0.8227457528506588 2.007223506748736 0.397617597723347
-0.08985815485774173 0.8712908086021669 1.157435629102364
0.8103092337018534 2.028224648894441 0.5984116732775724
0.3103183269968717 1.996640016830926 0.8789133276595218
-0.9772024162562383 -0.9031024396348431 0.7193366180247566
-0.6591366909346548 1.870175307841559 1.05904410350142
0.3569377057285513 1.435521760501626 0.1133750622939487
-0.3720792741088679 -1.99384969765538 0.7185161685905985
0.237956043913884 -1.899034449243247 0.1491969980921107
0.5257546977969453 2.02715739315509 1.134184051670483
-0.5955451431677803 1.937734724590368 1.137500899606019
-0.4159402289871393 1.82603002917212 0.9176415358217134
0.9377883972243951 1.305223193452295 0.6764843299421509
0.007025754622525424 -2.133786429014666 0.6881963763350387
0.8057516060737258 2.030146162803279 0.6836422365810715
-0.7743077410840482 2.098544564065579 0.7271348666832893
-0.976395294572651 -1.141872266087334 0.4488027049323229
-0.2965472298229033 -2.343302842922823 0.4447490656875437
-0.665250562353813 1.982365376232692 1.11507029518866
0.9307710955726295 0.8624084957732539 0.4713292084021618
-1.004304630568771 1.435521760501633 0.5426100889352666
0.5109322429720169 -1.690738435828487 0.7648502259753345
0.4843430821363647 1.667415160894888 0.9288790827686186
-0.8125896556243718 2.082389950456227 0.4604735024694157
-0.7106825843294932 2.11508436798405 0.7188079562858458
0.82711929425923 1.788456832345311 1.075890317635878
0.2603464188694437 -0.5369641468966854 0.1219838570607816
-0.5453291436180245 2.01316676170455 0.1709120414852821
0.9274982559388825 0.8222390148899124 0.2825308243008379
-0.7866287428956 0.5259870190002645 0.1457800061846034
-1.005914124554107 1.371337850559714 0.5425984016760596
0.7353345665407484 2.082888421669756 0.7168561873844047
-0.1940148280446059 -1.954514121963058 0.1597826230846811
0.470745314809675 1.738809148871128 1.067492768973218
-0.9901052002935632 -0.780041532271557 0.7325935908870223
0.8994359465522471 -1.291533484456501 0.6002693975773492
0.1305474088032678 1.005293014589375 1.125042819645547
0.9309810358028697 0.7888253602479503 0.5425260758014017
-0.9631799252286046 -1.395398439186089 0.627462145878942
0.932549325891616 1.758361133109807 1.074697975000262
0.5342661181947619 -1.508255722793781 0.7935911584822235
0.6950531218798626 1.912060503806835 1.100995238425263
0.9193242864448074 -0.9035771642088761 0.5266457055272473
0.4742468104765552 -0.8140871201912479 1.014657240716789
0.9051659391217879 -1.141909089476815 0.6277660047083202
-0.9805557000733244 -0.9698334008315537 0.6743972203460711
-0.0885710473137061 0.004994644032001313 1.263037990415186
-1.003079929924597 1.371368411855978 0.7288808677786748
-0.5565718750609018 -1.822651440425079 0.7424191421267973
0.1376644679543176 -0.08370093159831198 0.121197261632517
-1.001171828491726 -0.6334718132934705 0.4640581786469821
-0.9687239085851509 0.7888253602479503 0.1797635470840774
0.7134220443088147 -0.1950908715154084 0.1459024979610157
0.7689897133155843 -0.9060040760113539 0.8880594404312534
-0.5262514214599655 1.665836571704473 1.077413605101477
0.5124894097508322 -2.191826436076032 0.5429792817597279
-0.4205134668763517 -1.354502052109964 0.8391282826493086
-0.2595164788829698 1.964043594146823 0.8890483206688444
-1.004678695089209 1.739754324121692 1.026157009727821
0.9307062697215043 -0.3094887133043504 0.6726428663328345
-0.8657798611096514 2.036856744334427 0.3090334923734416
-0.9983378421995224 -0.3094887133043504 0.7243693888200307
0.3122718416899014 1.969895978680743 1.144603551461284
-0.7373944026342065 -1.10856987083463 0.8464812360389249
0.8464436221400759 -1.635469862165067 0.3365685159573882
-1.000553095699537 1.23965866208248 0.09027855129822224
-0.622451038001457 1.90980498690556 1.023992568449479
0.02138570716435316 0.7381506718490696 0.1211874810596084
0.6683441642179437 1.671849154676509 1.083602524093109
0.3558398078922691 1.49734075644491 0.1161839578439171
-0.9707345514548019 -1.291533484456501 0.4775813815430512
-0.4883130124996941 2.164814227430405 0.721570187708132
0.8125947759556326 2.02265253994707 0.6884631531319454
-0.3868131298369281 1.683389606909385 1.092456396497421
-0.8053656465490451 -1.508303558387962 0.1013665336078058
-0.7055085129240393 1.388379409749917 0.9367608912304802
-0.9627252112874183 -1.342698309593401 0.2795005905768116
0.1904868133158318 -1.010258920418053 0.1198277404648441
-0.3867022110542272 1.724297519918295 1.102494924272247
0.750808927358355 1.881519115598582 0.8293653392946118
-0.7391783612415317 1.671849154676509 1.083602524093108
-0.6627782816326309 -2.03077492381265 0.6307739661621499
0.6641248249165597 1.931972973314753 0.1683124085677974
0.8242496956550303 -1.730378080506547 0.4349788616172924
-0.5379292478915858 2.143038704831908 0.7581993216402623
0.8270766908858074 2.005354239634053 1.114805533629174
0.9274805792236915 1.497340756444918 0.3031537476452525
0.6594822681128134 2.048104279963529 1.142613002159037
-0.5416625106114605 -0.880398654731689 0.9809125959341254
0.01794613866462372 -0.1062883620531706 1.257089493717974
-0.5872758439872128 1.931008059502388 0.942866901168391
0.7013523364511884 2.096695370831714 0.2448788216254662
-0.9889382699530248 1.775321448746438 1.159131155913907
-0.6876955973003939 0.1155358656828444 1.108273295125851
-0.9624794501677463 -1.078794316085457 0.08958948652608906
0.9193527113246982 1.668705125132304 1.086369086698235
-1.00340782977432 -0.7800836655427295 0.6531538277813194
0.1301339549892314 1.094379729047335 1.103059199295733
0.9284460014147793 -0.8382463287270834 0.6497966962331438
0.6479767547160837 -1.831012875207001 0.7011437607997706
0.7544139766917927 2.078755962337905 0.2567312865543018
-0.9265045053431614 1.967997218425386 0.6804041476538374
0.6528305426330364 -0.5490165104676315 1.040008627261746
-0.1100058865505953 1.616432015768055 0.1225825057758152
-0.5927897217767789 1.754000815532828 0.9841199665471642
0.1904868133158318 -1.010258920418053 0.1198277404648441
-0.9958720613670671 -0.0837009315983116 0.2825189036780441
0.02175878578618914 0.8624084957732416 0.1215482005328375
-0.7433808338294748 -2.011833524065122 0.3218249079511042
0.3907684660945803 0.7381506718490817 0.1233176385910193
-0.9793073861654377 1.853901019172375 0.3966985197255397
0.7158384895737368 0.1519466261142848 0.1457866039468204
0.8571319579925847 -1.543113807757677 0.1796032215197385
-0.5280126174464561 2.138929615512683 0.7044546320585152
0.1248800198573202 2.184036017274194 0.5697067804616951
0.6537582630234402 -1.395398439186089 0.01504854955288354
0.9034967777854348 1.435565279807148 0.7767153849255367
-0.4815960235888687 -1.822504012233273 0.7496957879286825
0.8181318683666448 1.932301695420725 0.7734414442231836
-0.9987421873603584 0.7888253602479503 0.3928017159924346
0.4652005311207542 2.193789661819945 0.3170478199117672
0.03908439652248964 -0.9880036133494019 0.1211570191486053
-0.8314767654808963 2.069086009841767 0.7368083122228439
-0.8572035996010388 -1.811096490194819 0.6186814435618117
-0.9965813244624207 -0.7804150941492455 0.2803966837649173
0.8505874061902826 -1.635878974402972 0.4886381121805014
-0.5977682277044855 1.152946058190376 0.1195882362405019
-0.9623324246433627 1.99187174091919 1.17777586420514
-0.9632598241699146 -0.6334718132934705 0.1808813026072478
-0.4392427081484008 2.084138100980754 0.8381967941383256
-0.9550237098168268 1.305211945843862 0.007963029282899886
-0.8585023667554507 -1.819582762832354 0.380715299171795
-0.5398204328794893 1.263187177760716 1.04090868714426
0.08223835577231586 1.820699573763581 1.090310290693268
-0.9963088509262162 1.697209467810595 1.033804094255103
-0.9870216636752216 1.812330283528955 1.165253854156522
-0.7479718824657675 1.865968126967672 0.1564884752176247
0.82711929425923 1.788456832345311 1.075890317635878
-0.5598681213317208 1.767805154580867 0.9264523834958092
-0.7557357123942464 -0.7536100573704493 0.9766105299666432
0.9052594094982969 1.665966653775644 1.084022356014607
0.4367799690180667 1.864134039694159 0.9120156777083427
-0.897823666032969 -1.383294709866083 0.7576118958188827
-0.7309322105983381 -1.553899007892571 0.1400012876993355
-0.9683104633815003 -1.342698309593401 0.4714034161186231
-0.4129586981776587 -1.430661847477185 0.8200676831784388
0.2400335150311209 2.181913307751117 0.5697067804617099
-0.1090444483609083 1.821990309573214 0.1302709595874065
-0.2731605085857826 1.576509523148064 0.9588023514731271
0.8335888193522457 1.820262447499255 1.124022432393484
0.2496556246134056 0.8712908086022071 1.157435629102422
-0.1645736310333733 2.046233278424943 1.150579039460972
-0.5213193047893618 1.900941317428867 1.13177086444501
-0.8225857776460113 -1.8964293436804 0.3759172621334483
-0.3065343964613894 -1.253118730460034 0.8510027052477498
0.454282992040682 1.751794232860997 1.106936863287521
-0.5692148411118981 1.924365517944066 0.9021862769805984
0.8255259304449247 1.827160622272527 1.082250806471474
-1.001203940656988 0.5259870190002646 0.3927818269140413
-0.09218435887491204 -0.1950908715154074 0.121275902355907
0.9058027688163078 1.833375815860221 1.055080082614057
-0.5904074714399903 1.754775152690121 0.9156774048274072
0.2975943034958445 -2.318375938660298 0.5774315431747421
-0.3064008068249987 2.111240245693173 0.1982916841830374
0.928618691718076 -0.08370093159831159 0.5404594184755754
-0.5415795118332631 1.738809148871128 1.067492768973218
0.8642353770117077 1.674880494047631 0.0350162713164227
-0.5338049354614729 1.982633875946101 1.117505520194869
0.7150074695697946 0.7381506718490849 0.145818604288883
0.9193144437564246 1.968639816365774 1.146053695057709
-0.2694054300880663 1.190158680482277 0.1193043818188907
-0.7189227711935234 2.083764291807686 0.679258957257187
-0.9698475857798802 2.043688896042369 1.11604006698252
0.02200975611037673 -0.633471813293462 0.1224063766197128
0.2526911194832444 2.169887361334208 0.7474715705734514
-0.7110487733616492 -0.9017421596832025 0.1442430928762065
0.8845956380778735 -1.390010314326344 0.6799212240053243
-0.5790556107384259 1.497340756444914 0.1083472023005631
0.6436614896045751 1.721734667556776 1.072684101918854
-0.704499883935872 1.673670778796248 0.06705770902732496
0.9344661128556941 1.734210244985875 0.6573135389623511
-0.3137546292300874 0.3602366867253554 1.247359802117451
-0.314505597120832 0.481032207858967 1.231753200605317
0.2381367981560343 -1.105864058189579 0.8671497222061246
0.3487155100111476 -2.319356086114228 0.4520804543980918
0.6897854086024818 1.371337850559714 -0.006926012591396352
-0.4661826464328738 -2.288334145215364 0.5533639869349154
0.9313321329324754 0.3927852059236717 0.7272438688253879
0.8793370320881887 1.665708891094215 1.081169373931456
-0.9724215998267345 -1.243259343714413 0.432267323615363
-0.6464326041862718 1.821568208980908 1.117243692343015
0.8181318683666448 1.932301695420725 0.7734414442231836
0.1237762348792272 -1.105864058189545 0.8671497222060997
-0.7888751504244959 2.038313628770418 1.148387339314448
0.3467216642791439 -2.323250776117761 0.4048104510693441
0.750808927358355 1.881519115598582 0.8293653392946118
-0.08945220516839307 1.263187177760671 1.060035949110096
0.632392250896598 2.118660157192031 0.2486804075352862
-0.3873046240502541 2.160698546352577 0.7115095424578843
-0.0875106534086639 -1.153675302364804 0.8581765500544898
0.8287051633588056 -0.8083782701922468 0.8405641426412133
-0.5874759227136154 2.073447030461265 0.8290986903257348
0.9333770207948886 0.5259870190002646 0.5425241864939012
-0.6839803825320621 1.700731254253145 0.9079284925550768
0.2619098019969864 0.7888253602479394 0.1212410587329727
0.779754062850456 -0.963439019347819 0.8732148582615588
-0.5826122536906399 1.764163034806613 0.9164086280290757
-0.8276109300755417 -1.820463773720006 0.1819467172184086
-0.5806287303903112 1.43552176050163 0.1055507454962214
0.6792124939712769 -1.009969670570506 0.08107618613841801
-0.5334875056107581 2.183712551829247 0.2774194069998124
-0.6407063387623624 -1.154792578205923 0.8444151469182192
0.1929118338114239 1.435521760501622 0.1133750622939498
-0.7774182348822583 2.005474676834686 1.124262407880285
-1.001683028558088 0.7381506718490848 0.5425250017948563
0.3417760486750028 -1.342698309593375 0.1154910919204829
0.537784479440107 -0.4477768886176874 1.155919481831975
0.3693221367918659 -0.7487958733264786 1.055575119484092
-0.6270509766477114 2.136626951552224 0.2465167155872644
0.9329396951985373 1.731321662788629 1.070148865816518
0.8288123171953779 1.936580777728291 1.143358569701432
-0.2085536677083346 0.392985816058318 0.1211523629369944
0.02139982517799867 0.3929858160583178 0.1211523629369945
0.5977491769799055 1.673647606205364 0.09800247878447374
0.3261464020483096 -1.767625606136861 0.7624115734681849
0.8717969746729061 -1.395398439186089 0.08126626666371153
-0.4159402289871393 1.82603002917212 0.9176415358217134
0.240244756286486 -0.9374061284562957 0.9582272777743246
0.8967501034356962 -1.342698309593401 0.4194211869375843
-0.7686987400071932 1.782392344955798 1.080236156316558
-0.6051003152183502 -1.508255722793781 0.7935911584822234
0.0366164273693529 -1.342698309593347 0.1154910919204819
0.735150530901192 1.987752912892429 0.1812338262894682
-0.9767659305608371 1.616435139110437 0.7545929524355177
0.751529817561475 2.071739240915207 0.5284177847655592
0.2531544022904415 2.163334949427083 0.7613620371714907
0.9111650730808522 1.127033987284451 0.1155386225134918
-0.8856988388033409 0.8222390148899125 0.1435188155067946
-0.648869620458848 1.724710978350081 1.10035281113588
0.2939938436002978 1.826980877505824 0.9177824889674153
0.8064850322584264 2.030547694541342 0.5391108485041771
0.4686697491513733 2.133096112859243 0.7750226434071573
-0.7809971694864519 -0.7800836655427295 0.1477223976252177
0.3248732485865486 2.144739240291362 0.6976243020274741
-0.8597832382729014 2.046778536246181 0.7187297202411331
0.3953484494092856 -2.288334145215364 0.5537672170871493
-0.5448161186398854 1.900254883580702 0.9114913977483464
-0.5255758706631238 1.671277985741114 1.086561729627525
0.7534481036402834 -1.267194000704983 0.8010650511992803
0.8709694159073236 2.048879960216383 1.136585547615582
0.7014095218593797 0.8458413307806392 0.9732418892100735
0.01631095828853107 2.125623214430531 0.2070294589614805
-0.8992479365229512 2.005986838913142 0.5418567683764849
-0.9033667737237314 -1.003396913692052 0.07480134422553222
0.7952498657047991 2.038785973674355 0.6775946171664353
-0.5366599709316343 2.149414098613006 0.7460399673865679
0.5081085503984244 1.924368032679279 0.8998483694613051
-1.00360795940032 0.3929858160583187 0.4712999636671837
0.9308488315345002 0.7381506718490849 0.5425250017948564
0.936508111967866 1.102819375916799 0.4714200890730235
0.6085355482682096 1.305211945843861 0.08327117325601012
0.1181715138611455 -1.430661847477034 0.821036696196115
0.6314103564529027 2.127591718656667 0.2635410749262213
-0.7808103971744165 -0.2464181923311976 1.000919620439581
-0.6466014052123204 -1.29042484919558 0.07649074516598645
0.8749852485963919 -1.492052509419238 0.1813569676737478
0.6232407502698159 -0.7142602408391903 0.1447238482550479
-0.271800041189198 1.126756966243469 0.1221332776597428
0.9327737623767316 0.3929858160583188 0.4712999636671837
0.8874917666215683 -0.5310898689432104 0.800935042353965
-0.5849560429791243 2.132249671011865 0.7564520449419901
-0.08802293417139936 2.209950945466828 0.5255919269257603
-0.5442667024891842 1.576509523148118 0.9494987171810805
-0.516596368956383 -2.015779181139108 0.1869144658432255
0.01807662732621912 1.459230603265893 1.000115588373029
-0.3863868281643942 1.733162479827335 0.9301930177081333
-1.001938495408066 0.7370631720136758 0.6756437609909676
0.1197128845932377 -1.389357571691487 0.8320465038302076
0.9264537755857957 1.766416017167287 1.031325705681747
0.6465410123462378 1.979124811162617 0.84913219490852
0.8749852485963919 -1.492052509419238 0.1813569676737478
0.826706327239065 -1.730378080506547 0.5220342345735773
-0.3125379527962277 -0.8803986547316582 0.9894881516809695
-0.5366051727766881 1.459230603265945 0.9851244006309508
0.7348051621789877 2.067996326337371 0.7010078366790623
-0.3327439990205892 0.7888253602479393 0.1212410587329727
-0.9435729379783548 1.817991794903534 1.13580302237701
0.6579417862062735 2.085363180772187 0.6555686760271984
0.6227775535840187 1.152946058190377 0.1137989995635654
0.315651322148579 1.751659543959362 1.107634681600886
-0.6825024301046758 2.111793273864723 0.7073669120607147
-0.990844470971747 1.936708740900426 1.140586162943297
-0.08697714902572522 2.151343931684897 0.7058045710548292
-0.9959805797431933 1.906852547045982 1.100017168307314
0.8967501034356962 -1.342698309593401 0.4194211869375843
0.6232407502698159 -0.7142602408391903 0.1447238482550479
0.5647134219414635 -0.1062883620531781 1.172486329743999
-0.6307313546329988 2.096188741240451 0.796476075343298
0.9245009484610837 1.675502772015653 0.3040127154048588
0.5275791751881001 1.781433261017995 0.9502980253566118
-0.6959824737846863 1.089598554553809 0.9844880278373192
-0.6179262408953956 1.945849820443016 1.063069879242422
-0.7102761352773347 2.143972016470404 0.387007199353599
-0.0001136958024731422 -2.33314742225666 0.5506344365835552
-0.3207135913052642 1.794499001738359 0.9231764244055032
-0.425193272585452 -1.201949842861478 0.8533227981165221
0.3527706103362731 -1.010258920418065 0.119827740464845
-0.7303164651364016 2.048104279963529 1.142613002159037
-0.7847183068399637 2.088466683850947 0.712731350945257
-0.2085413041301324 0.0317072336607798 0.1211624552895737
0.8869289649473017 -0.8319356508507368 0.7727871387692279
0.01652138471574077 -1.201949842861402 0.8544397311431581
0.3321412874401956 -1.690738435828394 0.7757403849245258
0.3586332836809888 2.205006074703522 0.4583152345723867
0.1371189616397632 -0.4262308912876803 0.1216426043444459
-0.6652364215360028 1.263187177760718 0.9852813608576205
-0.6959824737846863 1.089598554553809 0.9844880278373192
0.9044520528984135 -1.14117936904926 0.3809575027471784
-0.8061687635643365 2.082888421669756 0.7168561873844047
-0.1093525035896137 -0.9570049528470124 0.1229828636828546
-0.8742543136698504 1.188430767796013 0.0504401495958308
0.9102742291383574 1.713182042266674 1.038037916430383
-0.7148519789123501 -0.4526133569565723 1.062132541700817
0.8344342283928775 1.012318856717996 0.8341741844441455
-0.9975368053640576 1.734210244985875 0.6965191517487835
-0.6756706613488264 -2.099980026060919 0.4706683511401441
-0.2495224441205433 -1.554550421089115 0.1291012714719095
0.8869989270402385 0.3983631822722631 0.8218009975301115
0.6567722048417088 1.691776743544444 0.8992457817701776
-0.8198138034483009 2.078308419891777 0.7224029983341171
-0.260225501761657 -1.039822661236813 0.1192953109032338
0.6985713574814197 -1.697725437337713 0.7245310024782201
-0.1126304683678782 1.152946058190371 0.1210354001142734
-0.7516148230139619 1.06874322718011 0.9386936369675771
-0.6413568766446732 -0.8382463287270823 0.1341209983274497
-0.7587666593165958 0.9796651318179506 0.9501202839722024
-0.5124159051109646 -1.50825572279377 0.80206737785259
-0.461702296080268 0.650427081361187 0.1232847532538404
-0.1657749655486568 1.751576194089635 1.108066514252322
-0.2285775987719016 -2.283318919219803 0.632914884972546
-0.5480067683911249 -1.554550421089211 0.1303772585042662
0.8836604373471713 -1.49370116336198 0.5744764787682809
-0.7223321353931442 2.110984132552178 0.5721559590751698
0.6971766910648471 2.11597852923994 0.316093746453536
0.5092989599362113 1.762031045955948 0.9589700477377193
-0.2590348481836265 -1.080450675013758 0.1177995969534292
-0.7897037902740638 1.685496308789967 1.070209627671402
0.1840885826879692 -1.342698309593359 0.1154910919204823
0.6606871334771313 2.03823441107668 1.148801249195215
-0.07041405152690916 -2.345869158694989 0.443961897807943
-0.6796878347493452 -1.342698309593401 0.03518867953701862
-0.5192876215900573 1.913194762098573 1.069081214954961
0.2620935828220272 0.271617122253196 0.1211537537038377
0.6679391227995429 2.08366822305666 0.6958438290700532
0.6528305426330364 -0.5490165104676315 1.040008627261746
0.477932392678267 -0.7487958733264883 1.047508073627879
0.8512256146062475 -1.635878974402972 0.5284285099454977
-0.6693014498315139 1.724934415934434 0.1072747865568359
-0.7077144668800176 1.795831404943509 0.1268591698554951
0.8914021868180231 -1.44702210757139 0.5791940912349914
0.5106220290941891 1.927965108934628 0.9156470135315669
0.802232847985523 -0.8384434922120553 0.1456374219031393
0.2475299277375175 1.263187177760695 1.060035949110116
-0.4497732377268587 1.701985209936618 0.9318111114169899
-0.09558022996396237 0.9201913247329989 0.1218498100083078
0.03661861399325887 -1.395398439186034 0.1170566543301191
-0.6684858091921496 -0.9570049528470478 0.1294987941246643
0.7257628255850354 1.725000659258562 1.098861671612252
0.9211174273318027 1.876010881664925 1.049831670289167
-0.9678988925718481 -1.342698309593401 0.5917866951818429
0.2017786869742896 -1.993849697655167 0.7190130285361587
0.5820128480827786 -1.767773034328769 0.7363016191622118
-0.7913747876024138 1.08663228090689 0.1368746804622795
-1.005712241264968 1.103065096424099 0.3954104486305772
0.368886352325881 0.8715191621377081 1.15457667793353
-0.3648280406238886 1.826980877505824 0.9177824889674154
0.6537582630234402 -1.395398439186089 0.01504854955288354
0.3517349642067743 -0.9570049528470314 0.1229828636828566
0.8604427360694951 1.918898712308655 0.7255703216285503
-0.08956893280401919 -0.7487958733264317 1.057591678485269
0.9132571799058421 1.854180208812695 0.542711959115212
0.1083136555430837 2.171183003049212 0.7349883596018436
0.5473067733019374 1.788052963277631 0.9064653565099107
-0.7345678452763833 -1.159261681569991 0.8347145376764855
-0.3198959445664723 1.094379729047347 1.103059199295746
0.9285634462255687 0.8626657616688892 0.2828965715216839
-0.9893310002919257 1.616432015768068 0.1920606317987104
0.3650552319896705 2.170411345478263 0.722194871117231
-0.6581352186468469 0.8219389980774576 1.094920618843956
0.9291003902598586 -0.3094887133043505 0.465383925639605
0.2796184438892684 0.9201913247330013 0.1218498100083078
-0.08709761615908841 2.173184166528634 0.2401404641573931
0.9198624763043091 -0.9035771642088761 0.5941826729938454
-0.5364487058715032 -0.8382463287270769 0.1256408518409352
0.7113498522690284 -0.4262308912876901 0.1462504229257647
-0.8660840627283872 2.038785973674354 0.6775946171664352
0.1786882470968827 -1.554550421089115 0.1291012714719095
0.0942006749783192 1.861244297613147 1.126274846614296
0.6427944021536437 2.136190099360859 0.4642590604145297
0.8948374256172743 -1.395398439186089 0.5845534044605356
-0.9963199894149055 1.616432015768068 0.3037102213857332
-0.6553917675146792 0.9475420305451037 1.062817589609037
0.3012450770852795 -1.99384969765538 0.7185161685905986
0.5252188778616017 1.933553590926869 0.98006673530919
-0.5806555906513373 1.795847860924262 0.1280705807989557
-0.6333270367110767 2.120160880417962 0.7551492189794208
0.7817329851778967 1.821433944886272 1.117944110067103
-0.2586600593967081 2.163389331808068 0.7609894452814056
0.01847825144713627 1.326809175650908 1.042189578659274
-0.633282578664752 1.666306149662268 0.919355165896432
0.9265191166044012 0.7866913189674332 0.7284943498633149
-0.690949316262538 1.671702378002548 1.084362968716393
-0.9728487592934969 1.679384657758452 1.116056242366219
0.4669764228867242 2.15606420953425 0.7204022169921126
0.9322796735414231 1.799187441924234 1.035482311028356
-0.5537201988753873 1.704913150099398 0.9245651470844661
-0.497178127728836 1.958719977187428 0.885761837320085
-0.8902438384179168 -1.730059493149714 0.3319021190711153
-0.1099185935462225 -0.9880036133494019 0.1211570191486053
0.604185687763411 1.576509523148121 0.9281499800175368
0.03871608651715722 -1.010258920418045 0.1198277404648434
-0.9300642323654895 1.967175925563822 0.6504584532086903
-0.7800955667849221 -0.6334718132934705 0.1469750861407249
0.3931635224435079 0.8624084957732514 0.1236767606756338
-0.6215834225142323 1.957641453787235 0.8742406636321185
-0.677000739803999 -2.099166359712521 0.5083010219005227
0.01763920936417663 0.1203423947616364 1.262801193868288
-0.9126944925815514 1.620742914121912 0.8156493502464395
-0.6591366909346548 1.870175307841559 1.05904410350142
-0.5866645827123933 1.305211945843859 0.1085855259798008
-0.1819227077930266 2.158712950219984 0.7108202237397734
0.6262289353018232 1.126756966243473 0.1232617249157625
-0.7258599150510664 2.100331250833758 0.6033350367721644
0.368052976871894 1.094379729047359 1.099466247294439
-0.998804690121838 0.650427081361188 0.2824337912058065
0.919725398471657 -0.7142602408391903 0.7394413247528877
-0.4231864480415231 2.139872344537111 0.2175516733943578
-0.5213193047893618 1.900941317428867 1.13177086444501
-0.3868131298369281 1.671142379320209 1.087264301574941
-0.7516148230139619 1.06874322718011 0.9386936369675771
-0.6012089506193756 1.671420501741287 1.085823359400577
0.3527706103362731 -1.010258920418065 0.119827740464845
0.9071938093587658 1.66936948429189 1.066306415414016
-0.486608098401018 -0.7142602408391874 0.1249520636053053
-1.008124967449691 1.30521475774597 0.6131904327211051
-0.08802293417139936 2.209950945466828 0.5255919269257603
-0.9084433861450006 1.682892505885907 1.095116892943475
-0.7345416924506877 1.086331135774038 0.1373329326122801
-0.2691427896442276 1.663577005411551 0.9389163983241604
-0.8176487891892759 1.267817018647565 0.8772430365005285
0.03985961962139685 1.086255849490821 0.1224839227307134
-0.5965888948205336 2.02715739315509 1.134184051670483
-0.7093503215278313 2.112859968475705 0.734002286907949
0.4707046767847653 2.15164612360815 0.7143922838740939
0.9387239434086464 1.175169948919854 0.6772843627301379
0.4730489741304805 -1.052298651765334 0.8834844749767459
-0.8369072530500895 1.580114214179955 0.8676021501528941
-0.6748733955217501 1.371337850559714 0.0765768680976328
-0.9545497642798383 0.1577835391517433 0.8185828898390227
0.7949456640860633 2.036856744334427 0.3090334923734416
0.9102742291383574 1.713182042266674 1.038037916430383
-0.6732544150029292 -0.5441740496150647 1.090735128069461
0.5962143360857241 1.860281197539132 0.8885738488726412
0.4758126461768324 -0.6248901386048698 1.108873036895458
-0.8059847279247803 1.987752912892429 0.1812338262894682
-0.6158732957627915 1.326809175650958 0.9980826048100959
-0.9549597680757336 1.915321525622729 0.6874424389429126
0.7819835651631466 2.058054658787802 0.3091226370483691
0.9295991614380815 -0.1950908715154083 0.6749035963611123
-0.6370848483858023 1.754033153929751 1.045330389186914
-1.004249969873934 0.9201913247330036 0.5425382872199108
0.9320810447670225 -0.6334718132934702 0.6612144333174186
0.671269096430387 -1.080376749711314 0.03420436321334397
0.9063682192326499 -0.9031024396348431 0.7193366180247566
-0.6368131100952913 2.164346242871217 0.4641131949466782
0.6118122569051179 -1.237716167409819 0.02780110015794793
0.9116797553484869 2.044811493132714 1.131640430368999
-0.4661826464328738 -2.288334145215364 0.5533639869349154
-0.1100058865505953 1.616432015768055 0.1225825057758152
0.1140628839749626 2.145251516322932 0.6975777120447189
-0.5982358066001049 1.783257102277126 0.926651458850738
-0.4663600176907494 -2.287654378665089 0.5741960897830094
0.1614100270018681 -0.7800836655427098 0.1231940194599445
-0.5565718750609018 -1.822651440425079 0.7424191421267973
0.8923457282050165 -1.395398439186089 0.627462145878942
0.9331195042942082 1.717598536536336 1.027324495872362
0.3571104229991949 2.212740068920833 0.3781102962943718
-0.9901869083482866 1.668705125132304 1.086369086698235
-0.5955451431677803 1.937734724590368 1.137500899606019
-0.9806599465687709 -1.026955073269322 0.6273683610614733
0.5088338369621854 1.766731236124833 0.1242474636665487
-0.3869929604021412 1.665379787009398 1.082275601954751
0.9292654807901458 0.03170723366078029 0.6767142650930125
0.9065933929592844 -1.141872266087334 0.5935606368374338
0.5297529837075534 1.745583348523343 1.043501260430066
0.1282742779697771 1.393146120519219 1.022272372108348
-0.5466468432004208 -0.6248901386048698 1.108873036895458
-0.6886060739262319 -0.1950908715154084 0.1432415160653347
-1.000553095699537 1.23965866208248 0.09027855129822224
0.7863743580272462 2.050690383257428 0.5843035906354269
-0.4391345002133531 1.995644367985606 0.8776767274528228
0.8917634666190808 -1.239448410005005 0.1813500823121216
-0.9861264124890589 1.931111318932061 1.169985832844314
-0.3176323090139341 1.326809175650934 1.042189578659294
-0.7258599150510664 2.100331250833758 0.6033350367721644
-0.08678080877031168 -1.354502052109868 0.8401820779343123
-0.7785450244548237 1.189684818651022 0.06404648221452573
-0.5202614050655556 1.99792549859143 1.148501066418447
-0.4421527083422886 -0.690669151797773 1.085281815927461
0.5178600842999699 2.141078954961904 0.7131749366936504
-0.7800955667849221 -0.6334718132934705 0.1469750861407249
0.814757096389804 0.7888253602479503 0.1434188913510495
0.3907684660945803 0.7381506718490817 0.1233176385910193
-0.9958720613670671 -0.0837009315983116 0.2825189036780441
0.7680347233911231 2.074219605978462 0.307384069176758
0.6120348677934144 1.858857006160625 0.8868403627527437
-0.2637569400216706 1.795847860924257 0.1280393446456621
-0.6368131100952913 2.164346242871217 0.4641131949466782
0.608853637725757 -1.342698309593401 0.03518867953701864
0.6327852179052869 1.698083067700608 0.9045093640341138
-0.6686347470507452 1.557219856431123 0.0835701033494296
-0.6902965461190737 1.752217392406912 1.104744489030773
0.6062385802648274 -2.098865004590151 0.5353101195534785
-0.2889679498601555 -2.119858414452715 0.1945528225188727
0.8284137394993629 2.005986838913143 0.541856768376485
0.6113790465087541 -1.491292850455533 0.1002214796973482
0.5672899929192166 1.790223951084604 0.9035237976530548
0.4384354947469911 1.759207650612883 0.9231457006729631
0.9177868086569823 2.036390784977299 1.129563216605779
0.515738593799198 2.122788596607389 0.7728846019505122
-0.7888961424015437 1.970601714926553 1.14093504727642
0.7421351200754369 -1.395398439186089 -0.001970463936794541
0.9303892530292417 -0.3094887133043504 0.5352812208840281
0.3711530898531187 -0.6248901386048634 1.118051788706085
0.09505396112630282 1.701521459941068 1.097969943865791
0.6317197792415306 1.729460940649878 0.9018417923942604
-0.3922238237212567 1.68319360623657 1.07479118474781
-0.9384719693909169 -1.550241121446016 0.3414576948429314
-0.7866287428956 0.5259870190002645 0.1457800061846034
-0.7093503215278313 2.112859968475705 0.734002286907949
0.6571485506801733 -1.237716167409819 -0.01104863558531441
0.8677334000507733 2.018790254511855 1.163487592754623
0.9307710955726295 0.8624084957732539 0.4713292084021618
-0.1991084749934562 1.393146120519219 1.022272372108348
-0.7344247340967123 1.862020246493121 1.122254683615665
0.4273117920404602 1.819185905750569 1.058779300495566
-0.9232953935362003 -1.113336662330851 0.7843184456613732
0.756399565089802 -1.130785913478146 -0.003536850273583317
-0.5219483781456362 1.898158681248505 0.9045636836401615
-0.5209356389381767 -0.1062883620531778 1.242588312900212
-0.4374968748065208 1.190158680482279 0.1193043818188901
0.705028350184487 0.7948458777048378 0.9787783671556781
-1.003234835010853 1.616432015768068 0.4717517092915362
-0.8323324642320589 1.910987715052487 1.101886441584882
0.5818178531941407 1.990993609038419 0.8606395129763367
0.7651860335931345 2.053075647883285 0.6914005376872936
-0.5385199432731948 0.8724326679865504 1.143139725101398
0.5010892931408396 1.821990309573227 0.1315194868991387
-0.5874759227136154 2.073447030461265 0.8290986903257348
0.8387086667720402 1.666094758314481 1.07908519596507
0.9198624763043091 -0.9035771642088761 0.5941826729938454
-0.5907413070823986 1.241833535877399 0.1122872603637105
0.4263439307052475 1.958719977187428 0.8857618373200851
0.8798567465912521 -0.07785903809748776 0.8167248920869097
0.5631348687542372 -0.6906691517977832 1.059625293256975
0.8948617648503613 -1.187822926070657 0.1835708653980573
-0.6845987246215632 1.2418335358774 0.09294828161245303
0.8263697509610978 -1.730378080506547 0.5552101579739346
0.7952498657047991 2.038785973674355 0.6775946171664353
0.2952950982353001 -1.636466812568878 0.1305702138586465
0.1786882470968827 -1.554550421089115 0.1291012714719095
-0.4278650876221073 0.2405665849835152 1.254559823922913
-0.08893758523357134 -0.8140871201911859 1.023996941167016
0.8064850322584264 2.030547694541342 0.5391108485041771
-0.4550104849704789 -2.233786439793209 0.6529791803738207
-0.82807413189305 -1.8964293436804 0.5429102231637886
0.5874230560444587 -2.03077492381265 0.6335602489199728
-0.5069505031375611 -1.601487596278633 0.787242261545331
0.8967501034356962 -1.342698309593401 0.4194211869375843
-0.1100058865505953 1.616432015768055 0.1225825057758152
-0.5700005599579787 1.764501127948257 0.9382544796415582
0.638516124504243 2.112859968475705 0.734002286907949
0.1265600469889662 0.36023668672535 1.247359802117428
-0.4642410480981287 -2.290256190173149 0.4985736464167668
0.3553266466706213 -2.298907014794608 0.6057670890876949
0.6476204609149708 -0.9374061284563326 0.9288126250284854
0.6038517122150983 2.060004331651511 0.8244406021719636
-0.2691427896442276 1.663577005411551 0.9389163983241604
0.5684621434313779 2.139179935555764 0.5713484538528089
0.2346056113106911 -2.01604694984551 0.1775026386114075
-0.5425189188948494 -1.105864058189629 0.8612831650738547
-0.8258150603714932 1.924168503469409 0.166100124090324
-0.0875106534086639 -1.153675302364804 0.8581765500544898
-0.7973530707261605 -1.951276983487243 0.5085686998984951
0.03927014069305072 1.724934415934424 0.1231199492335497
-0.998715302801485 -0.536964146896691 0.3906277679100955
-0.5202614050655556 1.99792549859143 1.148501066418447
-0.3727100917484336 1.794836017397008 0.9228740376004829
0.48242063087138 2.134864258337827 0.7039698648696429
0.9262569161835988 1.557219856431124 0.303425267393502
0.6342155414226085 -1.508255722793781 0.7777904592426941
-0.537487280789107 1.393146120519258 1.004543172947576
-1.000261081515708 -0.6334718132934705 0.7088001620452341
-0.728461064987002 1.568049617449058 0.9123280663689941
-0.6940749472934042 -0.7142602408391903 0.1447238482550479
0.9239188428903743 1.943289194333277 1.106493072421839
0.01717133327842753 2.168935390355915 0.5993300966803121
-0.08786344309099739 1.662643871206957 0.9389833361187111
-0.08848745831970221 0.2405665849835046 1.257461474414963
0.09691334961884451 1.980544126180753 1.122766079590983
0.7854743448316781 1.667118597350245 1.072771809396561
0.09642200117079683 2.026682100041193 1.135879810980381
0.238879114937757 -1.052298651765286 0.8898537789442719
-0.7519776116561928 1.557219856431124 -0.0001406145464155279
-0.7035481000532404 1.62094036633699 0.9132940749351158
-0.7722437188829681 0.8458413307806393 0.9732418892100736
0.1307425498398489 0.90523121918318 1.14993652385259
-1.00315959605423 0.8616331293235988 0.6759656897107073
0.01718873714764076 2.209950945466828 0.5255919269257603
-0.4276422516535586 0.1203423947616411 1.259875897280878
-0.8755636042425818 -0.05449146409419249 0.9006754832562769
0.6362111581566143 2.143628907408892 0.3230355486501654
0.7188695932504755 1.685496308789967 1.070209627671402
-0.8991605137300468 1.969023976579131 1.148949342611811
0.8103092337018534 2.028224648894441 0.5984116732775724
-0.08632493648613961 -1.389357571691446 0.8320465038301874
0.03951546721138803 1.795847860924256 0.1280393446456625
0.3201534622892774 1.701212019970202 0.9334943565952665
-0.3832009450128627 2.046321940222091 1.150180825024363
0.1280470469807689 -0.2205605411616836 1.2431319331635
0.3082381449076048 1.96039356635686 0.8892312911507881
0.9120476267867359 1.891809265412711 1.178416660209887
0.4680850202522219 -1.153675302364902 0.8525086901838677
-1.000877888995897 0.8222390148899124 0.4713143166003353
0.5046131870941397 1.927953305486946 0.9177676301246138
0.877562095360493 1.371337850559714 -0.0068757827926467
0.5285809282739529 1.945958449299237 1.064117640331516
0.9249779661414148 1.952137311636861 1.061562535921273
-0.9841840147708665 0.6473000642123576 0.7754124349637446
0.5656139998163465 -1.823241153192174 0.7266724912904179
0.2357562254998721 2.206174398929758 0.274499741871378
-0.6554213218844912 2.027431044910619 0.8466722402093169
0.470745314809675 1.738809148871128 1.067492768973218
0.4959369977872041 1.764162383435904 0.9191649817419251
-0.9962836979294367 1.820933565112861 1.120783360773521
0.3523522510179349 2.139872344537111 0.2175516733943578
-0.9947183563414154 2.005429090036247 1.092709979361039
0.646688737030528 2.006503938601107 1.125446400820242
-0.7743077410840482 2.098544564065579 0.7271348666832893
-0.3064008068249987 2.111240245693173 0.1982916841830374
-0.998804690121838 0.650427081361188 0.2824337912058065
0.3612891750672756 1.793268503351889 0.9223186731101389
-0.3970607653556294 1.719356857873967 1.076230487653743
-0.5124159051109646 -1.50825572279377 0.80206737785259
0.6498502073851443 -1.730732732294201 0.1574842793221759
0.7326911593516647 2.092889243619866 0.2664602644921799
0.3508881154232246 -1.039822661236825 0.1192953109032346
0.618528078169855 2.08354539317907 0.7955424879411064
0.5238424457121689 2.13319385660218 0.7081990316199615
-0.4421527083422886 -0.690669151797773 1.085281815927461
0.4051014683185124 1.936274488879383 0.1467644381398448
-0.6145483232477079 1.459230603265948 0.9654356611491668
-0.09221597236987322 -0.08370093159831207 0.1211972616325171
-0.9920665187021921 2.025636005040993 1.091878312261364
-0.9991283337137296 0.8222390148899124 0.3928239992980263
0.6337311052191382 1.662274488505192 0.9077410234066091
0.927996816955999 -0.6334718132934704 0.3900703709969745
0.900013455882872 1.745559484221198 1.139644002639495
-0.3107888209139114 2.168417809488099 0.5993300966803401
-0.6703956755851557 1.766731236124834 0.1182400837168755
-0.4276422516535586 0.1203423947616411 1.259875897280878
0.9357283597796456 1.557221442006651 0.6102967837332536
0.7650419369572976 1.523439508044949 0.8703955139816351
-0.9084433861450006 1.682892505885907 1.095116892943475
0.6305758867769948 1.760627902268294 0.8988365682585086
0.6746817320156131 -1.039453034724456 0.05709867838250669
0.9344269353322878 1.675502772015653 0.5426608209719506
-1.000099677813734 0.03170723366078029 0.6767142650930126
0.7912719064005502 2.046038858648327 0.5354865318581
0.9245009484610837 1.675502772015653 0.3040127154048588
-0.9000652889018208 2.004523823492155 0.6713452502108455
0.6362111581566143 2.143628907408892 0.3230355486501654
0.2526109650245219 2.173368962615038 0.7370579420555861
-1.004911115043813 0.3929858160583187 0.5425242979744234
0.198571233064478 1.190158680482277 0.1193043818188907
-0.9954545500509169 -0.6334718132934705 0.2827889864428371
0.6398483873059048 2.11508436798405 0.7188079562858456
0.90648247137028 -1.141872266087334 0.5549365439818035
-0.8410271731204091 2.004918647075021 1.121146623974305
-0.6885621523558513 0.8222390148899125 0.1433090373325159
0.9097215030497361 -0.9698334008315536 0.674397220346071
-0.5675806669818181 -2.209991191090509 0.2832389264637587
-0.9622363838416114 -1.44702210757139 0.5791940912349916
-0.1848970809986508 2.145251516322932 0.6975777120447186
-0.08800553030219746 2.168935390355915 0.5993300966803122
-0.8202905546543743 2.070392233540487 0.7501922181981183
0.7544689784811247 -1.8964293436804 0.424914425643321
-0.9714638932319452 0.5259870190002646 0.179686294797163
-0.6895682752002447 0.3929858160583187 0.1431236189702601
-0.4759356653421007 1.936274488879383 0.1467644381398449
0.5069583682609394 0.1203423947616422 1.222262876636984
-0.1929503229157634 2.173891520864121 0.2424056029874299
-0.658897125706539 -1.080450675013789 0.09297127723065293
0.3543590755618637 -1.201949842861478 0.8533227981165221
-0.3919969973761641 -1.822504012233147 0.7523675777025858
-0.1814625499346122 -1.822504012232697 0.7530354580906508
0.4683221243389085 2.127430907487934 0.6785399535050891
0.5996655804685714 -2.103387253894836 0.3754844447430555
0.1098002773305594 1.9471128991035 0.8928724716299142
-0.5448161186398854 1.900254883580702 0.9114913977483464
0.6288133421855151 -0.2253829597145534 1.095312488428629
-0.541538873808354 2.15164612360815 0.7143922838740942
-0.9760001361453761 -1.141909089476815 0.6277660047083202
0.34613624816168 -1.389357571691595 0.8310287356366388
-0.4139533996314702 -1.237716167409795 0.114599396731435
0.01716882227176505 2.159084898841606 0.6239100670278274
0.5120175864072258 2.145839800388484 0.7264798946334266
0.7782154388231581 1.901094385596627 1.130956305890737
0.8508037211066313 -1.635878974402972 0.562233749163652
-0.6793697452917978 1.305211945843861 0.08327117325601013
-0.08556509929326917 -1.508255722793518 0.8065929983574909
0.5770063783575088 1.862499225355543 0.8899616124852634
0.2458661244324081 1.393146120519235 1.022272372108359
-0.3970607653556294 1.719356857873967 1.076230487653743
-0.2678532130631711 1.241833535877394 0.1171215196911848
-0.6563019959952769 1.094379729047367 1.024464110454956
0.8556703083195734 1.967997218425386 0.6804041476538374
-0.5960530748851901 1.933553590926869 0.98006673530919
-1.003488778881937 0.2716171222531965 0.5425243258445538
-0.4889036683986034 -1.767625606136969 0.7595610614602378
0.3907684660945803 0.7381506718490817 0.1233176385910193
0.6756400705197742 1.237594970187502 0.9204850573848354
-0.7175201638831923 1.305211945843862 0.04336685792413396
-0.999460061252618 1.751755606343382 1.108920969553404
0.82711929425923 1.788456832345311 1.075890317635878
0.7767157817990591 1.970185466931285 1.143043171852869
0.6731617813054879 2.107031166203562 0.7267961245439538
0.9007750292513009 1.852784260611092 0.2968854590865575
-0.5262514214599655 1.665836571704473 1.077413605101477
-0.7228962257781841 1.786164656669699 0.890147668006255
-0.6459319184516918 -1.395398439186087 0.08624625391771754
-0.8809583612339024 -0.3094887133043505 0.1436263149643948
-0.2285775987719016 -2.283318919219803 0.632914884972546
0.5667979688843595 2.094696339776279 0.7962184382064977
0.9238047319865145 1.682494597373838 1.046653660238742
-0.5584818910407907 -0.901731442794554 0.1257076831595336
0.6038517122150983 2.060004331651511 0.8244406021719636
-0.1782006916914066 2.164500347234913 0.7580320830449305
-0.2557044214810749 -1.23771616740978 0.1145993967314346
-0.970928353957571 -1.291533484456501 0.5650077488645335
0.9293522794994775 1.435521760501633 0.3028909296064287
0.524180687481145 2.021308395286952 1.150675517768644
0.2399414753668354 2.159084898841718 0.6239100670278598
-0.9594756829884807 -1.29077129771462 0.1801402579583392
-0.6875382078359639 -1.895885894828193 0.6887952002557296
-0.9944924689087208 -0.3094887133043504 0.2827563516006003
-0.6851942037647607 1.901351052589038 1.129648041443819
0.3953484494092856 -2.288334145215364 0.5537672170871493
0.9322805807438651 1.698292739435904 1.045189905955631
-0.8526990247248679 2.055830571582739 0.3898027734849556
-0.08590699700414742 2.039554393261658 0.8653440419878278
-0.5233157463532373 -1.389357571691626 0.8269572541258606
-0.6789553848942138 1.89152090785478 0.8809307805484427
-0.1650348720019076 1.861244297613147 1.126274846614296
0.4501014419145883 -0.1062883620531778 1.242588312900212
-0.642347553648746 2.037933113875238 1.150362259065953
-0.9343151870116169 0.8236408938633573 0.8389814117094927
-0.7074177379109367 2.093671403509349 0.2214404951307943
0.6225722817719213 -0.1111039661396277 1.104333083734794
0.1980693638180196 2.145699501662198 0.6976677164993065
-0.9384898022126318 -1.487528203432078 0.1018766421951754
-0.4282491535521297 -1.10586405818961 0.8659765050126285
-0.1931550029903554 2.121575231552291 0.2055120569753734
0.7180409534009077 2.038313628770418 1.148387339314448
0.7241341595304045 -1.951276983487244 0.5653884544945129
0.7968129513672035 0.7612966331156335 0.9041311802135683
0.565413196560332 -1.821001369982968 0.1613252544341864
0.9278811057778966 -0.536964146896691 0.3906277679100955
0.6068541377485021 2.027521679230735 1.132782003669537
0.5218570109210224 1.767820512365623 0.9181675506942564
0.8744553064776666 -1.486867674736725 0.6658879420561421
0.7138841098163755 2.088466683850947 0.7127313509452569
-0.7247609364133475 -1.95442240165094 0.1777963072074244
-0.7102761352773347 2.143972016470404 0.387007199353599
0.899062389411034 0.6504270813611881 0.1796925641960676
-0.111150553886575 1.305211945843851 0.1149134788333613
-0.2616831587405556 2.166887717421421 0.7156562130394859
0.4510737637363007 1.916703111693489 0.8963777655625609
-0.8296384963831902 2.061515517762232 0.704668708012115
-0.08747902245722707 2.145102187876485 0.6975477105598485
-1.001621944897705 -0.3094887133043504 0.6074871376848807
0.8574549133109568 1.967175925563822 0.4721592691152603
0.8843780416817305 -0.908814962608102 0.1827580094975
-0.6829932766279996 1.763526255787525 0.9018181625471011
0.7130457847458719 1.702803446719678 1.071530784529933
-0.3614651581963685 1.869603171261423 1.08714742526717
0.470745314809675 1.738809148871128 1.067492768973218
