-76.52582550048828 -119.2729797363281 18.15449142456055
-13.15383625030518 -52.14221572875977 138.5535583496094
19.27949142456055 -106.2649612426758 122.3694152832031
116.1135482788086 -101.2831878662109 21.53567504882813
-46.60751724243164 -76.99641418457031 29.63282203674316
-71.29986572265625 -165.705322265625 104.5894241333008
61.5952262878418 -200.5923767089844 86.95745849609375
-77.29262542724609 135.2119445800781 112.3861923217773
98.36045837402344 -91.07141876220703 24.60167121887207
73.94453430175781 25.51420783996582 28.49136352539063
7.602674961090088 248.632568359375 47.60229110717773
111.9426116943359 -162.8706970214844 50.48682022094727
6.97794246673584 -165.6610565185547 27.23187065124512
115.7827987670898 -107.3070526123047 50.49272918701172
-58.54868316650391 -119.2729797363281 0.5804756283760071
-26.36692810058594 -107.7419128417969 26.78373718261719
-78.23079681396484 -87.74378204345703 65.81523132324219
115.8674392700195 -24.51846885681152 92.67115783691406
-68.69173431396484 179.002685546875 151.4670867919922
-35.17063140869141 -113.424560546875 20.38390159606934
-46.60545349121094 -61.40783309936523 28.8832950592041
-53.63165283203125 -194.4510498046875 90.60681915283203
-76.32286834716797 185.5865783691406 86.13186645507813
-12.42472362518311 249.8545227050781 65.896484375
112.5478210449219 161.6756286621094 133.9546661376953
31.07369995117188 -209.9796142578125 55.83630752563477
91.93207550048828 -197.8399200439453 83.45092010498047
31.08451080322266 -209.0589904785156 31.99898147583008
-5.574450016021729 -95.21832275390625 27.69463539123535
73.33204650878906 -124.8747100830078 19.33025360107422
-50.18576431274414 -171.0924682617188 109.2779312133789
-76.88327026367188 -113.2727584838867 83.45092010498047
97.7852783203125 146.9243927001953 1.104304909706116
-77.5601806640625 -101.1664047241211 50.49259185791016
-70.79599761962891 -185.8153533935547 57.35335159301758
-64.66365051269531 91.91511535644531 163.2748565673828
-3.37307620048523 -128.0982971191406 119.2519149780273
-75.04875183105469 -141.7621154785156 83.45092010498047
105.4379501342773 230.4552307128906 131.7293548583984
115.8685607910156 -24.51848602294922 84.58476257324219
-46.60545349121094 -61.40783309936523 28.8832950592041
30.95344924926758 249.1202087402344 112.6994018554688
97.36395263671875 129.1997222900391 11.74451637268066
-75.38447570800781 194.1102142333984 83.45092010498047
19.27949142456055 193.5175170898438 173.3547515869141
-40.69585418701172 -197.1581878662109 90.55655670166016
97.39076995849609 -113.424560546875 2.256662607192993
48.89355087280273 190.2967681884766 172.5871734619141
6.56771993637085 -25.81150245666504 24.61335372924805
-39.80912017822266 -131.1705627441406 118.118278503418
68.87307739257813 -143.6589508056641 116.4023895263672
-13.03921794891357 -103.927619934082 122.1426620483398
91.11548614501953 -131.1705627441406 118.0357971191406
-28.61696434020996 -184.6672058105469 105.4055557250977
113.455940246582 111.0447540283203 123.1287460327148
-15.3586950302124 157.8013610839844 29.00394058227539
-13.74597454071045 -175.3439788818359 28.11274528503418
-70.06517791748047 -161.1489868164063 108.1312942504883
53.34661865234375 -137.3694763183594 26.54887008666992
-74.03724670410156 -155.4408569335938 99.99091339111328
30.08975791931152 247.4465789794922 135.8266754150391
91.75923919677734 -191.7587738037109 94.92200469970703
-75.84339141845703 -130.0736236572266 94.04217529296875
-59.7166633605957 -93.298583984375 19.37672805786133
-69.02915954589844 220.4159240722656 36.53456115722656
-31.21155548095703 235.3902282714844 35.46887969970703
114.7871246337891 111.0752639770508 86.13186645507813
84.05328369140625 135.3446502685547 11.89538192749023
-72.621826171875 -169.1004180908203 93.20044708251953
-59.17950820922852 173.0824127197266 4.735218048095703
115.7916412353516 -107.1283569335938 94.04217529296875
7.427338600158691 -205.3406524658203 86.77288055419922
116.2683334350586 25.69293785095215 93.82280731201172
-2.678875207901001 -37.2528190612793 150.7772369384766
-29.08877754211426 -174.3410339355469 109.3982238769531
94.92108917236328 -158.1846923828125 19.96250915527344
-3.268083333969116 250.2380828857422 74.65324401855469
83.18437957763672 110.0823211669922 28.9971981048584
-19.25140762329102 209.8533020019531 160.6418151855469
-64.26699066162109 238.3461608886719 102.5130233764648
113.6504516601563 194.1125640869141 112.3861923217773
117.1494216918945 -61.37915802001953 65.28205871582031
-31.11679840087891 -120.2419204711914 119.6264724731445
115.5273284912109 156.5510864257813 83.45092010498047
-73.59899139404297 207.0252838134766 88.10944366455078
-23.00422668457031 -201.30859375 85.81485748291016
-76.53252410888672 179.2932434082031 112.3861923217773
-70.78007507324219 -185.9844207763672 50.58563232421875
97.92777252197266 -101.5651473999023 9.104034423828125
73.83746337890625 130.1199645996094 174.1019287109375
8.598268508911133 239.9892730712891 142.8692016601563
113.9408798217773 194.1369171142578 88.10944366455078
109.3060073852539 -186.3389129638672 43.36908340454102
61.91840744018555 -96.92679595947266 122.8708419799805
-76.96701049804688 161.7921142578125 112.3861923217773
-68.92670440673828 151.6603851318359 152.3162536621094
115.3971633911133 179.1348114013672 42.99692535400391
-76.82296752929688 179.3143615722656 94.04217529296875
112.591194152832 -155.6141052246094 83.45092010498047
-10.51338386535645 55.55434036254883 174.4151611328125
-40.56155014038086 -199.2995147705078 87.18409729003906
65.97563171386719 182.9699554443359 173.1102142333984
112.5930862426758 -155.5873565673828 88.00366973876953
42.0419807434082 247.4656524658203 126.6103057861328
-70.96007537841797 -184.0935821533203 83.45092010498047
-77.34210968017578 147.2130889892578 94.04217529296875
40.150146484375 97.29628753662109 175.4168853759766
114.0310134887695 -135.6485748291016 83.45092010498047
-74.02116394042969 -155.7593841552734 42.99528121948242
-46.60751724243164 -76.99641418457031 29.63282203674316
-5.237059593200684 -25.45538139343262 24.95391654968262
67.28932952880859 -4.034412860870361 164.7485656738281
-10.2324390411377 198.2818145751953 168.8236389160156
-42.95271682739258 -158.1923065185547 21.8903751373291
-15.04825592041016 -126.3596115112305 26.652099609375
-56.36211013793945 -158.1846923828125 19.96250915527344
-74.71428680419922 -85.47022247314453 120.2491455078125
-76.92372131347656 73.34529876708984 88.10944366455078
106.8208389282227 185.2609558105469 151.0580596923828
78.33092498779297 246.0480804443359 93.92786407470703
116.1272811889648 -101.0142288208008 83.45092010498047
42.05352401733398 237.7852935791016 34.45940780639648
-5.527151107788086 -98.83463287353516 27.6956958770752
61.4271240234375 -204.2322998046875 32.89453506469727
-5.237059593200684 -25.45538139343262 24.95391654968262
71.67755126953125 -165.2336883544922 28.55317878723145
-71.79872894287109 -175.7174072265625 87.81829833984375
-75.22319793701172 -42.92530822753906 32.1185302734375
-64.30345153808594 239.3570861816406 83.40166473388672
-73.21651458740234 -96.5606689453125 16.35770988464356
-57.11173248291016 -4.603991985321045 163.0034637451172
117.2789916992188 -76.90013885498047 50.48216247558594
114.7375030517578 -124.8747100830078 42.99747467041016
114.0310134887695 -135.6485748291016 83.45092010498047
-50.87160873413086 -161.4021606445313 111.9407501220703
61.04802322387695 243.8200988769531 41.09797668457031
-71.47148895263672 220.3936309814453 44.66540145874023
115.6998443603516 -87.06900024414063 115.6324615478516
51.28428649902344 -207.0043487548828 41.47541809082031
61.9356803894043 -51.65494537353516 138.3737487792969
-22.5361328125 247.3919525146484 85.73285675048828
-71.66551208496094 156.3913726806641 142.9450988769531
-3.240993976593018 248.8264923095703 53.63040161132813
-76.71674346923828 125.9818725585938 86.13186645507813
51.38328552246094 -116.0186996459961 120.5528793334961
-19.66775131225586 156.3680114746094 175.1162414550781
-26.95626068115234 -61.66885757446289 27.69980430603027
69.69229888916016 -204.7001647949219 42.15541458129883
75.08203125 32.47767639160156 171.6731414794922
-40.38009262084961 -202.1483764648438 75.28424072265625
-4.832685470581055 122.203971862793 27.98591232299805
115.8171234130859 161.7828369140625 83.45092010498047
-21.39091300964356 -36.4890022277832 150.3511047363281
19.27949142456055 194.6322784423828 27.98182678222656
44.06653213500977 175.6937561035156 29.4549732208252
115.5372619628906 156.3993988037109 50.49272918701172
115.2844924926758 125.8032455444336 57.35335159301758
75.43525695800781 13.35234832763672 168.8741760253906
-68.00026702880859 -83.7020263671875 123.1505584716797
42.01804733276367 -208.52490234375 41.24895858764648
-77.50547027587891 135.2210083007813 102.5833282470703
-58.98769378662109 151.7174987792969 0.03460100665688515
-31.15170860290527 -204.3665924072266 56.71973037719727
19.27949142456055 -26.00324249267578 24.42999076843262
116.1135482788086 -101.2831878662109 21.53567504882813
-30.74558067321777 243.4541015625 41.49747467041016
83.99354553222656 77.64665222167969 172.9200439453125
59.47739028930664 -21.673583984375 158.0461120605469
-78.72329711914063 -76.82438659667969 75.40806579589844
94.76458740234375 -192.4539642333984 29.97652626037598
109.5190582275391 -184.0935821533203 83.45092010498047
-77.35407257080078 147.0346374511719 42.99747467041016
7.602674961090088 249.6449890136719 53.41827392578125
84.01936340332031 167.2473449707031 8.695611000061035
44.00431823730469 164.0474395751953 28.99017524719238
91.38169097900391 -125.6207885742188 118.7175369262695
-77.71046447753906 25.69293785095215 85.88433074951172
19.27949142456055 -201.3109588623047 94.69499206542969
-70.53871154785156 220.498291015625 120.9198455810547
83.98923492431641 -101.5659332275391 13.67714977264404
116.0370101928711 -0.5639562606811523 93.16472625732422
-31.45806503295898 -108.7892150878906 121.0866088867188
30.87677192687988 -147.7519073486328 116.7098693847656
-77.25814819335938 161.7828369140625 83.45092010498047
-32.20009231567383 -184.1916961669922 28.94541168212891
-71.40475463867188 -174.155029296875 99.63668060302734
-70.98894500732422 -135.7768096923828 5.823524475097656
7.212442398071289 -74.56415557861328 126.2068405151367
40.49227142333984 173.9359588623047 175.1839447021484
-77.2244873046875 -107.2951431274414 65.81523132324219
104.2968215942383 -131.7195739746094 117.09130859375
30.18867874145508 192.7903442382813 173.1814575195313
97.73849487304688 173.0824127197266 4.735218048095703
-22.82958602905273 -205.1335144042969 56.42245101928711
115.8652877807617 -24.68533897399902 63.81584930419922
-76.33748626708984 185.4069976806641 50.49217987060547
-77.42572021484375 50.80131530761719 83.45092010498047
115.2745895385742 125.9818267822266 94.04217529296875
65.14779663085938 141.7749176025391 27.28178024291992
-66.63395690917969 -115.1881256103516 119.1086959838867
19.27949142456055 -185.0436553955078 107.8711318969727
19.27949142456055 187.7585906982422 174.725830078125
40.31659698486328 158.2210540771484 175.7561950683594
-67.01408386230469 231.1657104492188 39.76943588256836
99.17657470703125 174.5771026611328 169.4087371826172
115.2745895385742 125.9818267822266 94.04217529296875
97.39378356933594 178.6015777587891 8.508563995361328
95.98873901367188 -170.8455810546875 29.97652626037598
-76.51113128662109 91.60406494140625 42.95454406738281
115.3355484008789 -113.2398452758789 107.557731628418
19.27949142456055 247.9437103271484 135.9103088378906
-71.48274230957031 220.4679565429688 51.63386535644531
-23.61757469177246 -83.47004699707031 124.6020812988281
103.0796127319336 238.195068359375 125.056037902832
107.9022216796875 230.9651031494141 112.3459777832031
-71.12113189697266 -182.3782043457031 91.90003204345703
-23.18000984191895 -197.1419219970703 28.46163368225098
114.7476348876953 -124.6961135864258 94.04217529296875
-76.22725677490234 -106.5590667724609 113.424186706543
-76.18951416015625 -124.6961669921875 88.10944366455078
116.2845840454102 -95.06169891357422 108.754997253418
30.97035217285156 251.0676727294922 74.5352783203125
-5.122107028961182 74.07574462890625 27.8354377746582
-2.750753164291382 -166.1412200927734 112.2708129882813
-76.33737182617188 185.4083404541016 57.35335159301758
111.6504058837891 185.4204406738281 133.505126953125
-51.92768859863281 -143.6589508056641 116.1818542480469
43.00486373901367 -164.2131042480469 27.56075668334961
19.27949142456055 13.16304206848145 171.0634307861328
115.5372619628906 156.3993988037109 17.87601089477539
19.27949142456055 25.68182754516602 26.86714744567871
78.79063415527344 -120.2419204711914 119.4486846923828
-77.36546325683594 141.9650726318359 112.3861923217773
-73.29598236083984 -154.0052032470703 107.3618087768555
73.33204650878906 -124.8747100830078 19.33025360107422
53.91036224365234 25.57282638549805 27.65345001220703
-14.86422634124756 196.8169403076172 28.47792053222656
114.4032363891602 -130.0736846923828 88.10944366455078
-75.39768981933594 193.9568481445313 50.5792121887207
83.67227935791016 151.7174987792969 6.978291034698486
-73.61557769775391 206.8472595214844 57.58017730712891
-62.64914321899414 -77.49901580810547 29.97652626037598
65.07762145996094 -101.9813079833984 27.25881385803223
-76.52582550048828 -119.2729797363281 32.34650421142578
-40.48260879516602 -200.5470581054688 83.36602020263672
115.5560684204102 173.2408447265625 112.3861923217773
115.6129455566406 151.8959197998047 94.04217529296875
6.514626502990723 155.0205383300781 28.18232536315918
-54.35551834106445 -199.876953125 34.48398590087891
-45.34059524536133 146.0352478027344 173.7995300292969
69.73295593261719 -203.9604187011719 65.30446624755859
114.0207290649414 -135.8002471923828 50.49272918701172
-5.655034065246582 -88.51828002929688 27.81426429748535
-45.03836441040039 91.77479553222656 29.63282203674316
115.2754440307617 125.9818572998047 88.10944366455078
78.02058410644531 -45.48527908325195 143.1541748046875
-66.39449310302734 -188.9947052001953 90.92793273925781
90.51467132568359 245.7770385742188 75.42412567138672
19.27949142456055 -207.0217742919922 85.57833862304688
116.1470184326172 135.0455322265625 57.35335159301758
112.1582641601563 207.0253143310547 86.13186645507813
69.75667572021484 -203.4684600830078 33.34874725341797
99.345947265625 148.6443786621094 170.4171142578125
-15.3513822555542 25.57282638549805 27.65345001220703
-74.00980377197266 173.1100921630859 133.8142242431641
112.1571044921875 207.0252075195313 94.04217529296875
7.682209014892578 -147.7519073486328 116.7098693847656
116.1498947143555 135.0695037841797 50.46306991577148
19.27949142456055 165.7935638427734 28.49405860900879
-18.97992515563965 224.1583709716797 151.1063079833984
30.99138832092285 249.46240234375 87.57849884033203
-77.14086151123047 -87.06900024414063 115.6324615478516
51.49154663085938 -110.109016418457 121.3188400268555
-77.77530670166016 -42.91338729858398 64.21572875976563
111.9566268920898 -162.6934814453125 87.92461395263672
114.786003112793 111.0752258300781 94.04217529296875
-76.01719665527344 -77.00295257568359 34.28318023681641
111.9426116943359 -162.8706970214844 50.48682022094727
-75.46175384521484 -135.8002471923828 50.49272918701172
64.17153167724609 195.6180572509766 28.75069999694824
-22.5361328125 247.3919525146484 85.73285675048828
115.4827041625977 73.34529876708984 88.10944366455078
73.73809051513672 -24.69725608825684 26.10760879516602
19.27949142456055 193.5175170898438 173.3547515869141
102.2947158813477 193.9139709472656 158.7810668945313
-72.88646697998047 -122.4537048339844 115.5574493408203
31.60858535766602 211.5307159423828 28.33170509338379
116.7966003417969 -87.57691955566406 94.04217529296875
115.0891571044922 -119.2015533447266 75.40806579589844
-78.71944427490234 -76.91285705566406 42.95520782470703
64.73460388183594 -0.8130062222480774 26.63324546813965
-74.55889129638672 -148.5732879638672 42.99692535400391
6.427471160888672 176.9204254150391 29.13457107543945
-44.93004608154297 129.2043304443359 15.75104713439941
-51.87076187133789 245.2931671142578 60.16124725341797
-73.31073760986328 206.9981842041016 112.3861923217773
111.5293502807617 -101.4944229125977 12.19181442260742
-77.26854705810547 161.6311798095703 57.35335159301758
58.31111526489258 183.5281829833984 173.5944671630859
-31.15170860290527 -204.3665924072266 56.71973037719727
69.10137176513672 -137.2863464355469 117.4601745605469
115.9010925292969 147.2130889892578 94.04217529296875
117.2276992797852 -76.82527923583984 102.0514068603516
-77.30630493164063 -24.68533897399902 63.81584930419922
51.07267379760742 248.0914764404297 85.65945434570313
-75.84425354003906 -130.0736846923828 88.10944366455078
42.13813781738281 -203.5829010009766 86.83628845214844
78.33142852783203 246.456787109375 87.96641540527344
-26.66853332519531 167.7517852783203 28.46529388427734
-77.56019592285156 -101.1660995483398 57.35335159301758
69.10137176513672 -137.2863464355469 117.4601745605469
-12.51359844207764 247.9538421630859 87.68893432617188
116.7512283325195 -87.60263061523438 101.8168334960938
115.381950378418 179.3143615722656 94.04217529296875
-3.46740460395813 -208.1856536865234 56.03765487670898
30.33871459960938 32.79504776000977 173.7779388427734
40.150146484375 97.29628753662109 175.4168853759766
-62.54708099365234 25.51420783996582 29.52897644042969
-4.445883274078369 -164.2131042480469 27.56075668334961
117.279182434082 -76.89589691162109 57.35335159301758
-27.30628204345703 188.5646820068359 171.7691955566406
-68.16539764404297 230.6540985107422 128.23583984375
84.59836578369141 -42.92530822753906 27.38424110412598
115.0919876098633 -100.4175262451172 114.136116027832
103.9710006713867 142.0048522949219 163.3563385009766
-76.71561431884766 125.9818267822266 94.04217529296875
109.963737487793 -174.155029296875 99.63668060302734
-52.25806427001953 243.3671264648438 49.77197647094727
-26.43222808837891 147.3592987060547 27.48929023742676
43.75841522216797 -121.6423416137695 26.60703849792481
115.6208419799805 151.7888946533203 75.40806579589844
-76.51171875 91.57815551757813 50.48199462890625
-77.56973266601563 -100.987434387207 86.13186645507813
110.7909545898438 -133.3816070556641 114.2320938110352
61.07632827758789 247.7506256103516 83.01931762695313
-35.03261184692383 129.2052612304688 23.77185440063477
115.8650512695313 -24.69725608825684 48.13873291015625
-54.35551834106445 -199.876953125 34.48398590087891
108.0478820800781 231.2213897705078 53.24486923217773
63.93624114990234 120.8330993652344 28.36668968200684
-15.3586950302124 157.8013610839844 29.00394058227539
19.27949142456055 226.8812255859375 30.03114318847656
115.6253356933594 151.7174987792969 17.93496131896973
-44.1826171875 194.9795837402344 28.79401779174805
-75.04311370849609 -141.8424072265625 75.40806579589844
-3.46740460395813 -208.1856536865234 56.03765487670898
62.33047485351563 -56.65035629272461 133.7764739990234
99.57486724853516 75.01472473144531 169.9622955322266
-19.32028961181641 244.952392578125 135.3745269775391
-44.751220703125 -119.2729797363281 6.94614315032959
-13.47769260406494 -73.20388031005859 125.999267578125
110.5600891113281 -119.2729797363281 4.944227695465088
100.2730102539063 73.47453308105469 29.97652626037598
44.32688140869141 -78.54330444335938 27.8354377746582
-76.01719665527344 -77.00295257568359 34.28318023681641
64.83132171630859 156.8667297363281 27.87442398071289
-12.41061401367188 247.6165618896484 112.6030349731445
-41.63325119018555 -72.25900268554688 125.4777069091797
-39.16500091552734 245.099853515625 128.3679656982422
114.8394317626953 0.3955690562725067 121.9818115234375
68.13020324707031 -163.0264434814453 112.0997009277344
-77.77918243408203 -42.77333831787109 82.16548919677734
116.7974624633789 -87.57695007324219 88.10944366455078
40.87704086303711 -188.1506500244141 105.4735412597656
69.91896057128906 -200.5547180175781 85.91609954833984
112.5879211425781 -155.6618041992188 33.22618865966797
-73.59928131103516 207.0253143310547 86.13186645507813
7.387028694152832 -201.8158569335938 27.50778198242188
115.9123382568359 147.0465240478516 65.81523132324219
6.459727764129639 165.1824645996094 28.66769027709961
78.36810302734375 -131.1705627441406 118.118278503418
-28.46430206298828 13.35234832763672 169.528076171875
58.46694564819336 177.6991882324219 174.2651672363281
83.18437957763672 110.0823211669922 28.9971981048584
-12.05566596984863 -151.7217102050781 115.1686019897461
71.67755126953125 -165.2336883544922 28.55317878723145
31.60858535766602 211.5307159423828 28.33170509338379
-74.55880737304688 -148.574462890625 50.49259185791016
67.42958068847656 -179.2032318115234 107.7204208374023
-77.65863037109375 141.8713989257813 75.40806579589844
-76.33781433105469 185.4029693603516 42.99528121948242
108.655158996582 27.29056549072266 151.2152404785156
-76.92460632324219 73.31849670410156 83.45092010498047
-76.72200012207031 125.8746948242188 75.40806579589844
103.7601165771484 167.3564147949219 162.6523590087891
43.75494766235352 131.069091796875 27.8878288269043
102.8946228027344 239.0471038818359 86.06150817871094
100.3022537231445 -46.32859802246094 141.7266693115234
-75.40766906738281 -135.6171417236328 106.173225402832
19.27949142456055 126.980712890625 27.57182121276856
6.533035755157471 187.3592529296875 29.06354713439941
53.88098907470703 184.9439544677734 29.65570259094238
92.14028930664063 196.0550537109375 166.5177917480469
110.2900772094727 -176.44140625 57.35335159301758
-33.38626098632813 206.8472595214844 29.75321578979492
40.30770874023438 162.9592742919922 175.5416107177734
71.86860656738281 -161.1306304931641 27.3764820098877
-58.79265975952148 -36.91331481933594 148.3200531005859
82.74160003662109 194.9795837402344 28.79401779174805
64.52267456054688 190.2287292480469 28.8046760559082
8.021583557128906 -184.1861877441406 107.8546600341797
90.51467132568359 245.7770385742188 75.42412567138672
-72.85285186767578 -166.2373809814453 102.2781982421875
92.34990692138672 -56.38968658447266 133.0917510986328
6.351001262664795 -89.37062072753906 27.48651313781738
-1.536128878593445 212.4320831298828 161.1567840576172
30.53141403198242 -22.56716346740723 158.7964172363281
51.27374649047852 -121.6792755126953 119.8418197631836
115.4119644165039 73.34413146972656 102.5833282470703
-31.19769287109375 -203.4684600830078 33.34874725341797
-75.03520965576172 -141.7342224121094 100.9284744262695
-74.58180999755859 -135.0560150146484 110.2983093261719
51.41034698486328 -203.3556060791016 82.99053955078125
19.27949142456055 126.980712890625 27.57182121276856
71.67755126953125 -165.2336883544922 28.55317878723145
69.847412109375 -114.6388549804688 120.3294067382813
-13.40614032745361 -186.285400390625 28.11274528503418
-76.71674346923828 125.9818725585938 86.13186645507813
115.8275299072266 161.6311798095703 50.49272918701172
-20.23113250732422 32.52103805541992 172.8331756591797
100.9093399047852 -0.7427166700363159 28.18632698059082
-71.5040283203125 220.5846099853516 88.099365234375
7.894132137298584 -37.7017707824707 151.0002136230469
111.6504058837891 185.4204406738281 133.505126953125
-44.36259460449219 123.9292831420898 20.50983428955078
43.75494766235352 131.069091796875 27.8878288269043
82.54922485351563 209.205322265625 159.3959808349609
92.34990692138672 -56.38968658447266 133.0917510986328
6.777386665344238 123.0097351074219 27.6589298248291
115.9885787963867 167.4209594726563 102.5833282470703
115.8611526489258 173.0824127197266 42.99747467041016
-3.579156398773193 -203.5829010009766 86.83628845214844
-68.75449371337891 230.8467559814453 124.8514862060547
113.9411697387695 194.1369476318359 86.13186645507813
41.19111633300781 -172.4522247314453 110.9036026000977
-5.50754976272583 175.6937561035156 29.4549732208252
-22.1334228515625 245.8815155029297 128.8171997070313
61.08998489379883 247.0806732177734 119.4708862304688
31.87867164611816 -134.0094451904297 25.90276718139648
-49.80769729614258 -186.2968292236328 102.4377899169922
90.64186096191406 244.2109832763672 88.02915954589844
30.05184364318848 117.6584625244141 176.0856170654297
-11.18404960632324 247.3016357421875 131.4735717773438
107.4856872558594 151.6603851318359 152.3162536621094
-19.20646095275879 115.5946884155273 175.1109008789063
111.1659469604492 -169.2785949707031 57.35335159301758
-72.61959075927734 -169.1271514892578 83.45092010498047
80.19223022460938 -72.25900268554688 125.4777069091797
-76.82622528076172 179.2877044677734 83.45092010498047
7.534190654754639 -129.2620849609375 119.3336944580078
31.85730934143066 199.4058837890625 27.8759880065918
-70.79599761962891 -185.8153533935547 57.35335159301758
-12.41836833953857 248.1337890625 53.80993270874023
-3.459065198898315 -208.52490234375 41.24895858764648
-5.398905754089356 181.3059997558594 29.53034591674805
7.578214645385742 -134.9508209228516 118.6282577514648
107.6364364624023 73.27436065673828 152.2931671142578
59.47739028930664 -21.673583984375 158.0461120605469
-74.95499420166016 185.5087280273438 122.9037399291992
-5.409585475921631 -43.99397277832031 25.53022193908691
82.88018035888672 196.4685974121094 167.0889892578125
-44.93004608154297 129.2043304443359 15.75104713439941
112.1607131958008 206.9985961914063 83.45092010498047
113.5139694213867 185.5087280273438 122.9037399291992
99.57486724853516 75.01472473144531 169.9622955322266
-1.810553312301636 185.749755859375 174.2212677001953
78.83842468261719 -203.9790496826172 50.26921081542969
-40.82771682739258 -102.6706085205078 121.701530456543
101.1605758666992 -42.92530822753906 27.7387752532959
-3.488255739212036 -207.272216796875 32.30661010742188
-76.77656555175781 -113.2398452758789 107.557731628418
114.3918380737305 -130.2521820068359 32.32246398925781
115.4435272216797 -113.2459564208984 88.10944366455078
103.0449371337891 238.4965972900391 122.8649215698242
-5.415564060211182 149.0901031494141 28.26129341125488
-72.27144622802734 -163.5337677001953 104.7460556030273
-69.60903167724609 231.3825531005859 83.42269134521484
7.242409706115723 226.0928955078125 30.20109367370606
117.1552047729492 -61.21227264404297 87.70862579345703
-67.71257781982422 -91.15896606445313 122.2452011108398
116.0381240844727 -0.5639654994010925 85.1417236328125
6.329575538635254 -63.42411041259766 26.73593521118164
7.413255214691162 -112.0090560913086 121.4875564575195
115.9038619995117 147.1863708496094 83.45092010498047
-77.67250823974609 141.6226654052734 19.23130989074707
-61.71403121948242 73.47453308105469 29.97652626037598
-10.40500545501709 184.6446228027344 173.9436950683594
-58.29010391235352 186.9715881347656 18.77042770385742
114.8806838989258 185.5864868164063 94.04217529296875
8.308803558349609 142.3082275390625 176.3176422119141
7.736286640167236 -154.2303619384766 115.2862701416016
-71.48649597167969 220.5649108886719 58.04590225219727
-31.21227836608887 -195.0067291259766 94.83299255371094
83.59734344482422 91.77479553222656 29.63282203674316
-44.59463882446289 186.9796447753906 21.39244270324707
-2.049874544143677 32.69361114501953 173.4533996582031
42.05352401733398 237.7852935791016 34.45940780639648
-75.09147644042969 194.1125640869141 112.3861923217773
-12.4778470993042 244.5520935058594 40.80987167358398
49.49310302734375 13.2861442565918 170.3201446533203
63.67457580566406 -148.4607238769531 26.4804630279541
-72.15322875976563 167.2155151367188 142.7755432128906
53.86096954345703 -114.7919464111328 27.20936965942383
69.91896057128906 -200.5547180175781 85.91609954833984
-60.44157409667969 157.9680938720703 170.0346832275391
74.18051910400391 171.3540496826172 173.3611602783203
115.5364837646484 156.4113006591797 65.81523132324219
-59.17950820922852 173.0824127197266 4.735218048095703
-27.66955947875977 139.3157196044922 174.8440246582031
101.7720260620117 -6.328264236450195 160.4827575683594
-73.49667358398438 -161.2472686767578 103.0707473754883
-76.28044891357422 0.3955690562725067 121.9818115234375
99.01091003417969 127.5087966918945 170.5505065917969
-76.16712951660156 -124.6947402954102 101.195930480957
-19.64962387084961 161.0428009033203 174.9035186767578
-72.621826171875 -169.1004180908203 93.20044708251953
32.08381652832031 150.107421875 27.93554306030273
112.5796661376953 -155.7656707763672 57.35335159301758
116.2217483520508 141.7999877929688 57.35335159301758
115.4043807983398 127.7609329223633 22.27322387695313
92.34990692138672 -56.38968658447266 133.0917510986328
7.580764293670654 246.1327972412109 40.31030654907227
-76.53017425537109 -119.2015533447266 75.40806579589844
-76.18980407714844 -124.6961898803711 86.13186645507813
-77.42572021484375 50.80131530761719 83.45092010498047
-54.45438766479492 -83.11793518066406 124.1089859008789
51.04375076293945 -132.7200775146484 118.4830780029297
115.4119644165039 73.34413146972656 102.5833282470703
40.87704086303711 -188.1506500244141 105.4735412597656
-33.30962753295898 -161.1306304931641 27.3764820098877
61.09463119506836 246.8451385498047 93.81191253662109
115.2839050292969 125.8151550292969 65.81523132324219
-76.52582550048828 -119.2729797363281 57.35335159301758
-76.33157348632813 185.4796447753906 75.40806579589844
-69.74394226074219 -153.9546203613281 16.40112495422363
96.82558441162109 -124.8747100830078 -0.0459689162671566
-74.08415222167969 147.1005249023438 134.1196441650391
-31.12753105163574 245.7460327148438 126.2216262817383
-59.22629928588867 146.9243927001953 1.104304909706116
8.388265609741211 79.09502410888672 175.4204559326172
-22.41924285888672 249.1430511474609 66.06449890136719
111.956657409668 -162.6934967041016 86.13186645507813
64.92591094970703 -107.7419128417969 26.78373718261719
-65.11154174804688 147.21923828125 163.3045806884766
79.19076538085938 -108.7892150878906 120.8948974609375
117.285758972168 -76.74393463134766 83.45092010498047
-77.11128997802734 -107.1219482421875 107.9599761962891
115.3755035400391 126.7223358154297 32.87477493286133
-50.51376342773438 -45.48527908325195 142.9511108398438
-10.40500545501709 184.6446228027344 173.9436950683594
19.27949142456055 -86.13845062255859 124.9699935913086
-68.92670440673828 151.6603851318359 152.3162536621094
115.4435272216797 -113.2459564208984 88.10944366455078
19.27949142456055 175.8017730712891 175.6951293945313
-45.46037673950195 167.2473449707031 8.695611000061035
110.2291946411133 -124.8747100830078 4.410777091979981
-11.18404960632324 247.3016357421875 131.4735717773438
111.9874649047852 -92.13784027099609 24.58378982543945
-76.71805572509766 125.955078125 83.45092010498047
-77.06560516357422 151.7294006347656 65.81523132324219
-53.46881103515625 -196.5923767089844 87.2506103515625
74.53524780273438 -86.70378112792969 28.55397605895996
41.23785781860352 -37.2528190612793 150.7772369384766
-76.50966644287109 91.64098358154297 75.40806579589844
-75.09147644042969 194.1125640869141 112.3861923217773
115.6157836914063 151.8692016601563 83.45092010498047
115.9856414794922 50.72089385986328 75.40806579589844
114.0207290649414 -135.8002471923828 42.99747467041016
6.560232639312744 51.42178726196289 27.50778198242188
-77.65213012695313 141.978515625 88.10944366455078
107.8229675292969 -177.3331146240234 34.31596755981445
79.57243347167969 -96.52880859375 122.5175704956055
-69.44109344482422 230.9431610107422 47.18291473388672
32.02594757080078 187.3592529296875 29.06354713439941
115.2381362915039 156.5614624023438 112.3861923217773
-15.3586950302124 157.8013610839844 29.00394058227539
-68.309326171875 124.7610549926758 18.56868553161621
42.21588134765625 -200.0856323242188 27.8354377746582
73.625 115.2680816650391 173.9140930175781
-69.48889923095703 231.2213897705078 53.24486923217773
54.03808212280273 148.2291107177734 28.53698539733887
-71.59060668945313 -168.9535980224609 102.7461242675781
-51.99687194824219 244.0370025634766 119.0849533081055
90.42974090576172 245.2931671142578 60.16124725341797
115.0649948120117 91.74818420410156 88.10944366455078
-74.03724670410156 -155.4408569335938 99.99091339111328
66.36404418945313 55.19113159179688 173.5762939453125
-76.44089508056641 -119.0886459350586 107.1837463378906
114.8018798828125 110.9720458984375 42.89089202880859
-34.94964599609375 186.9812622070313 26.59651565551758
-77.34326171875 147.213134765625 86.13186645507813
53.34661865234375 -137.3694763183594 26.54887008666992
-40.27258682250977 -203.8251647949219 57.14214706420898
115.3304443359375 126.1867828369141 42.52292251586914
-76.72550964355469 125.8032455444336 57.35335159301758
115.8275299072266 161.6311798095703 57.35335159301758
-44.96155548095703 165.7663269042969 173.1977996826172
-59.35368728637695 167.2473449707031 2.059924840927124
63.03781890869141 -165.8667297363281 28.33945083618164
54.11280059814453 136.5307464599609 28.01496696472168
107.402702331543 156.3291015625 152.1747589111328
117.2822799682617 -76.82438659667969 75.40806579589844
63.88265609741211 -142.3565521240234 25.98587417602539
112.6431350708008 147.1005249023438 134.1196441650391
63.28951644897461 207.4871673583984 29.27486038208008
31.29463768005371 -85.69499206542969 124.9125671386719
-77.34210968017578 147.2130889892578 94.04217529296875
-39.72443008422852 245.7943267822266 102.5104141235352
71.94524383544922 206.8472595214844 29.75321578979492
-28.82842254638672 -189.5424041748047 102.4584884643555
-12.60427570343018 -127.1133422851563 119.1827087402344
6.947615623474121 -162.6507263183594 26.97077941894531
-74.55964660644531 -148.5629577636719 65.81523132324219
49.06049346923828 140.5423431396484 175.6975402832031
44.02127456665039 -103.6337890625 27.614501953125
53.32442855834961 124.9935913085938 28.35064888000488
19.27949142456055 183.2610321044922 29.0379524230957
-70.98894500732422 -135.7768096923828 5.823524475097656
49.08259582519531 178.77587890625 174.6176147460938
102.8259735107422 238.3461608886719 102.5130233764648
99.37776184082031 168.7670745849609 169.6869659423828
115.4119644165039 73.34413146972656 102.5833282470703
104.4964599609375 -195.2073669433594 43.20277404785156
-31.13331604003906 -204.7001647949219 42.15541458129883
100.6821060180664 -178.3003082275391 104.3889541625977
115.0848083496094 -119.2729797363281 50.49272918701172
41.19111633300781 -172.4522247314453 110.9036026000977
-1.496601104736328 116.8944778442383 175.7507934570313
-68.69173431396484 179.002685546875 151.4670867919922
116.4365386962891 -95.06861877441406 94.04217529296875
77.72398376464844 245.099853515625 128.3679656982422
19.27949142456055 226.8812255859375 30.03114318847656
-72.61959075927734 -169.1271514892578 83.45092010498047
19.27949142456055 -117.3345260620117 26.41830444335938
-69.55503082275391 230.8112945556641 102.5430374145508
95.90586090087891 -141.8036651611328 4.356892108917236
113.7985000610352 -75.03031158447266 121.3133926391602
92.06327056884766 -201.3189849853516 43.49890899658203
112.3044967651367 -147.5780029296875 108.6469192504883
109.1867599487305 -12.79532623291016 145.4490814208984
65.41094970703125 209.205322265625 160.2439575195313
67.42958068847656 -179.2032318115234 107.7204208374023
49.81326675415039 -191.6910247802734 102.4754257202148
-77.05511474609375 151.8959808349609 86.13186645507813
30.6406135559082 -173.9650115966797 110.9479904174805
90.42974090576172 245.2931671142578 60.16124725341797
-26.93369483947754 115.2680816650391 174.6165466308594
115.4426651000977 -113.2459030151367 94.04217529296875
-77.50384521484375 167.4257202148438 86.13186645507813
114.0310134887695 -135.6485748291016 83.45092010498047
-35.52091598510742 -42.92530822753906 26.6751708984375
-71.72720336914063 -176.4830322265625 50.50686645507813
-75.84339141845703 -130.0736236572266 94.04217529296875
69.22132873535156 248.7873229980469 66.29747009277344
83.54369354248047 -113.424560546875 8.299076080322266
111.2998123168945 173.0824127197266 8.482212066650391
104.5614700317383 -193.38134765625 75.40806579589844
-77.66276550292969 141.7999877929688 50.49272918701172
-75.82424163818359 -130.0723419189453 101.115478515625
112.5962295532227 -155.4408569335938 99.99091339111328
30.95630645751953 248.632568359375 47.60229110717773
-77.47914123535156 -0.5639654994010925 85.1417236328125
-73.38918304443359 -162.8004302978516 75.40806579589844
-75.39641571044922 193.9706573486328 65.83412933349609
115.9134674072266 147.0272369384766 32.38161468505859
107.8684310913086 167.1454467773438 151.9389190673828
65.71039581298828 95.99818420410156 174.2876892089844
116.1370239257813 135.2240905761719 88.10944366455078
115.8275299072266 161.6311798095703 50.49272918701172
-32.20009231567383 -184.1916961669922 28.94541168212891
98.36045837402344 -91.07141876220703 24.60167121887207
-76.97827911376953 156.3993988037109 57.35335159301758
-53.11844635009766 -201.1180267333984 57.35335159301758
-27.15639114379883 196.4685974121094 168.0486755371094
-78.72677612304688 -76.74393463134766 83.45092010498047
-72.15322875976563 167.2155151367188 142.7755432128906
-71.02043151855469 -183.4536895751953 87.57391357421875
-69.44109344482422 230.9431610107422 47.18291473388672
59.042724609375 13.33028030395508 169.9882659912109
-75.04311370849609 -141.8424072265625 75.40806579589844
-3.656899690628052 -200.0856323242188 27.8354377746582
48.57773208618164 211.1492614746094 160.9287261962891
74.42228698730469 -91.03971099853516 27.37966537475586
30.18256950378418 164.0857238769531 175.8755035400391
114.7862396240234 -106.5590667724609 113.424186706543
114.5903396606445 185.5640411376953 112.3861923217773
-5.696356296539307 -62.77433776855469 27.06703186035156
6.947615623474121 -162.6507263183594 26.97077941894531
30.66485023498535 -37.7017707824707 151.0002136230469
60.06329727172852 -163.6519317626953 112.1742782592773
41.23785781860352 -37.2528190612793 150.7772369384766
-76.92802429199219 73.16661071777344 57.35335159301758
-75.03809356689453 -141.9137573242188 50.49272918701172
114.7871246337891 111.0752639770508 86.13186645507813
-66.05311584472656 -126.1699066162109 117.7732162475586
113.9434585571289 194.1102142333984 83.45092010498047
-73.38918304443359 -162.8004302978516 75.40806579589844
115.8558044433594 173.1537475585938 75.40806579589844
-31.11679840087891 -120.2419204711914 119.6264724731445
41.93205642700195 -128.0982971191406 119.2519149780273
-41.1817512512207 -90.60955810546875 123.2957458496094
-64.12104797363281 239.8541564941406 59.87027740478516
115.8611526489258 173.0824127197266 57.35335159301758
-54.82490539550781 239.2637329101563 135.7731628417969
79.19076538085938 -108.7892150878906 120.8948974609375
-77.22382354736328 -107.3070526123047 57.35335159301758
-44.80181121826172 160.5612335205078 173.3598175048828
-28.98267555236816 -21.53216934204102 157.6655731201172
114.9907073974609 25.93067169189453 122.7778549194336
-75.46255493164063 -135.7883605957031 65.81523132324219
-59.17950820922852 173.0824127197266 4.735218048095703
108.3177642822266 -93.81419372558594 19.91536331176758
111.1669311523438 -169.2667083740234 65.81523132324219
-69.34323883056641 230.9651031494141 112.3459777832031
114.5547256469727 -61.40892028808594 33.55986404418945
-74.02116394042969 -155.7593841552734 42.99528121948242
-51.88491439819336 246.0923461914063 66.79401397705078
19.27949142456055 -53.50130081176758 138.9562683105469
41.86743927001953 248.2296752929688 93.74991607666016
6.777386665344238 123.0097351074219 27.6589298248291
-42.47010803222656 -172.9421234130859 29.63282203674316
-22.49813270568848 -131.6870727539063 118.3993453979492
-3.451575040817261 -122.6277923583984 119.9135437011719
111.075065612793 151.7174987792969 4.479386806488037
-39.59749603271484 247.5389709472656 59.96363067626953
-75.97074890136719 147.1611480712891 123.1085815429688
113.1307907104492 -148.3964996337891 86.13186645507813
116.1585083007813 135.1414184570313 42.87883758544922
-26.06869506835938 187.5532073974609 29.05854415893555
-3.494540929794312 237.7852935791016 34.45940780639648
-5.169504642486572 192.5412292480469 28.48144721984863
32.06550598144531 -110.4897842407227 26.98162651062012
-40.63178253173828 -108.7892150878906 120.8948974609375
114.0207290649414 -135.8002471923828 42.99747467041016
-44.36259460449219 123.9292831420898 20.50983428955078
42.05385208129883 -198.6663360595703 94.73809051513672
104.7027282714844 220.2309265136719 137.7876281738281
42.08838272094727 -116.9292678833008 120.6273040771484
70.75907135009766 -184.1916961669922 28.94541168212891
75.43525695800781 13.35234832763672 168.8741760253906
112.6208953857422 194.0574188232422 122.6103744506836
-70.95867156982422 -162.781982421875 31.8357048034668
106.7226791381836 220.3211517333984 132.5995330810547
75.43525695800781 13.35234832763672 168.8741760253906
-15.2126932144165 188.6970977783203 29.30293464660645
95.73213958740234 -180.5411682128906 29.97652626037598
-37.36260604858398 245.8839263916016 130.838134765625
115.8275299072266 161.6311798095703 57.35335159301758
53.4232063293457 196.8169403076172 28.47792053222656
-75.83286285400391 -130.2521820068359 42.99747467041016
-30.65238571166992 247.0840759277344 54.34900283813477
100.1529235839844 52.55134201049805 169.6556701660156
116.1287155151367 -100.987434387207 86.13186645507813
30.95630645751953 249.6449890136719 53.41827392578125
84.15493774414063 -96.84670257568359 17.45012855529785
117.1488647460938 -61.39390563964844 42.27740859985352
51.07257843017578 247.9538421630859 87.68893432617188
115.0661163330078 91.72138977050781 83.45092010498047
31.10584449768066 -118.0051727294922 120.7152404785156
100.2185897827148 231.7406921386719 139.1597595214844
69.36072540283203 247.0421905517578 85.83464050292969
-12.20965385437012 246.5707244873047 128.9510498046875
44.05921936035156 143.4299468994141 27.93325424194336
51.45331954956055 -202.0952606201172 86.88994598388672
116.1431350708008 135.1169586181641 75.40806579589844
61.53876876831055 -201.8441925048828 83.07672119140625
19.27949142456055 250.4105072021484 82.73923492431641
-56.99009704589844 -147.8882598876953 8.495565414428711
-4.90321159362793 111.5476684570313 27.86051750183106
61.09511566162109 247.3919525146484 85.73285675048828
61.73899078369141 -197.1419219970703 28.46163368225098
-77.65863037109375 141.8713989257813 75.40806579589844
-77.06635284423828 151.7174987792969 17.93496131896973
116.2111129760742 141.978515625 88.10944366455078
-60.52946090698242 153.306640625 170.2432861328125
30.98076629638672 -134.9508209228516 118.6282577514648
-77.77530670166016 -42.91338729858398 64.21572875976563
51.38328552246094 -116.0186996459961 120.5528793334961
69.19921875 246.5721130371094 112.4703826904297
31.18501472473145 -105.7372512817383 122.3182144165039
-31.21155548095703 235.3902282714844 35.46887969970703
-19.94059371948242 146.4671020507813 175.3526153564453
40.05558395385742 116.8944778442383 175.7507934570313
73.94453430175781 25.51420783996582 28.49136352539063
-54.22078704833984 -90.60955810546875 123.1883239746094
-9.808260917663574 225.4453277587891 151.3473663330078
-72.70875549316406 161.6311798095703 4.878815174102783
-40.16795349121094 245.9827423095703 122.3113784790039
-72.29118347167969 193.9712829589844 132.6250305175781
-3.459065198898315 -208.52490234375 41.24895858764648
113.455940246582 111.0447540283203 123.1287460327148
-37.18820571899414 -4.034412860870361 164.1402740478516
-51.87076187133789 245.2931671142578 60.16124725341797
-25.70057106018066 -130.7655487060547 25.534423828125
113.5970764160156 -141.9137573242188 42.99747467041016
-76.11505889892578 50.81952285766602 123.0618133544922
19.27949142456055 -140.3385620117188 25.75072479248047
114.0215377807617 -135.7891845703125 18.56975936889648
110.3859176635742 73.29216003417969 143.0302124023438
83.42992401123047 130.1199645996094 173.7498016357422
83.64937591552734 171.3540496826172 173.0126037597656
78.22103118896484 245.6415100097656 49.20890808105469
-73.71553039550781 156.4516906738281 134.0038146972656
-52.72182464599609 243.3994293212891 124.0056533813477
102.6756744384766 238.7662811279297 119.3102874755859
63.30618667602539 -158.8027954101563 27.48052406311035
42.0419807434082 247.4656524658203 126.6103057861328
62.26765441894531 -184.8896026611328 28.46163368225098
-74.88863372802734 -65.40121459960938 124.1734390258789
51.16325759887695 -127.1133422851563 119.1827087402344
41.80448913574219 250.5587615966797 65.76294708251953
73.88932037353516 178.6006317138672 24.01047134399414
100.7649230957031 -24.69725608825684 27.1793384552002
-76.32170104980469 185.5864868164063 94.04217529296875
-77.65396881103516 141.9517364501953 83.45092010498047
108.3029251098633 -153.9546203613281 16.40112495422363
115.7834701538086 -107.2951431274414 65.81523132324219
78.02058410644531 -45.48527908325195 143.1541748046875
-21.50431442260742 -163.6519317626953 112.1742782592773
-44.80181121826172 160.5612335205078 173.3598175048828
65.74058532714844 130.1199645996094 174.8061828613281
112.1228866577148 179.1557464599609 133.6877899169922
19.27949142456055 -37.9434928894043 151.1202697753906
112.1607131958008 206.9985961914063 83.45092010498047
-73.61449432373047 206.859130859375 65.89083862304688
-22.86814498901367 -204.2322998046875 32.89453506469727
7.242409706115723 226.0928955078125 30.20109367370606
116.1135482788086 -101.2831878662109 21.53567504882813
-38.11275863647461 -168.7579956054688 110.6601104736328
7.238801002502441 -189.299560546875 27.50778198242188
41.50666427612305 -196.2575378417969 98.85157012939453
50.76144790649414 -145.3366394042969 116.5804824829102
-76.53017425537109 -119.2015533447266 75.40806579589844
113.9503173828125 194.0300445556641 75.40806579589844
30.99138832092285 249.46240234375 87.57849884033203
-22.84825706481934 -204.7259521484375 65.06483459472656
109.8998794555664 -130.2521820068359 4.638821601867676
-5.251499652862549 51.17493057250977 27.8354377746582
-73.56390380859375 179.1557464599609 133.6877899169922
-3.463419198989868 -208.3477783203125 48.97018814086914
-78.19224548339844 -87.60263061523438 101.8168334960938
-26.48053169250488 162.1164093017578 28.14963722229004
-76.1881103515625 -124.7229690551758 83.45092010498047
107.3134765625 230.8467559814453 124.8514862060547
112.0770111083984 125.9002990722656 134.1855010986328
114.8815612792969 185.5865631103516 88.10944366455078
51.59820175170898 -103.927619934082 122.1426620483398
-64.31961822509766 -194.8029022216797 38.09895706176758
-53.18375396728516 208.8235473632813 158.8782501220703
-5.50754976272583 175.6937561035156 29.4549732208252
69.22132873535156 248.7873229980469 66.29747009277344
31.09525680541992 -208.2608489990234 74.51866149902344
113.956672668457 193.9568481445313 50.5792121887207
115.2381362915039 156.5614624023438 112.3861923217773
-19.94059371948242 146.4671020507813 175.3526153564453
-14.86422634124756 196.8169403076172 28.47792053222656
-75.03863525390625 -141.9063873291016 32.59962844848633
78.16815185546875 248.3381652832031 66.62850189208984
19.27949142456055 -26.00324249267578 24.42999076843262
-74.95499420166016 185.5087280273438 122.9037399291992
30.99138832092285 249.46240234375 87.57849884033203
-1.825472354888916 153.4820098876953 175.9349975585938
52.74802780151367 208.7669982910156 28.92988395690918
-4.18422269821167 -176.6522827148438 27.8354377746582
-45.80541610717773 -0.7427166700363159 27.83395767211914
116.7897720336914 -87.74378204345703 65.81523132324219
40.49227142333984 173.9359588623047 175.1839447021484
-65.11154174804688 147.21923828125 163.3045806884766
-67.46987152099609 -97.07820892333984 121.4705581665039
-59.09799957275391 207.6678466796875 157.3109588623047
-23.69411468505859 222.1376953125 31.11998558044434
101.7232360839844 -61.49160003662109 29.23060989379883
115.8611526489258 173.0824127197266 32.62498474121094
100.3022537231445 -46.32859802246094 141.7266693115234
88.05940246582031 -181.4281768798828 105.340087890625
-52.25223159790039 -137.2863464355469 117.2245025634766
-18.97992515563965 224.1583709716797 151.1063079833984
32.22940444946289 -63.42411041259766 26.73593521118164
-78.58988189697266 -61.39390563964844 42.27740859985352
