-0.4096419941559456 -2.114191706852639 0.3395698691160416
0.4016139274184583 -1.201702198933719 1.423102393625529
0.5285569302049734 1.897130248116029 0.3002421144844387
-0.7311470535392609 -1.479521923407168 0.1439543571290372
-1.067623328170938 -1.362660702376922 0.933308539657966
-1.044660425842101 0.8672958236293229 0.3877021497204267
-0.4488178106148518 -0.1907707174490618 1.809655385939698
-0.1837722819365065 -2.215964335993444 0.488045985313507
0.7332180269871818 1.799056774338539 1.742771693130333
-1.028119641888704 2.070695902290137 1.244890402724526
0.2553350861143073 1.66057339550219 1.822849798218909
-0.8748137783892508 -1.576816589680281 0.1375481582196437
-0.9698554223584082 -1.622272237469107 0.2055491877193274
0.9589286549634729 -1.687009108850358 0.6183761969445998
-1.092374849710295 1.247611943987854 0.811082865083564
0.5528067996071808 -0.4531957945468596 1.754816409334442
-0.4418153500945732 2.523715981798213 0.4075381564462278
0.966507990715724 -1.624165775222869 1.068001826390526
-1.028119641888704 2.070695902290137 1.244890402724526
-0.2758763653734884 1.771480198464204 0.3084476155677918
1.002126764836494 -0.9611296294805114 0.5422388017454515
-0.3031080747655329 -2.115503977593179 0.8752023623426682
-0.9936091132205875 2.393114161948323 0.5607772675678914
-0.8790229678052266 1.810474804879426 0.1082015776545378
-0.7809702528979201 -2.183425978799577 0.7176749482212751
-0.9410767184326182 -1.671689916101774 0.2378239485809011
0.2553350861143073 1.66057339550219 1.822849798218909
-1.00905813095488 2.303883011039261 0.7017358292420178
-0.3253583706989256 2.515389976639566 0.9950429867111481
-0.8748727110346196 -1.543887211788806 1.21573332777559
0.3840688786725189 1.248070605298319 1.833893945886986
-1.056699896886354 -1.29618929955226 0.5495329723593657
-1.033921379699631 -1.687009108850358 0.6183761969445999
0.9334138301478153 -1.868699598663278 0.7098451336297592
0.9759382670767896 1.921054061522467 1.021180838098809
0.2466804953928352 2.356797634711467 0.33278804819597
-0.9726772063832403 0.5048913628863956 1.569529214161766
-1.012829118480172 -1.562930995456538 0.2658812108851049
0.3730611987881465 -0.03717402015542268 1.822818884010537
0.5928685642177586 2.493673975890259 1.055452901424032
0.7008984042967776 -2.18111642712324 0.5861530495322221
0.4832891274345991 1.205862130092964 0.3108029097250947
-0.3210510634499926 2.06172501965931 1.814146427246743
0.1635395295773836 -0.9775519536393013 0.3120185077702919
-0.3504844138625392 1.04575133973979 0.3099434364430108
0.6319954064577087 -0.9209169170251609 1.571376365725223
-0.7837192876177859 -2.17600356451355 0.754368693000594
-0.6060527084400834 2.032898225380921 0.3160521195821082
0.6015885154177482 -1.556909695438976 1.220973555169038
0.9722566126188256 -1.192363440805306 1.165179241882129
0.2481176915470149 -1.725687293424475 1.147267685578953
-0.4483569544984385 -1.307705715433043 0.2995438734124955
0.04297220407366406 -1.116764924054766 0.3073894265532536
0.7233536033240398 -1.183810786593526 0.1402242929787564
-0.2978900857160288 -2.115926040958188 0.3395698691160524
-0.2106292246933375 0.9252957961293534 1.838089281160754
0.0221422622143973 0.8127506792578724 0.3094267594631457
-0.9673591630568383 2.433161720881928 1.020843486420663
0.424705194050092 -2.211896607474978 0.5821578301440453
-1.055694702707879 1.8573061879789 0.9131246147900801
-0.4517953000448949 -1.60680456295768 1.199954185545659
-0.5309341359615746 2.126176010616526 1.813215877632887
-0.8750766184543752 2.493607751294996 0.9409677209025498
1.030112876166907 0.8648396403144616 0.9129316123797905
0.3702159119433032 -1.483808120346832 0.3012675294935506
0.01728370182626514 -1.728145875682484 1.147267685578928
-0.6034749412867898 -1.650093690504062 0.3022619949511243
1.018741492800517 -0.302390902530855 1.215585505042417
-0.2756071942699589 -1.601751090181182 0.3073327646128521
-0.1156945611382237 -1.486815006473213 0.3012675294935673
-0.908856171498066 1.052615197743831 1.695153724499317
0.2557757688441349 2.289588947086748 0.3258075481412165
-0.5395868028847181 1.9287726505171 1.816841173729995
0.6047285264808491 1.851930589489733 1.801120197400707
-1.094142418937858 0.9285794538885919 1.24419806559967
0.9127502019237664 1.458851066140634 0.1398398402791887
0.6238567552627286 1.999369498299309 0.2881198951208721
-0.7198464875640303 -0.1569194084680831 0.3093909137707264
0.9529301380620737 -1.759262010133166 1.022558000855279
-0.7928939726798853 -1.239462910836749 0.1090343288986511
0.381753232300689 1.375667763123689 1.829096818754442
-0.8950410775887225 -0.8471111073674527 1.527527229621735
-1.071952802841729 -1.023155948564026 0.544233769944192
-1.052411646230631 1.728867950671843 0.5704552762186221
-0.7001687370291077 2.031699337061533 0.3032951785448604
1.025360519909278 0.1604719207985922 0.6984473553980681
0.02344777705061109 -1.35331641574881 1.334066617719118
0.9898961754944158 1.663847858668232 0.7051490020965681
-0.8261741000539047 0.1665813330541726 0.3093784500437259
0.6907081572401794 -1.827984513437138 0.3250801750074039
0.02204563094785747 -0.5549141563877637 0.3097546998217063
0.9688031804886662 1.663847858668232 0.4061561756162483
-0.7790246032761733 -1.641527986646934 0.1788929381211725
-1.100033438517188 -0.302390902530855 0.6974172141969864
-0.7724620116715801 -1.79068635368461 0.3239420416363576
-0.2029949711338071 2.580639823005152 0.4903032002530465
1.021695069675181 -0.8747727977900663 0.8980299990554496
0.8024007834783729 -1.779483204661934 0.3314614582709254
0.8597131155722803 -0.8804650606831118 0.3213295253871022
-0.5969460318891321 2.064072141593771 0.3197859684110712
-1.015661809514249 2.236505754030878 0.7021110060089637
-1.031458095089069 1.267705948265754 0.2967654561988594
0.3731968419509051 0.1260954619272672 1.830100323366064
0.1280022463976497 2.580639823005152 0.4903032002530465
0.2754916891263818 1.04575133973979 0.3099434364430108
-0.7742953538923389 1.134117496996208 1.789558274534574
-0.6682842985717787 2.556193814211338 0.7925542252449638
-1.053874895274853 -1.46462880430848 0.6625319990260208
0.692457856839818 2.493096920541084 1.017412319489525
-0.5483812098050771 1.729145865019811 1.82085003108914
-0.8259858867175035 0.804887134404584 0.309426759463131
-0.33329139820113 1.442537856003573 1.827305646877969
0.4067279920989216 0.8868890130073871 0.3095035015092855
-0.9830066330937028 0.9330937583973715 1.56951251272231
0.9677730414534286 1.8573061879789 0.5712967080981475
0.3768025753087375 -1.606804562957679 1.199954185545659
0.3845698752947799 1.068743204827326 1.83734265528826
-0.2029774734843351 2.063979660674384 1.814146427246717
0.1433981866399646 -0.6673127342876007 0.3100645992480022
0.8226089970638327 1.414618084806665 1.689955247687366
0.2733315065653358 0.8878974014195373 0.3095035015092896
-0.6055083562197483 2.207673313264825 0.3243330485983982
0.5196559681583785 -2.212525642724943 0.6861006622524352
-0.6993052229294436 0.7940331063762173 1.819483094870988
-0.9719510572902885 -0.5397188448197111 1.491062615808384
0.379217953507433 0.8010271294651886 1.839052273630944
-0.6988494799988859 1.999369498299309 0.2881198951208721
-0.9247942312898549 2.077040149351519 1.558440959621895
0.6775540441730507 0.2759026668264659 1.789176325468007
-1.070390360863241 -1.3059465330953 0.8673432825336243
-0.09180688670181751 2.443022324013505 0.3570563371830235
0.5593062495016912 1.37292649663998 1.825440312744433
-0.3280102514368189 0.1264196789333706 1.830128641748844
-0.6591070336264884 2.571174974043149 0.4900132387014436
0.8147453053545697 -1.722653969695587 0.3003985513879249
0.1440133573796777 0.1692890135532827 0.3093784500437375
0.1789450071573409 1.208475890842046 0.3109412679265817
-0.09227642656242255 -1.728145875682484 1.147267685578928
-0.3325263522911849 1.51329695745382 1.825953259258291
0.8923664383206811 2.433161720881928 1.020843486420663
0.1214201775090094 2.398414102783832 1.493076838197208
-0.4490545121443116 2.544850994637315 0.875333290094787
0.02215282523782838 -0.1567721969787036 0.3093909137707411
1.012761267874378 1.01961899889103 0.5410509735098119
0.9513123406027648 1.663847858668232 0.237549402154315
0.9811261313625356 1.8573061879789 1.021270648741305
0.01764539925372115 2.567876998398106 0.7925542252449662
0.901585174146653 1.733202066603572 0.1269171866555423
-0.9418887506631978 0.8742879677304114 0.319627699837771
0.8060802853243725 1.695266461970308 1.684323100096826
0.3975617793273068 -1.139240362703986 1.458271754531687
-0.4447704259062248 2.582835543152359 0.5961225187295676
-0.8739897119841512 -1.630126430361541 0.1753132128054227
0.3845178678101455 -0.8000431738323717 1.632249656304059
0.2582986734649727 1.442537856003573 1.82730564687797
0.9529301380620737 -1.759262010133166 1.022558000855279
-0.2963946440689725 -2.179348208634185 0.7991494931857257
0.1437656270684039 0.9566156437513951 0.3096547525357565
0.8161431652209221 -1.276750772198701 1.351050885856035
0.7155199480494718 -1.386316740282878 1.308526295990422
-1.014330827521974 2.15788302312151 0.5526358376055178
0.7851449500994159 -1.176578468198774 1.413970230519983
0.4274573484819232 -2.214463126362868 0.6861006622524357
-1.083198495426997 1.455226651693366 1.021167362988376
-0.3254673872584497 2.547434209724407 0.8753332900947863
-1.050930991812947 1.921054061522467 1.021180838098809
0.01771485388448118 2.520125205701536 0.9950429867111448
0.697758376809372 -1.816448350242253 1.095905650459637
-0.6055083562197483 2.207673313264825 0.3243330485983982
0.891937022704941 -1.819381716291456 1.070546364654094
-0.6084642662259684 1.043930757557729 0.3099434364430043
0.9378363937440148 -1.562930995456538 0.2658812108851049
-0.09246134861293134 1.935464358048257 1.816841173729924
0.7575695426655472 1.383979958217759 1.749005412387339
-1.100598532499186 1.108592008091005 0.9129491034200684
0.9613764364857158 -1.730700209822909 0.8806673343684852
0.4773679950569986 0.6327695282703142 1.840168977376832
-1.067623328170938 -1.362660702376922 0.933308539657966
0.6296481140730351 -1.245936797693102 0.2371677355757618
-0.6055522966026304 1.561255465155322 0.2835290187092866
-0.8856000625488698 -2.107500476633951 0.6130166443756213
-1.056096292223248 -1.514858682067746 0.8254755012705305
0.6245980022866382 -0.6776154220794085 1.669984711779633
0.9079431005957948 -1.682391552698594 0.2963737814366412
-0.8976017217999902 1.414618084806665 1.689955247687366
-0.3211190815610941 -1.900587449631531 0.326624796834672
1.031001878287308 0.1604719207985922 1.124867371641465
-0.09408237963755411 1.516099188717435 1.825953259258253
-0.2096743948916507 1.514935111232598 1.825953259258269
-0.681427636039071 -2.205848222325902 0.6861006622524353
-0.8688655977720013 -1.500894278060349 1.234188658491267
-0.8269534371693612 1.525359014758402 1.746531628146173
-0.9682778141731395 2.438901910773671 0.9932890119939524
-0.4452086366794607 -1.483808120346832 0.3012675294935506
-1.087281652375356 1.383149775279169 1.021312976499552
1.025411978419479 0.5001647302813995 0.6984452538365759
0.9136250334239952 2.293069313961505 1.260374242368688
-0.8748727110346196 -1.543887211788806 1.21573332777559
-0.8950410775887225 -0.8471111073674527 1.527527229621735
-0.6629911769564589 2.47953602954642 1.121562430520184
-0.6349337989669917 0.9208928014354065 1.834240877543227
0.9270220195818696 -1.199929253624728 1.265272937557049
1.00820577069084 1.455226651693366 1.021167362988376
-0.6963536314931252 -1.649043868754432 0.2668631246961147
0.9700662774870273 1.989002894860983 1.021057907482381
-0.8207709454169649 0.4067296754910235 1.758350578142559
1.029453898871306 0.5001647302813996 0.8109102148038008
0.04259091421829538 -1.14931752352397 0.3067165072190827
-1.082774340287775 1.455223598372026 0.9130184925590303
0.9591693335861347 -1.730700209822909 0.7565123565009588
1.007208443187014 -0.9624860918266469 1.149759998570984
0.6593673424579298 1.764860822775558 0.1470005273584317
0.04171778458902023 -1.250678820937274 0.3012265071548713
-0.688131747449945 1.718050388575342 1.803155057012496
0.7511813753177475 0.1665813330541726 0.3093784500437259
-0.6080763883020021 1.487787694169623 0.2873583565771999
0.380718763961922 1.441096975146161 1.827305646877988
0.6176172709670526 2.062854400204808 0.3145970149362538
-0.853740005555429 2.098406092142208 1.678159934076305
-0.9734199164909372 -0.6497312779581594 1.468203376324304
0.9080139083575457 0.9330937583973716 1.56951251272231
-0.8467552567956425 -2.096461732138712 0.3715535825119419
0.5887300838585923 2.112431433121467 1.795839170586343
0.1283478362869717 2.359377890959301 0.3327880481959745
0.9441262903932626 -1.070484938312008 0.291550011768285
-1.105987791057196 0.0006605297280138402 1.121959169123471
-0.6820873439867193 -2.205848222325902 0.7112348248261291
1.01223160105033 1.383153838749073 1.133476324586078
-0.8017478787032841 -2.093164783047449 0.8740165940469906
-1.096006551972533 1.180979685482639 0.8110308947396523
-0.732038125391665 -1.42154319407085 0.1332816275503728
0.278567676128634 -1.305066760049607 1.362762154889769
0.8816057907783231 2.486717874239016 0.577344384970925
0.7040318785400159 -1.641527986646934 0.1788929381211725
0.3838946835335044 1.000589811362797 1.837991469984309
0.9485462835943656 -1.334537110108363 0.2356205989471888
0.0148732065748549 -2.024451488742964 0.9652239419688719
0.6775540441730507 0.2759026668264659 1.789176325468007
0.9607255638261389 -1.730700209822909 0.8278267145274815
1.002318113694414 -1.187856780640486 1.033786799073262
0.737710898361555 -1.239339623755826 1.396317139867766
-0.6976004747696162 -1.364667519135876 0.2239299929478675
0.02215649802117013 0.005572923825241948 0.3093784500437407
0.8832092343960514 2.309885946464243 0.4072047794411387
-0.1165201788199102 1.565717953984089 0.2982040175667331
-0.8737365921093623 2.522792599578458 0.7931125859305603
0.01880018376083902 -1.519245136285154 1.2395410372874
0.3768025753087375 -1.606804562957679 1.199954185545659
-1.087361184719999 1.18018826694507 1.248511437393285
0.7509385837370635 -0.3042737911900438 0.3094407686787284
0.5158672556295058 -1.752264511469911 0.3194634956293508
0.3830073953068357 1.314920817481505 1.831508119972765
0.2506652074810472 1.866896080406519 1.818250615740734
-0.5533325200213367 -1.825087468671142 1.096199770546966
-1.074575486297781 -1.081907679637389 1.118144395874875
0.04118285367926744 -1.73252556021698 0.3176739384234091
-0.7066978851608646 1.150420654769067 1.81714346672017
-1.045280702487546 0.001144630736221629 0.3875986392918555
0.2504618649481955 2.532551646776287 0.9391670845783278
-1.100363536347475 0.3225511334300916 0.6984469350857697
0.696612014742761 1.623922806152765 0.06721220206654692
-0.6050229618588883 2.000548822649375 0.3103929725085824
-1.01911901512942 -1.070484938312008 0.291550011768285
1.019149694201701 0.9285794538885918 1.24419806559967
0.3733642297622811 -1.307705715433043 0.2995438734124954
1.015343790463531 -0.302390902530855 0.5405100205107951
-1.048078929038894 1.596721318611199 0.4052744884650187
0.9447974509695347 1.79316384103605 0.2564468734059301
0.6111653904222352 -1.03236629333675 0.3108857049229268
-0.5052329234607932 1.135403912122616 0.3103754471450944
0.6409658287056146 1.317849027641812 0.2816275808634036
0.7426949617549672 0.2451522164742706 1.754343388107881
0.9855301942135004 -1.465826876996072 0.9160030027555655
0.2718050837677281 -0.7806422195761896 0.3104971665533601
0.9719476333120315 -1.067806365110241 0.4029849123835379
-1.006860081413058 1.85666177866298 1.395433651879803
0.02250206944951309 -1.256203329812894 1.392927185629578
-0.696617234083559 1.700249980425074 0.2252581698260349
1.029402401876318 0.1604719207985922 0.8109109504380313
0.6590682352546203 1.959518966258833 1.772605105496649
-0.3249962459196597 2.563060104894362 0.7925542252449649
-0.6691089753631311 2.515420087020751 0.974897610739671
-0.3449584900668684 -1.140021125441001 1.458271754531671
-0.696617234083559 1.700249980425074 0.2252581698260349
1.030193067544752 -0.4302841053679213 1.011404909863322
1.015564544821041 1.107083463375396 1.24646129664194
-1.095230685689539 1.10880824684319 0.6991871523032327
-0.8456221922771416 2.541359796693866 0.4868262757958474
-1.063665116048596 -1.41580203761182 0.8562102820716376
0.6915395887014226 2.546735070895939 0.7925542252449636
0.3797966465445474 -1.83573217776027 0.325080175007407
-0.4818892194171823 0.8099910294018043 0.309426759463134
0.3911759035024244 -1.474894801428848 1.259543966113626
1.026481623356093 1.019464542639469 0.8109526920431975
-0.5952194957667176 -2.212525642724943 0.7112348248261291
0.2523924170392839 -1.608011197061108 1.199954185545641
0.7957625063616822 -1.903182593773358 1.033361755256406
0.948657397886199 -1.80330752636404 0.8004849019017361
-0.7015516542046665 1.366011135300177 1.810814288704345
0.1440133573796777 0.1692890135532827 0.3093784500437375
0.3527587416747879 2.327950354371049 1.729252922707903
-0.4483811733674353 2.560457403510991 0.7925542252449642
-1.005536189405923 -1.868666320282917 0.6420927329500793
0.8207750778932018 -0.735382487086959 1.558749778966528
-0.3343168445622298 -0.6814649405850903 1.678323761553322
0.1306732944131102 1.868930456467901 1.818250615740712
0.8672388991235309 0.7978940523254714 0.3195526692617778
0.02195432320478831 -0.6676729238838314 0.3100645992480053
0.8401497027637485 2.397790252667323 1.283327218468917
-0.9684083658408741 2.458273046095702 0.8836416571082206
0.9694348630212161 -0.4308642375701822 0.38807998568289
-0.2762824955544275 -1.368676137296561 0.2999903087959348
0.496735423898323 -1.046162223984243 1.509862535969704
0.1440222884078416 0.5176063844479575 0.3093684897107681
-0.6019926282655723 2.123175403847713 1.809740536223581
-1.004254349380429 2.366476228339117 1.075171184933048
0.2735236324782152 0.005205095001473765 0.309378450043733
-1.046299097200046 1.857177306115715 1.248999404370405
-0.6164495858256158 -1.145679910291193 0.2978676780790433
-0.8740721148761702 -2.1053564979751 0.4371166638288478
-0.8825559808830065 -1.591523068525125 1.194788568151704
0.3738250858786944 -0.1907707174490618 1.809655385939698
-0.2539377318934983 1.208475890842046 0.3109412679265817
1.015704864146237 1.314016689679678 1.133896805706667
1.011287281390516 -0.8749002943699991 1.166692081721293
-1.039947880859635 -1.627245784971961 0.6279600582993841
0.02857374127215473 -0.978233275925565 0.312018507770296
-0.622948563595808 1.726723588908782 1.817311036273814
0.5330836635658449 1.487787694169623 0.2873583565771999
-0.7789716357927374 -2.096164121079124 0.3432279159060069
0.9378363937440148 -1.562930995456538 0.2658812108851049
-0.348497207938928 -0.1568328912257102 0.3093909137707335
0.7059775281617627 -2.183425978799577 0.7176749482212752
-0.9936091132205875 2.393114161948323 0.5607772675678914
-1.105915554241088 -0.1575827752735161 1.118210027905687
-0.7015516542046665 1.366011135300177 1.810814288704345
-0.5582818521707564 1.205862130092964 0.3108029097250947
-0.3480918671085937 0.9554656583472148 0.3096547525357521
-0.9074035693102214 -1.324820983524254 1.316900643417998
0.1115026961690196 -2.211747350551339 0.7468754082090708
0.53200025766627 0.5156649988462927 0.3093684897107571
0.7631047338434926 0.8664132361199868 1.756670070169236
-1.025927441737765 1.92209345518623 0.4190552648668001
-0.659791846270878 -1.823192271979527 1.096140946529502
0.688320929283347 2.559650803216314 0.700153218200174
-0.449513268602013 1.562820850600838 0.2982040175667232
0.9816022875756192 -1.514858682067746 0.9921120110743449
-0.08556969431113168 -2.217362205479786 0.4880459853135163
0.9119352199425626 2.071431181407143 0.4077268407356183
-0.6080288760595958 -2.111762571112172 0.3395386982368894
-1.050505301514955 1.921054061522467 0.9131450498828517
-0.6797212512170062 1.851930589489733 1.801120197400707
0.5514266906304267 1.289519108977838 0.307851978919277
0.7636208482809553 -1.0363173016856 1.490275008648144
0.9669061998677573 -0.6572342856214178 0.3886557521661752
1.029793727758877 -0.4302841053679212 0.9061218956084518
0.1977189622671374 2.068415827168715 0.3210830765499377
0.9079431005957948 -1.682391552698594 0.2963737814366412
-0.923929202304834 2.165317920879553 1.545077005941848
-0.2754352147706452 -1.485565913122269 0.3012675294935603
0.4996165745394703 -1.515423963148989 1.239541037287451
1.010541801587697 1.383148420789201 0.8111808645324851
-0.4494035951167997 1.730161667154041 1.820850031089125
-0.4447704259062248 2.582835543152359 0.5961225187295676
0.5207882294762507 2.26846449810499 1.787622992252719
-0.1159459612510942 1.70612430164293 0.3022599568487268
0.9794139078068928 -1.115385006245031 0.4074267512969268
-0.5940170780834808 -2.212384472071169 0.6624333979562642
-0.9824198700041393 0.8661671886508564 1.569751407819452
1.029145867947424 -0.5461699821076933 1.007014093881583
-1.065880070264419 1.728874837499911 1.133686761099879
-0.7606612597679254 -1.088137385205693 0.2646962346580856
0.6815377909336504 -1.111171289482742 0.2356444437629856
0.1523515901143884 2.213634970459193 0.3243330485984092
-1.007405949023801 -1.461108465978713 1.182540596906705
-1.050019887632984 1.106141239863105 1.396050704678405
0.635430219753711 1.415041654358604 0.1852060878896936
0.9645423251515252 1.728867950671843 0.4081207276639077
0.996322736568624 -1.18875811267345 1.086959464861324
0.9993022430539996 -1.246870314912869 1.008101577879378
-0.2041793015397851 -1.727124553749377 1.147267685578939
0.0186174414213577 -1.839921300135615 0.3250801750074188
1.030759354383131 0.0006605297280138228 0.9129291058269532
1.019149694201701 0.9285794538885918 1.24419806559967
-0.2110554271722741 1.317769841585587 1.831508119972728
0.8976458511012783 -1.981419048978489 0.7673298745932182
-0.7718909487461094 2.197186903169278 0.3243330485983976
-0.7104229444898682 1.415041654358604 0.1852060878896936
0.3653796225326329 1.994457812300959 1.815167069188377
0.9396141093150188 -1.803302710588675 0.5862671907152054
0.2214019193328151 -2.179348208634185 0.7991494931857258
-1.026105342958998 -1.564385768988249 0.3968994184513833
-0.941406991919195 -1.21216586424313 1.343695273732652
0.7082887260717049 1.990928488622332 0.2329831471218378
0.8324994027431887 1.277757349988612 0.2604915536637119
-1.070429127987454 1.663862715916342 1.133306875432996
-0.9201574676828865 -1.977661653726754 0.3708711424816306
0.551338683220066 0.4533514176942959 1.834265981931537
1.015646084866817 0.6678682671512225 0.5403881095568016
-1.077241942925217 1.383158565714018 1.249828716474801
0.947867318129257 1.728867950671843 0.2449169630596645
-1.012829118480172 -1.562930995456538 0.2658812108851049
0.4067279920989216 0.8868890130073871 0.3095035015092855
-1.039600763188894 1.988915228304085 0.7050967005520074
-0.7104229444898682 1.415041654358604 0.1852060878896936
0.237236672117634 -1.999229828717587 0.3286919036876873
0.7225409011774439 -1.188043874018531 1.425660123606552
-0.09467870724819796 1.251898951261296 1.833893945886932
-1.047233187986923 -0.4302841053679212 1.344723172294763
0.5339946131939586 1.990474524445012 1.811737977005163
-0.09064335255613505 2.279744295057792 1.791192952027483
-0.4448020052251492 1.8650157341008 1.818250615740755
-0.2188939583900912 0.8889883926055837 0.3095035015092941
-0.448953168048253 0.2896110728997656 1.835774556011443
0.1316260617891526 1.802545019623883 1.819326673978344
0.2523924170392839 -1.608011197061108 1.199954185545641
0.1325523389450699 1.733785035068973 1.820850031089071
-0.8243572274760039 1.128938996464618 0.3103754471450915
0.949989759446549 -1.80330752636404 0.8905223742910554
1.01583078260206 1.314015876985697 1.02141621786197
0.9063595989840202 -1.278236764505186 0.1244385462639014
-0.6089873379301158 1.990474524445011 1.811737977005163
0.4054960808723017 -0.6663373546755974 0.3100645992479936
-0.7565305156698078 -1.111171289482742 0.2356444437629856
-1.028119641888704 2.070695902290137 1.244890402724526
-1.09058245563055 -0.1575827752735161 0.5404120892321274
0.1547051839946867 1.137956745035221 0.3103754471451031
-1.076579291949937 -1.187856780640485 0.8817040422943357
-0.4490545121443116 2.544850994637315 0.875333290094787
0.5479558388596506 1.726723588908782 1.817311036273813
-0.9663626206280223 -1.80698934721232 0.3782372230764639
-0.3474622516791654 -0.6668058557027754 0.3100645992479977
0.6176172709670526 2.062854400204808 0.3145970149362538
0.2783621500571987 -0.8901047369261124 0.3111128540234145
0.9811691951551457 1.8573061879789 1.133240564575987
-1.080584329464621 1.314017635072667 1.250641179416322
0.5470502862980639 -0.1907801159256823 1.806255312355123
-1.079218275093227 -1.132544610753957 0.8870108396099162
0.04258848396374859 1.421409950110189 0.3036028747105037
-0.3473393903381776 -1.20251989852253 1.423102393625512
1.025411978419479 0.5001647302813995 0.6984452538365759
-0.5049660128004636 -2.206870651316883 0.7468754082090677
-0.4588874082696618 1.000589811362797 1.837991469984309
0.6226697878549761 1.501246198519927 1.807878046897648
-1.014056251202086 2.236185186204395 1.199797108323601
0.5474896900369844 1.318615938998484 0.3036931001121215
-0.7344253519847124 2.060687843941323 0.3067208807348304
0.3733642297622811 -1.307705715433043 0.2995438734124954
-0.6972548530139073 -1.302393580920546 1.363398530957295
-1.086548601145815 -0.9617282337594089 0.6908577126019859
-0.09272603318240179 2.537302396593805 0.9391670845783253
0.9816677381861956 -1.514858682067746 0.9001218656484753
-0.2547243732316125 2.127911882763363 0.3226443969837347
0.2006144695338015 -1.601751090181183 0.3073327646128521
-1.062869652638149 -1.41580203761182 1.011006764203777
-0.2075450636812273 1.733785035068973 1.820850031089071
-1.049145156218006 1.921054061522467 0.8117042224743265
-0.3296134993459318 -0.3298866687119 1.78812420306827
-0.6089873379301158 1.990474524445011 1.811737977005163
0.9013969310167227 -1.336325201577229 0.1135356271338585
0.4747356995154043 -0.3296829854860311 1.788124203068301
0.962600404634008 1.921054061522467 0.5717600924511637
0.897969549491171 1.320313424908422 1.569472585520179
-0.09330487918028324 0.2910183262479919 1.835916147925395
-0.2058820022825844 -1.656263794121367 1.178474665621979
1.011989430784747 -1.026289629804228 0.9887531080528422
0.4190512095435914 -2.210921347286999 0.4332144232064692
0.6826358148043461 2.342216578146488 0.3329147387405244
0.5158672556295058 -1.752264511469911 0.3194634956293508
0.619972152049427 -1.539751082471421 0.2394511931519395
-1.019530230036563 -1.731118550179906 0.5010357836202862
0.6907081572401794 -1.827984513437138 0.3250801750074039
-1.052461332899668 -1.566783547545033 1.025451490271573
-0.6312666900236617 -0.5666721437653044 1.717354033147504
-0.9005162882748832 -1.128459634017354 0.1708199704635912
-0.5550617736043684 1.510899101024923 1.825953259258324
0.9513123406027648 1.663847858668232 0.237549402154315
-0.2190060821158351 0.005420123712852071 0.3093784500437374
-1.049407648735211 -1.407706479888507 0.5407766767797758
0.108021444679539 -2.215784137976415 0.4332144232065052
-0.6591070336264884 2.571174974043149 0.4900132387014436
-0.4964224365237965 -2.211117738074183 0.4880459853134745
0.9669061998677573 -0.6572342856214178 0.3886557521661752
-0.8261702185049042 0.6825896589290208 0.3093794465925953
-0.6938807855913332 -2.107107435615022 0.3394140147203127
0.4016139274184583 -1.201702198933719 1.423102393625529
-1.046725988796301 -0.302390902530855 1.357389597466549
-0.4447704259062248 2.582835543152359 0.5961225187295676
0.6826746471720057 2.569604456460708 0.5945460204270628
0.01838985382410796 1.73512307762206 1.820850031089051
0.5470096177647391 -1.090054635720042 0.3049230719860511
0.6815377909336504 -1.111171289482742 0.2356444437629856
-1.014788932338809 2.300656111971629 1.003135029687854
0.5899142804862876 -1.761498058342613 1.12831948066892
0.1360627024361167 1.317769841585587 1.831508119972728
0.1305546247238223 2.535328883211639 0.9391670845783262
0.2553350861143073 1.66057339550219 1.822849798218909
0.4782851208180162 1.584556770701418 1.824603515013583
0.5316204604779651 0.8863004571868146 0.3095035015092831
0.3739256294302477 2.519613355024486 0.9748976107396699
0.9865598979914642 1.383461546457994 0.4091039916846631
-0.3193488430525661 2.12959027109329 1.813215877632849
-1.102966692102836 0.9311610726979053 0.8109313617525877
-0.9698554223584082 -1.622272237469107 0.2055491877193274
-0.20661878652531 1.802545019623883 1.819326673978344
-0.4023799774012201 -2.207938463325899 0.7468754082090685
-0.5238237125797763 -2.11276117622608 0.8752023623426736
0.2523924170392839 -1.608011197061108 1.199954185545641
0.8821349891169397 -1.263071083941074 1.308516988459208
0.2164419597737085 -2.217372915554273 0.6861006622524408
-0.7170312898207235 2.119928259616216 0.3197719578207038
-0.7830833491203391 1.887241960807221 0.1496474372355088
-0.2963946440689725 -2.179348208634185 0.7991494931857257
-0.9630210906485106 1.533358756831023 1.564790179992206
0.9688031804886662 1.663847858668232 0.4061561756162483
-1.045109626636138 1.989002894860983 1.13236571570308
-1.03739906145994 -1.565679078004012 0.5307080471577689
-1.052173550825206 0.7840006703592185 1.394617780798577
0.8139656628797516 2.091049671327466 0.330252851948892
0.04103893646155009 2.006308913102462 0.3159606828565917
-0.1852481541162703 -2.218351522107207 0.628896184666544
0.812942535691911 -2.108520441697765 0.6641678622887366
1.009903143714168 -1.026289629804228 0.7906709499035545
-0.4097202571167348 2.125588031670874 0.3226443969837302
-0.2101208718738684 1.44409676752679 1.82730564687795
0.9016150220030754 -1.684973021388623 1.135651456084394
0.7059775281617627 -2.183425978799577 0.7176749482212752
0.8037473590218575 1.873740947946288 0.1442305239445659
-1.106171924264507 0.5000009127667966 1.020110720761187
0.9529301380620737 -1.759262010133166 1.022558000855279
-0.3484206108371498 -0.3049855183163671 0.3094407686787356
-0.7823018228124493 -1.467449102540777 1.259543966113638
0.9996763649452389 1.596726116515201 1.021165012614989
-0.285313586113359 1.292191914868957 0.3107814723832861
1.031062459365532 0.4995094602229875 1.128706965245283
-1.045290583905269 0.3238664717794704 0.3875969903810359
0.1438564854842846 -0.4359878607691418 0.3095534098153346
0.4302401987246358 1.135403912122616 0.3103754471450945
-0.1006630733723664 1.13889945887168 0.3103754471451062
-1.106118160342403 0.1604719207985922 1.019150849192624
-0.6861302782297378 0.1238392677371876 1.81153680993918
-0.7506147673058761 0.114889368082756 1.784278758470727
-0.186495420905177 -2.211747350551339 0.7468754082090708
0.2421105420661043 2.203047693273279 1.810330554671281
-0.8332089131841759 0.7461552614783016 1.757606328214367
-1.104696201090802 0.9308453475884997 1.020416878154128
0.5444492279696926 1.795195120404403 1.815842716623702
0.2729455901793964 -0.5542594126362096 0.3097546998216987
0.2029546517823712 1.564514465584156 0.2982040175667289
-1.031052039414008 -1.763771086515323 0.958413275556292
-0.5592744205444141 2.581308157427323 0.5961225187295652
-0.2189502050070213 -0.3051082840497942 0.30944076867874
0.5507877198651385 1.13468823179927 0.310375447145092
0.01092008223503869 -2.21815597711969 0.5821578301440727
0.8920806755292698 -0.1498779522187814 1.544913073984063
-0.7343324352790257 -1.36308174208979 0.1326481452674628
0.6753847042843634 1.316428853936436 0.2486095195562363
0.5196559681583785 -2.212525642724943 0.6861006622524352
1.022606515425222 1.180592531599867 1.132541247803299
-1.07779320922255 1.455223598372026 0.7046496175875391
0.4814698257647403 1.440255990853637 1.827305646877999
-0.09064335255613505 2.279744295057792 1.791192952027483
0.1547051839946867 1.137956745035221 0.3103754471451031
-0.5929743909754174 -2.211537448148519 0.6288961846665282
-0.3982679645968318 -2.212960361011475 0.58215783014405
-0.3420264978206826 -1.047332660826039 1.509862535969679
-0.4004161597947172 -2.215535532856563 0.6861006622524375
0.01115316131853506 -2.220628605488854 0.6624333979562788
-1.047050905430786 0.1604719207985922 1.38530130438477
-0.4504551638699775 -0.3297580531970267 1.78812420306829
-0.3099237486143646 2.428805756018931 1.35847669195673
-0.9829358253319521 -1.682391552698594 0.2963737814366412
-0.8750956549783659 1.399352146969913 0.1368266990138125
0.8752115389350664 -1.500147979183536 1.210841756558924
0.1430104209125853 -0.7812765821179029 0.3104971665533645
0.7626847289087255 1.256179344861488 1.752115993034574
0.6968982240099521 2.197186903169278 0.3243330485983976
-0.6069649621944155 0.1683076056685163 0.3093784500437264
0.8817936122720002 2.417400788255588 1.128168383071748
-0.8275110597091091 -0.6993088597254314 1.621903218780588
0.4895706350716776 2.505093270108864 1.017412319489524
0.9727200295117537 -1.627250201326244 1.006417654047407
-0.3280102514368189 0.1264196789333706 1.830128641748844
-0.8946264336046114 0.5355062347855177 1.697707357534431
-1.049599688658169 -1.566783547545033 0.7228189060642444
-0.4452086366794607 -1.483808120346832 0.3012675294935506
-0.1837722819365065 -2.215964335993444 0.488045985313507
0.644853762827873 -0.1569194084680831 0.3093909137707264
0.2730991423724362 0.9554656583472148 0.309654752535752
0.3716677419905951 -1.367049101523679 0.2999903087959248
-1.079865876815747 1.24869623463732 0.5579223623835529
0.4805796587108618 -0.5671815119152184 1.719565825773612
0.8207750778932018 -0.735382487086959 1.558749778966528
0.678163112310408 2.424927863976972 0.3576897899058143
-0.3484421341088884 0.8109590801656651 0.3094267594631381
0.9727199258149752 1.79316384103605 0.5708634304188682
-0.6840609845108981 -1.252070895785568 1.393547454504646
-0.3449584900668684 -1.140021125441001 1.458271754531671
0.6974692869354227 -1.79068635368461 0.3239420416363576
0.8617763228632061 1.247776623432585 0.2977129096087675
1.027838740733411 1.019464542639469 0.912940434746029
0.6943013447325791 -0.9188886430391918 1.563420771950219
0.966149118206154 1.920925179659283 1.248272370344666
-0.6080288760595958 -2.111762571112172 0.3395386982368894
0.9987996331364077 -1.13104572014929 0.6829128267258593
0.5294554405485649 -1.365545254342774 0.2847794673628655
0.7411341759505964 0.08508501381592952 1.748571873820424
0.4068964946810249 0.8099910294018043 0.309426759463134
-0.5855170978729363 -1.474270312711803 1.259543966113635
0.4065379228479087 -1.253762383448006 1.392927185629632
-0.6585901422884477 -1.137698003512597 1.45858405964035
0.5382962150885821 -1.190818795340775 0.2936127093634173
-0.2116813796652728 -0.8012841133415067 1.632249656304028
-0.5476307335845227 -0.1907734942888884 1.809655385939711
-1.105478456819152 0.8644911101369348 1.020376956270864
-0.3819747856927395 -0.9765931594934255 0.3120185077702862
-0.4818892194171823 0.8099910294018043 0.309426759463134
-0.3348927746150084 1.316289280285926 1.831508119972747
0.4070003841140717 0.6872671352446425 0.3093794465925983
0.4883155772887768 2.496317908319985 1.055514277984839
-0.6099435241375028 -1.246742684592656 0.2884157817979854
-0.6080288760595958 -2.111762571112172 0.3395386982368894
-1.060035112281395 -1.465826876996072 0.8437733355903265
0.9321293663064999 2.374173697476671 0.9791996887291788
0.2503656459627682 2.509145183880571 1.017412319489521
-1.007405949023801 -1.461108465978713 1.182540596906705
-1.032331453740652 -0.960987143523983 0.3927871851450124
-0.6972548530139073 -1.302393580920546 1.363398530957295
-0.6690788169532802 2.508640095380037 0.9950429867111512
0.781675763418916 2.018681612946073 1.680564653671888
0.973086204302737 1.596721318611199 0.4052744884650187
0.6934097581004801 1.349844313249909 1.783971690650467
1.01583078260206 1.314015876985697 1.02141621786197
-1.080584329464621 1.314017635072667 1.250641179416322
-0.09474594223858576 1.072111032886137 1.83734265528819
0.5528067996071808 -0.4531957945468596 1.754816409334442
-0.4277507273959734 2.364335411356208 1.622422688144917
0.7517782408128364 1.251060105957332 0.2958532969725924
0.01831215444412582 0.2910183262479918 1.835916147925395
0.7087265628816284 -2.17600356451355 0.7543686930005938
0.5310599837039262 2.032898225380921 0.3160521195821082
0.2538849822757978 1.731902068090352 1.820850031089099
-0.9392629528220311 1.862153745050494 1.563137627060799
-1.085647071253112 1.109673201851928 0.5435378941815623
1.030090275821957 -0.4302841053679212 1.109279215285263
0.7959280038664693 1.82354239342041 1.684970090151065
-0.6068290618386335 0.8094260170466296 0.3094267594631316
0.6597192568446394 1.951080068066355 0.2225992692168635
1.014106904035363 1.314015606087703 0.8111297678101361
-0.4459794929390025 -1.651892378156358 0.3111108240911479
0.6290143021287078 1.485348077161349 0.1565203741136616
0.3911759035024244 -1.474894801428848 1.259543966113626
0.997861704424264 1.596721318611199 0.8113628375648165
0.6915395887014226 2.546735070895939 0.7925542252449636
-1.014606834051176 -1.803302710588675 0.5862671907152055
-0.09368722008643521 0.6356878352267013 1.841349004765811
-0.579358300639447 -1.032986209857959 0.3122387994519738
-0.7630667335635755 2.275051783629447 0.3258075481412095
0.9658010061809964 1.314018274227896 1.399095561230977
-0.5405245890643654 -1.996675698638809 0.3286919036876769
-0.3325263522911849 1.51329695745382 1.825953259258291
0.3697777011700676 2.58283554315236 0.5961225187295676
-0.8261741000539047 0.1665813330541726 0.3093784500437259
0.1419370038347446 -1.140865844850917 1.458271754531654
-0.5841429863465416 -2.209061726110174 0.4330288021768484
1.025296558683628 -0.1575827752735161 0.6982413271578518
0.1316260617891526 1.802545019623883 1.819326673978344
-0.4601721543961837 1.319929908715854 0.309208926134568
0.488907595092165 2.558938311234704 0.7925542252449639
-0.09422911353766841 1.445204535203146 1.827305646877936
0.3839505613365305 -1.091273027865756 0.3089345933006433
-0.7305200960576723 -0.9742552385557362 0.3120185077702769
0.9674273390310187 -1.110010917308183 0.2802953898026883
0.2490818440590809 1.931858320388973 1.816841173729962
-0.6038548507388114 -1.303643982383562 1.362762154889806
-0.569004947315907 -1.834874494350107 0.3250801750074046
-0.6376914097803675 0.998365054063174 1.834217643558163
0.8161431652209221 -1.276750772198701 1.351050885856035
-0.9074035693102214 -1.324820983524254 1.316900643417998
0.4054960808723017 -0.6663373546755974 0.3100645992479936
-0.4968918326815945 2.208978689881206 0.3243330485984006
-0.8184501094678391 1.667019164517749 1.743078005019006
0.8078298413848772 -2.106929952455326 0.5600453147986979
0.6643240367494891 -2.013148865652056 0.9628731471560943
-1.106047698582405 -0.1575827752735161 1.017174937640221
1.025296558683628 -0.1575827752735161 0.6982413271578518
0.02344777705061109 -1.35331641574881 1.334066617719118
-0.2181856407111169 -1.436251520981197 1.282470523150925
0.6623103052603986 2.382052048552085 1.481816120546275
-0.975158734139332 1.797663992087599 0.1493582946881785
0.6308829834467945 0.99275268448446 1.819122337853504
0.3911759035024244 -1.474894801428848 1.259543966113626
0.0151967493998324 -2.002214687640681 0.3286919036876995
-0.9673591630568383 2.433161720881928 1.020843486420663
0.7539104543453685 -1.289196560475358 1.365879871138087
-0.6926099957032098 2.062854400204808 0.3145970149362539
-0.9719510572902885 -0.5397188448197111 1.491062615808384
-0.09345545321191986 0.4565592360719831 1.840732620128885
1.008774508329125 1.247414089353462 1.250298871364618
0.9701169018999809 1.989002894860983 1.13236571570308
0.7567129745998041 -1.982545559813016 0.3342123129275439
-0.9427801673289347 -1.457283113377992 1.230174657364195
-0.5242468938534912 -0.9757069590193023 0.3120185077702808
0.8668960259270404 0.8742879677304114 0.319627699837771
0.7970263927014007 2.461919119629057 1.065062253395335
0.672815327355297 -1.188645112317085 0.1840017209532825
-1.050977863239497 1.921054061522467 1.132870143893991
0.21185087733286 -2.213810406857469 0.4332144232064906
0.7514935790648453 0.5815835680143284 1.759060743576603
0.9136250334239952 2.293069313961505 1.260374242368688
0.01833016225290397 -1.562495050508259 1.220973555168978
0.7655562185142717 0.9430419555084246 1.756381333395217
-0.4459645557476703 1.769555064353811 0.3084476155677861
0.1304984718032105 2.518158139810808 0.9950429867111462
-0.9424474720928232 0.163921655103656 0.3195054372405086
-0.09590448388919229 -1.04870048029623 1.50986253596965
-0.8772704964379174 2.245292795872475 1.616590513761036
-1.068302746348381 -1.074376289003884 0.5501003107241665
-0.6988494799988859 1.999369498299309 0.2881198951208721
1.004072790084683 1.527044544772785 1.132634811335195
-0.2101208718738684 1.44409676752679 1.82730564687795
-0.09711237348574348 0.8897636545451439 0.3095035015092972
-0.448053923524304 -0.03717402015542268 1.822818884010537
0.8401497027637485 2.397790252667323 1.283327218468917
-0.9306742382105984 -0.9649563718514629 0.3224754418372648
-1.059998569109075 -1.465826876996072 1.003343479999286
1.025605807763029 1.108592008091005 0.9129491034200684
-0.5533325200213367 -1.825087468671142 1.096199770546966
-0.889388173142747 -2.109074547394074 0.7015252917468849
-0.3239208418360459 2.575948550006387 0.7004685178606784
0.7411341759505964 0.08508501381592952 1.748571873820424
0.5563788564926651 0.7990417074907206 1.834540269121966
0.5288621260026539 -1.303643982383561 1.362762154889805
0.9667571981013836 -1.686897952920104 0.8420017753564898
1.031001878287308 0.1604719207985922 1.124867371641465
0.9999719207141812 -1.187856780640486 0.7845902725222161
-1.021348667444377 1.663884441815199 1.395538103396408
0.9334138301478153 -1.868699598663278 0.7098451336297592
0.8024007834783729 -1.779483204661934 0.3314614582709254
0.8229294269558808 -0.9509574185375295 1.489389809024872
0.1438564854842846 -0.4359878607691418 0.3095534098153346
0.7457782206808079 0.4067296754910235 1.758350578142559
-0.7804918581166243 -1.415857389514707 0.07242400795242521
0.4857618161094669 1.247286787465702 1.833893945886997
-0.6362377597794542 1.312217485106106 1.82781980890879
-0.6591070336264884 2.571174974043149 0.4900132387014436
1.022606515425222 1.180592531599867 1.132541247803299
0.8193434660414303 -1.676299652857319 1.15673564611017
0.3273872526650627 -2.207938463325899 0.7468754082090684
-0.2762001665891149 1.704809292075254 0.3022599568487225
-0.9347058403084375 -0.8804650606831118 0.3213295253871022
1.005591604728464 1.314017635072667 1.250641179416322
0.5931728389868913 -1.721734583283774 1.147267685578977
-0.7724620116715801 -1.79068635368461 0.3239420416363576
0.2078104184987493 1.362784989178494 0.306729499956226
0.8150088735450314 -1.229488556854121 0.1024352823458928
0.9658010061809964 1.314018274227896 1.399095561230977
0.1304984718032105 2.518158139810808 0.9950429867111462
-0.9424563728970332 0.327610913501266 0.3195034896015
0.8125367386678682 0.1994456474390223 1.69265589749137
0.5872567025142539 2.578661909422122 0.5958072190690643
0.9878769279019919 -1.41580203761182 1.011006764203777
0.8117722666203845 -1.80948907351586 1.091108433018916
0.4674931707016585 1.863918251474475 1.818250615740767
-0.2963946440689725 -2.179348208634185 0.7991494931857257
-1.015300806816994 -1.741225704604541 1.081464059636384
-0.09692348344181141 -1.204033238417195 1.423102393625483
0.8597131155722803 -0.8804650606831118 0.3213295253871022
-0.8979221516920378 -0.9509574185375296 1.489389809024872
0.9727016440472427 1.384042158733059 0.2651543160120642
0.9334138301478153 -1.868699598663278 0.7098451336297592
0.8593289981667924 1.925898888691593 1.561761218288309
-0.6840609845108981 -1.252070895785568 1.393547454504646
-0.9931164605026587 2.359530225235992 1.156200334362003
-0.6820873439867193 -2.205848222325902 0.7112348248261291
1.004072790084683 1.527044544772785 1.132634811335195
0.04077973147401223 -1.428566146239517 0.3006237910788516
-0.8250976872770948 0.948798685534845 0.309654752535745
-1.040793730917154 1.314018274227896 1.399095561230977
-0.3215112901545268 -1.765573613635254 1.128319480668899
0.6920135943061406 0.7797650145328159 1.792179586213997
-0.6861302782297378 0.1238392677371876 1.81153680993918
-0.9738083544571026 -1.981456895071288 0.8435627588419969
-0.7832326508373496 1.823821220795814 0.1151655430524683
-1.106171924264507 0.5000009127667966 1.020110720761187
-0.5532778455541736 1.584556770701418 1.824603515013584
0.2460630081087637 2.48448007377043 1.121869313324214
-0.9053579193568619 1.213833437535312 1.693758175170212
0.5319722374582583 0.1683076056685163 0.3093784500437265
1.029145867947424 -0.5461699821076933 1.007014093881583
0.1256808342892217 2.205473756626392 1.810330554671258
-0.7229121175355751 2.163381170068994 1.766553742462222
0.3273872526650627 -2.207938463325899 0.7468754082090684
0.01676424947141975 2.530956190218142 0.4075381564462433
-0.09692348344181141 -1.204033238417195 1.423102393625483
-1.104405426011473 0.3225511334300916 0.8109108033111852
-1.060522918949657 -1.465826876996072 0.9160030027555655
-0.2547243732316125 2.127911882763363 0.3226443969837347
0.975696411104013 -1.248823200984291 1.131032373253766
0.5847991215347207 -1.823192271979527 1.096140946529502
-0.08532054192179367 -2.217186677827345 0.4332144232065155
-0.3300643105186742 -1.837201669662093 0.3250801750074111
-0.9558903320616676 -1.978961547197658 0.4540321099395179
-0.7576673719081631 2.569604456460708 0.5945460204270628
-0.756236197006452 -1.891384478437307 0.3266287657191842
0.9313149882444307 2.236155087803288 0.5496274064794879
-0.9367690475993634 1.247776623432585 0.2977129096087675
-0.6614398812615314 2.25681712979113 1.773343153153421
-1.025927441737765 1.92209345518623 0.4190552648668001
-1.105752079119289 0.0006605297280138193 0.9129291058269533
0.6826746471720057 2.569604456460708 0.5945460204270628
0.837064971781607 2.29151004118459 1.519931160774734
0.2481176915470149 -1.725687293424475 1.147267685578953
-0.6861581151583924 -1.03236629333675 0.3108857049229268
-0.8380974585796501 0.8664132361199868 1.756670070169236
0.02091175915299606 -1.04870048029623 1.50986253596965
-0.3239208418360459 2.575948550006387 0.7004685178606784
0.7511328170016107 -0.1570385913611163 0.3093909137707264
-1.079949477685183 -1.132544610753958 1.050766723342068
-0.335635504294608 1.249413541332626 1.833893945886967
0.9548868076446386 -1.763771086515323 0.815528074243899
0.6090682597747408 -1.252070895785568 1.393547454504646
-1.089999913708507 0.8648396403144616 0.5404507364683646
1.030769653202019 0.3225511334300916 0.9129290659071377
-0.9670734002654271 -0.1498779522187814 1.544913073984062
-1.021564915001068 -1.627361893596438 0.3958743175433988
0.9855301942135004 -1.465826876996072 0.9160030027555655
-0.7549618060245271 2.447532714658835 1.225020703766641
0.6251760122929504 2.031699337061533 0.3032951785448604
0.5158672556295058 -1.752264511469911 0.3194634956293508
0.7997233611053787 -1.461880753267666 0.07940547445917812
-0.09330487918028324 0.2910183262479919 1.835916147925395
0.8919433755955192 2.470178647060086 0.796866966798538
0.414720299122448 -1.350631675779066 1.334066617719187
0.5196559681583785 -2.212525642724943 0.6861006622524352
-0.4590616034086763 1.248070605298319 1.833893945886986
0.5479558388596506 1.726723588908782 1.817311036273813
0.799651134031406 -1.519673969199508 0.1047506314691847
-0.6468401806424848 2.4266487622043 1.357175538239258
-1.031458095089069 1.267705948265754 0.2967654561988594
-0.6378786857132881 1.245417699828105 1.83017416578821
-0.5395868028847181 1.9287726505171 1.816841173729995
0.9249349072542877 2.30444420486596 0.5514761257705872
0.9898961754944158 1.663847858668232 0.7051490020965681
-0.8017478787032841 -2.093164783047449 0.8740165940469906
-1.056096292223248 -1.514858682067746 0.8254755012705305
0.5300422007624315 -0.6660639094404407 0.3100645992479912
-0.9679310401623554 -0.2950459420202024 1.53002540291294
0.9727142492714264 -1.627250201326244 0.9154700307210578
-0.7252096767544731 1.288769794529975 0.2961328285769922
-1.044928174928308 -1.564617052212042 1.08741972336152
-1.031384057146123 1.988564562076495 0.5671002430691537
