-0.5106597216168547 -1.526825152960855 0.05843056842024744
-1.503916904728748 2.110230833727762 1.291836239958101
-1.72911319301633 1.968335243503737 1.010835789232677
-1.796008527245299 -0.4970048093241076 1.059865305621493
-0.5136341652678865 -1.583096890613833 0.0548510973982036
-1.74497012881217 -1.474002156510619 0.9091450799246834
-0.3576649169899206 -1.327277043659539 0.06410614135928107
-0.6860980791457371 -2.448770399764674 0.2966928235803099
-0.4795887409940136 1.375706724989289 0.0399037984585902
-0.2961257280765586 -1.499792718290939 -0.01524017310427376
-1.897636647838231 0.7412736084851814 0.9761418375663786
-0.8261373392915182 0.4828720026739077 0.1183774683311988
-0.5138122652862873 0.8811478587660749 0.7566048298785659
-1.506575114744181 1.788856451098067 1.201379473217007
-1.298760844002427 -2.000965218315719 0.8671544665014866
-1.940171707941016 0.106739937639121 0.1413415992192556
-2.069010317506577 -1.829068646529413 0.6652946447731734
-1.045410847421097 -1.588790518664831 0.1062808138264626
-0.8760405723681883 0.7815252773086362 0.1167787878370675
-0.7866352310097626 2.111177241402353 0.8531950187940149
-0.3046544687062122 -1.771575585766677 0.02647509193696481
-2.080757832369355 -1.65562972496102 0.7226956858467069
-0.7571812710004601 2.053118424853191 1.220467388275839
-1.840966819635459 -2.289082217417687 0.5985541430028849
-0.9556819552924338 1.975182674223247 0.1637795387380358
-1.992429458585816 0.8134739989508659 0.08587210948835486
-1.829231927857136 2.027207290506254 1.01952035568594
-0.9598850313657286 -2.235110549438627 0.1289084189084451
-2.110534400446915 0.768806189763557 0.693935363668605
-1.449969609966889 1.824636232726293 1.185698209043
-2.090648632266597 -1.492942971585285 0.6604420446830501
-2.047330261731213 -0.4388218883177584 0.819141014287451
-1.042187945888229 0.812047993550691 0.1141084970643684
-1.213773574291469 1.868970442742783 1.238555216965481
-2.105719606041494 0.8967331239293274 0.6370351354091167
-1.556010754222871 0.8400035386252363 0.1182208256508986
-2.089451851065203 0.9649302368789618 0.3302549442906563
-1.902544634418494 1.878408446496792 0.1603737237014544
-0.7556118215413592 1.702439561853057 1.007402901722208
-0.1878983422123171 -1.766475632208963 0.7343970674869839
-0.1712166481021799 -1.492942971585285 0.5461061971397336
-0.7202878696526189 -1.756100031721875 0.1141227356337822
-0.5883575893056313 1.329681064425101 0.1118116082429204
-1.31064528217071 1.235627740902675 0.9715039299248515
-0.5068118265658942 -0.03254114382690317 0.1319971220433173
-1.918921758497009 -1.983345768239188 0.1485049944106437
-1.124249413878286 -2.505870475860493 0.2309598018909133
-1.300645184739674 -0.4923833983960488 1.095958909110431
-0.1682563728741467 -1.437899724271637 0.5459774038732014
-1.260449050330013 -2.499121536878654 0.4529920375432906
-0.1661629142846788 -1.271184859862037 0.7968569523596278
-0.2780192401591032 1.950104995693617 1.223698766273542
-2.021739663536164 -2.092835756655489 0.5656146383767388
-1.84276150843229 0.7052457576291515 0.9246996345222232
-1.070748255690738 -2.51070765360367 0.3932581466879914
-0.1763267095743749 1.16233353574906 0.4222241772159351
-0.4358238542493409 -1.995078745096265 0.1433647923824025
-2.001138184599184 -1.268761051926206 0.1317153065469186
-0.3162654924358537 -2.177874168356948 0.343605958632107
-1.652206376161634 0.7655571516879982 0.7312376863500886
-0.1801652529245764 0.7731045223609916 0.2154379397469154
-1.069384020160919 1.094495555860616 0.7642496787807449
-1.310970810930165 -0.8140360416799732 0.1162312046757489
-0.3632535984138963 1.977623329982961 0.2361006712231647
-1.141503516111388 -2.304808196890889 0.7470711486250298
-0.1755105270872703 0.2406021719660137 0.6120171124096313
-0.398749749662282 2.026262766255491 0.2891351900402025
-0.3903649331069272 -1.754552793562229 0.9063480192963322
-1.809518777203372 0.8755133613162369 0.8368859562894258
-1.91619747822233 -1.55953863276447 -0.03419228552959391
-2.036979555998902 -2.000773462151419 0.7640353666946619
-0.1763267095743749 1.16233353574906 0.4222241772159351
-0.21672494369409 1.798064041039856 0.7076996749738818
-1.954649601104022 1.45057283052105 0.09009528669182611
-1.218387321037459 -1.326644198645561 0.1126915550054169
-1.960486604567036 1.352250698506371 0.03114355607311876
-1.96766654782033 -1.972111386804681 0.1582430384795932
-0.8814845791570235 2.069185338045082 1.026623053526832
-0.1798932173286117 0.103674182927659 0.6611746025721816
-1.678918221227683 -2.377181622254103 0.1859862089786817
-0.5048308348752081 2.050561906765912 1.01215860881363
-1.77913166708706 -1.795007593755771 0.03560131845683227
-0.155787582534804 0.6084273766587657 0.6372364894162215
-1.828416268149914 1.46463914655724 0.08015423448753568
-0.61720589091858 1.160171102355124 0.8434340460341507
-0.9258975369176012 -1.292182753971006 0.9672540298521144
-1.313372122097768 0.9566344969739002 0.7363707854871987
-1.845273095089234 -0.06867602159807565 1.199960153122115
-2.01657093215446 -1.494943846445553 0.01949289394437465
-0.1705155289284111 -1.384632152683706 0.4073122885986718
-0.1857867972111573 -0.9985841440679368 0.7073119372526906
-0.9919045253982994 -1.34586705669003 0.9664161355984401
-1.99675936398011 2.02617792692368 0.7105641401197598
-1.070073061599121 -2.508721352805775 0.4404828339867446
-1.32231407768688 0.6338975847320645 0.1158102817458669
-1.073981533132668 2.112264130691747 0.8393100717108261
-1.736633249364389 1.221539841502996 0.9727725524508014
-0.1722327020695123 -1.154599598354763 0.5485709980278181
-1.199074693455461 0.6794889756767861 0.1138139748911738
-0.7359522974292263 2.108875969924287 0.853123278698209
-1.275546830546987 2.109351409844639 0.9240429260515344
-0.3784277944349907 -1.469982649272045 0.9396853244102577
-0.201865133762211 -1.766329916555401 0.3114464261783934
-2.075147952866686 -1.335362953228988 0.2212931200260397
-2.085488245664431 1.032871487807662 0.330504899510888
-0.1769963467643038 -1.601921207776101 0.6588748993126137
-2.090979739859057 -1.433912261860136 0.7939638204784201
-1.960265908819689 0.5759469852630971 0.1415348352153681
-1.941291900256393 0.9095304571764793 0.01776627680500806
-1.130625826681054 -1.06215674566064 0.9878237657297887
-0.4989108621814777 -1.374395879778412 0.08682848470557179
-1.130625826681141 -1.93673820534847 0.8965016372396731
-0.1862653792442391 -1.709776624636986 0.4711869518724129
-0.1737613951082595 -1.547765521124769 0.6900030794045667
-1.067312249018614 0.5517328513783014 0.1131814838550828
-1.191767906082393 0.6589047510151478 0.7348295003300417
-0.1894457875889225 1.405705772809069 0.7072930251447156
-0.6367645040113602 1.811507176153674 0.9988006305484123
-0.7359522974292263 2.108875969924287 0.853123278698209
-0.3464695019664082 2.062694781570121 0.8047150313394921
-1.216060758442386 -1.933477555581302 0.119108147051447
-0.4699742197465524 -1.897496333947749 0.8680469118729225
-0.5177680063050546 -0.716759794996831 0.1325397991168969
-0.6079131085722092 2.053269329097959 1.290218015536523
-2.044310502655661 1.798064041039856 0.7346693279955678
-0.8533713190791189 2.026214235118773 1.028248771129618
-0.6192372744067913 -0.6049524596877055 0.1268477528705681
-2.050656957046272 -0.7958458734790719 0.7921083529409404
-2.060028547676572 1.228909137624844 0.8224657700876481
-0.8198073605050753 2.02564859147931 1.055930443904589
-1.756420818486808 2.050561906765912 1.01215860881363
-0.8702843919119345 -1.326747689366496 0.1150043181265192
-0.818042769882908 -2.472580892091908 0.4655009810919625
-0.7580472112506289 -1.512721272128444 0.9079460201272582
-0.7043998625683809 2.036625808283139 1.048667064434038
-1.069384020160919 1.094495555860616 0.7642496787807449
-0.7548909289978165 1.89064831016755 1.244349004732287
-1.130625826681141 -2.000965218315434 0.880599879780321
-1.901883993420928 -0.1164280905205308 1.118279450928324
-0.4552798477168195 1.005650445403008 0.8393348317897086
-1.807284032069711 -1.315859340267351 0.096163651940692
-1.754336511316898 1.861937099676025 1.187620101547682
-0.2855395855944999 1.55381636525232 0.8923422356524038
-0.2236405865427106 -1.709776624636987 0.1114861050655922
-0.4448464441768822 2.081568750094647 0.7640566846047748
-1.302049174989835 -0.0658626642849857 1.31206805959674
-0.8508430318097734 -2.004883316418556 0.8281971603619989
-0.2396191044597378 1.924067188535787 0.8327386919138448
-1.926670581240641 1.991648820750309 1.002462025479556
-1.216434947631364 1.071056587766524 0.1049850757163242
-0.2167279735013954 -1.828217226222408 0.2158785044562643
-0.2950693700650994 -2.17801641520031 0.5407887886389464
-1.793498367226804 1.278599182168022 1.040164597843142
-1.501676434689605 -2.463811484538268 0.4665134982838336
-1.215843819112485 -1.901558296010014 0.1166951209576523
-1.829376632999873 -0.8897106452233901 0.1370709930854474
-0.1661629142846788 -1.271184859862037 0.7968569523596278
-1.905531015630304 -0.5236175803532269 0.9903949193475325
-1.569942986747242 -1.022289627141829 0.1233570596407788
-0.8850161588637451 2.113743705324592 0.8071197708538117
-0.2160162140334253 1.589284078976779 0.7917735862955098
-1.312851815184988 -0.1571277629067719 0.1154020151071038
-0.1871505282417226 -0.9986087761536759 0.4849007392931143
-0.9348912380037284 -2.084607647550002 0.1259258588588165
-1.87436880635526 -1.618061442509472 -0.03743904038642255
-1.644897319140373 -0.2643389660752054 0.1265559247060823
-1.351731817435103 -2.483231852475732 0.2467039895226532
-1.299859362016109 -0.2115046689317527 1.258454958851202
-1.102372230142032 1.73056596460618 1.016213624457515
-0.7037197908902702 0.6333107584863347 0.1220716165980582
-0.236646644622406 -2.092835756655489 0.6386351039018268
-1.319559639322988 1.840070954927879 1.002273481944006
-0.2540922974733058 1.323857704958979 0.8827490610868241
-0.6841686174505833 -2.450482238278295 0.3324306027871485
-2.070401910770447 0.2163071655595158 0.7793560927713716
-0.404583176461965 2.043322218009373 1.009249383348436
-0.3012861609369467 0.7906051661523071 0.1092479950600263
-0.4332133911993266 -1.908027435591556 0.1019156299856942
-0.7195379861380411 1.918319302173044 1.046934290803651
-0.5033711991734462 0.9960198721756208 0.06427183673491921
-1.421342330301951 2.066486993670897 1.028468523292173
-2.087169582113078 -1.547765521124769 0.7508774946213986
-1.310658000708001 -2.427357355760529 0.1622935436980796
-0.2835649862653881 -1.392197796415695 0.02454714581707914
-1.700959069987106 1.983858175788013 1.199968792964227
-1.546107368505339 2.013033011648136 1.279733652282122
-2.006456604600286 -2.092835756655489 0.516048074869866
-0.3839938959507976 1.302054681779822 -0.006111219990543936
-0.3439185491852743 1.943407077535905 1.254246211116653
-0.1737868218206232 -1.547765521124769 0.6119183494175924
-0.7208474542073031 0.7690206418838337 0.7330730031106245
-0.3184659388620471 1.101034061108047 0.9598194541164099
-2.087505004903632 -1.547765521124769 0.6599658548789062
-2.094648130782473 0.6061493071346141 0.8063111150035779
-0.1997721228773886 -0.5948116270774034 0.6254351524522435
-1.763327988678371 2.077485002900428 0.8973267609382591
-0.3579628374156035 0.2460375309483238 0.13861186115931
-0.1769963467643038 -1.601921207776101 0.6588748993126137
-1.794052075319897 -0.7955654177640408 0.9649728698709001
-0.6347964292824347 -1.466744841178543 0.9026139017311761
-1.614903981054198 -2.020745063285555 0.131058424813164
-0.8366542057772055 -0.4848747975231252 0.1184752617107715
-0.7937466313253103 2.062086909529483 1.031196544679152
-1.982863186186131 1.917545113647111 1.21431770556501
-2.030080040620337 0.9667662010097968 0.03063802178233071
-0.6207084254176685 -2.22043285400185 0.7398395656482768
-0.942808290415697 0.551803633905137 0.1154923789487387
-1.045713214285763 -1.699965507424707 0.107207282873566
-0.6688775313787793 -1.75058302990294 0.8697012071049812
-0.9348912380037284 -2.084607647550002 0.1259258588588165
-1.790818995814184 0.2304433436138233 0.8347375232389798
-1.197083574281885 -2.478678881208453 0.5215735774971979
-1.985287759629605 -1.301115021054703 0.09866220787494572
-1.260304846719693 -2.50043785062828 0.4433342329153113
-0.6082394398649738 0.1126439935680109 0.1265456482130051
-1.12363942936753 -2.510132749360247 0.436334090138777
-1.952530833785792 1.981930403912509 0.9866731987181977
-0.1784170440291262 0.5249744156953216 0.834067589322649
-1.593261677021858 2.062542130416998 1.23808072365358
-0.2025981969900499 -1.965173296613684 0.6735824177531977
-1.96797028982138 0.712744136655374 0.1408164287082225
-2.076384217580213 -1.465028515720743 0.8409419516264326
-0.952780666211918 2.126686356980295 0.653313615978028
-0.6277661135811998 2.106052298905083 0.76279314062666
-1.527280110850338 2.133292736956617 0.5728211873039661
-0.2674463528589783 1.454114782190978 0.1091256513837984
-2.093661820355389 -1.437899724271637 0.6609467415313336
-0.1759161328940173 0.5290131831329341 0.3020771182534791
-1.662571517589023 -2.076691732929422 0.1369001900556901
-0.2644476422609904 -1.161658774039473 0.1512701983852729
-0.1871091764716 -0.05312914206085726 0.7309634432291295
-1.41888614047867 2.12583937064011 0.3897366228256894
-0.2324237856803111 -1.386917423614259 0.05278880910864026
-1.440578391378992 -2.477557485231517 0.3639859515301642
-0.4827137979142859 -1.740840470909728 0.01688329248714535
-2.028579066729765 -1.965173296613684 0.4331475336782548
-1.8416408323396 -2.29547590630411 0.4994502921367306
-0.1938944476426953 -1.627715629372146 0.82864524352786
-1.877670052385532 1.240510924157344 -0.02598985824186063
-0.1976508065138501 -1.709776624636987 0.314182351761514
-2.070055427683548 0.712492990497434 0.2043801165466316
-0.6182152824726005 -0.9116866233230108 0.9381415325960087
-1.655348475888046 0.2527983487082872 0.1265399836444213
-1.759464799680775 -0.129442220613292 1.281573729728903
-0.3479725452485011 -1.825629695455561 0.04437459969360605
-1.816405209185134 2.089436361324765 0.6795737330904782
-1.21569587133151 1.267903684649709 0.1124155663876686
-2.100306883978338 0.5287067232678513 0.6375201005501578
-0.3431684708345567 -0.7925704020023976 0.9461646157793142
-0.8058743671962387 1.951459578395386 1.076995081288244
-0.8702843919119345 -1.326747689366496 0.1150043181265192
-1.422277411861419 1.301210180476056 1.045783742238012
-2.049356161564084 -0.3660676798606045 0.3020984379452013
-0.6796638756162161 -2.438419984010476 0.4984511404659943
-1.547857589614583 1.00128551371708 0.1119152746436329
-1.420332883165865 2.124434595650409 0.6754472201223968
-0.2932227136868282 -2.177961679321989 0.573651912800907
-2.036566224091551 1.799109641586545 0.8061374879795102
-0.208296562735099 1.345715932447746 0.225146606758789
-2.056314441010223 -0.5948116270774033 0.4138495913864764
-1.773139958011488 1.938656815908336 0.9980366888341352
-1.964985861563667 2.026144231091842 0.9207068949168575
-0.84564492589986 1.975440744844999 0.1664846609417606
-0.9506143192177511 -0.7217430477076563 0.1159575261404622
-0.8549469763196029 -0.2114994296078067 1.25602267257467
-0.1725201888600813 0.3591846750596623 0.7256526849612712
-0.3247775110483838 -1.191002505455772 0.954690384794049
-2.084109580692228 1.223856489197171 0.4948523432922413
-2.004931620754275 1.849961195956244 1.214941213472525
-0.5138122652862873 0.8811478587660749 0.7566048298785659
-0.457678429347997 1.870690947779406 0.9911520571394746
-1.291867984782106 -2.425498118549447 0.579698393979269
-2.085776518316808 1.223858351030466 0.6345277760953906
-1.932793701657169 -1.396485275935944 0.01623340645043587
-1.450157233785801 1.798622005197903 1.211798794485196
-1.993752262376425 0.3642611691995945 0.1498924711440545
-1.544119824940456 -1.532563767134501 0.111270742421584
-2.098713592802289 0.8313197779207787 0.8008100823802474
-2.050763331228765 -1.292277968433872 0.1399898249599408
-0.4448464441768821 2.087474387681012 0.6988665229238369
-0.7157797429514887 2.095076852354332 1.294648088247878
-1.546107368505339 2.013033011648136 1.279733652282122
-0.4431857935290227 -2.286639237089403 0.1690513754291646
-1.991482261424338 1.825478970381024 1.200663690407907
-1.627833455140323 2.059075083629579 0.2799350976087275
-1.796008527245299 -0.4970048093241076 1.059865305621493
-0.8116430917393012 1.85082788073365 1.186656805063731
-0.1770658781834953 -1.601921207776101 0.7079200187007328
-1.834231296545011 1.942983836521744 1.257572210008059
-1.115406504547734 -2.389449766214325 0.6799631207591662
-1.447849344623355 2.102412492288373 1.296293398295887
-0.5134125307566603 1.43866453228729 0.09368613260322084
-0.2375587193583282 -1.764149025051605 0.8507884817379879
-0.5467920042031207 -0.6196510149959791 1.004789171801871
-1.802002038668823 1.728882744197274 0.9975647760617203
-0.6277661135811998 2.106052298905083 0.76279314062666
-0.8373898239524106 -0.7218033119750777 0.1188955350782859
-1.301002912764308 2.071892014235002 1.027142975720275
-0.3231880835717692 0.5099246582452164 0.9445593019195285
-0.4560702645156324 1.985465424527548 1.008571184734385
-0.4277321450974929 1.974467361426213 1.267086178903794
-0.1706030210954193 -1.492942971585285 0.6604420446830501
-0.5064152154119408 -1.259878552204029 0.9233276775610668
-0.1634933822933415 -1.275238583335778 0.5464192427018942
-1.790361395969856 1.41652530366019 1.021049170612289
-0.2649708578519264 -0.6771444162940757 0.8804538329152442
-2.032956260993786 -0.03664664397767199 0.1959475776093646
-0.1638055320038551 0.5690741564689142 0.4159520331679336
-0.3446326995071524 1.974889962609281 1.263759626199639
-1.679211970882448 -1.474791747623589 0.1047498163893311
-0.6892470177381216 -2.444701052005813 0.2559935069041146
-0.3346065333824277 -1.44870509559282 -0.006664830708171046
-0.5448387858626491 2.083361962190614 0.8976786681298977
-1.845840608571683 0.2248432936262407 0.9673558289437262
-0.9616119465904264 1.64059106519037 1.014652338794748
-1.593524069367991 1.784180599214821 1.191355705749724
-0.4358238542493409 -1.995078745096265 0.1433647923824025
-0.7107060101023378 -0.9020115075253794 0.9482964934012801
-2.036729424812546 0.6773728771944279 0.9021167941037727
-1.739395020345871 1.797950862113678 1.217444654583411
-0.6437181481149987 -2.226552113488752 0.139834366943124
-1.67545930933947 1.138214271666452 0.1003709501297757
-1.546107368505339 2.013033011648136 1.279733652282122
-0.6700465742407606 2.009380096672153 1.278919134983259
-0.716244461864431 0.378416223321433 0.1216681142767252
-2.006464843357634 -1.712115985555749 0.03539864296640722
-1.159550283440885 -2.442299810147318 0.5931038606281474
-0.3048192624185175 2.064132083480496 0.679667958582453
-1.443208883479108 -2.472580892091908 0.4655009810919625
-1.454999764670975 -1.34586705669011 0.9425129744673844
-0.3132492511708139 0.3662441259388733 0.1413436743876991
-0.4187276981266405 -2.295092755155869 0.526028245273525
-1.338121741068703 -1.242540614625037 0.969901209728029
-1.240322340464755 -1.737068480474704 0.926659819105477
-0.9226597889703935 -2.211137274863583 0.7468595304657477
-2.048729853502527 -1.766305348147562 0.2154938457638995
-0.942808290415697 0.551803633905137 0.1154923789487387
-0.1682247541372408 1.098854012143506 0.7307599910010605
-0.3335884745186064 0.6629936664122247 0.1393148931502999
-1.893435185198802 0.9785796934472197 -0.01378048531632568
-1.957264509504977 1.71054414815031 0.1603523978302981
-1.553100537959253 -0.696175256416391 0.9828977445139127
-0.9254764382787641 2.108700028624347 0.9454595446371772
-0.7127884814939225 1.843739519734963 1.184882915016707
-0.1515766955933487 0.7070615304851029 0.5666556315075272
-1.365895784352232 2.00239874670297 1.010332282092348
-1.981557741321506 -0.03583637012464803 0.1499329572532591
-1.923441813565291 0.7631155587534692 0.1290241588846209
-1.383422051043839 -1.901715126472789 0.1189926190640275
-2.017436042375111 1.971339009582922 0.8076448915375938
-1.407899953269072 -0.127131128287314 1.301760134795924
-0.2164727279521726 1.223856489197171 0.1053605380210111
-0.2724705770709059 -1.35405104819599 0.9259188937862826
-1.433381493682468 0.3788955703826892 0.1183434459210291
-1.050785168911611 1.887181989631003 1.192352767440634
-1.110203754247188 -2.512338064445607 0.3897148433750802
-0.513319619884539 -1.418377808466354 0.9130736867427436
-0.1760187564056606 1.1623672856075 0.7547336099698605
-0.8195397081491552 -2.47742821347287 0.40232609465743
-1.673114040100262 1.267013736783216 0.1083029168712388
-0.2191820011861294 1.284694192557576 0.1138351982189897
-0.7292740163994606 -0.7213885163095375 0.1222173998453661
-0.2929795703917041 -2.177710133994559 0.6284897878466988
-0.3419929725558534 0.7931545653977277 0.1067645570436305
-2.049375625663088 -1.492942971585286 0.1031822896289882
-0.2141087508420668 -2.024666456323769 0.7160357322097577
-0.1872803487518192 0.5675165056056262 0.8612537981852382
-0.1992830634207747 0.4422935136143602 0.8597757894518916
-2.060468270657382 -0.7064927212575368 0.681941317270526
-0.1770452266150248 0.2407462154281314 0.4917511006352379
-0.167075818071837 0.5261331954784019 0.7767615906707079
-1.840760765230713 1.491937640370724 0.9973779999283332
-1.21664162068362 -1.475552499972511 0.1071775261313582
-0.1630177408866887 -1.275228279404934 0.7168631578779121
-0.7138727524114419 0.4823081913034938 0.1217019639161748
-1.746894211953611 1.324236519813767 0.07208078927254381
-0.3874361597955693 2.083176057880088 0.6583382838302598
-0.165480085442422 -1.38463631549983 0.5459363011951928
-1.187270120229362 2.112264130691747 0.8393100717108261
-1.427008147948003 2.005511109185734 1.134307900206844
-1.980484183057718 -0.5687211222578595 0.9070916355711005
-1.051508163687363 -2.084230555744746 0.8491785146257468
-2.000130536578633 0.1725272631956143 0.9083699694812151
-1.672977359487383 -1.859019016587212 0.1152497731493211
-0.3095752127579673 0.8980876408634281 0.9456801654937349
-2.087843068828068 0.5690741564689144 0.3021316561535878
-0.3771154154967046 -2.192081515519499 0.1543241212405067
-2.0666880922821 -0.1599367968003389 0.4165152727125739
-1.94785190965402 -1.303161355720123 0.09503710019299996
-1.004673256453507 2.103180823734212 0.9887563496661775
-0.9049263702619271 1.816966758575192 1.221886765881635
-0.8772044930464183 1.520768914953738 0.1225288491010075
-0.7142703293950188 -1.288664048763654 0.1196851958237631
-1.192380629897446 0.891812239509129 0.7380360974271896
-1.001806217799593 -2.502417132971138 0.3964099832025803
-0.7714674364433186 -2.406986255080382 0.1720824575104331
-0.5249141357165562 2.113774184173581 0.5181080143510216
-0.6284391981226488 2.115689903410812 0.3948449740192938
-1.338307843484926 2.027045105741332 1.014447963351565
-0.9065247775765528 -2.488976657940198 0.3221589838660924
-1.815737751027383 0.8021548167650997 0.1076112053343221
-1.711290857598648 1.801487205302186 0.9971217043190784
-1.130625826681003 -1.29261425138354 0.9755889534672008
-1.50497603444093 1.987987502389349 1.271982953300123
-1.064089485680015 -0.6590475171293954 1.02919838126267
-1.74497012881217 -1.474002156510619 0.9091450799246834
-0.9947690415381599 -1.400902987534525 0.9627147440347315
-0.1806852674997652 1.098865206959214 0.8079960196548828
-1.217587081828274 0.9339128752293642 0.1089012932053887
-1.652916755711356 2.099590324677113 1.289449628597068
-1.450088378695724 1.863325758207308 1.237325385649407
-1.518696986599845 -1.403507458727081 0.9163632866136302
-1.413332539975116 1.949884773206045 1.162770481263371
-1.527297739145386 2.13506006201061 0.512987466566088
-0.1631468514291045 1.03289065297435 0.6927399379177421
-2.047748856681776 -0.5074257445511937 0.8071658983805042
-1.944986160926163 -2.177874168356949 0.343605958632107
-1.594264087976238 1.813739696849255 1.183326911650919
-0.3828522456680826 -1.579087451203872 0.9292375749946348
-1.882664112452704 1.524018335267937 0.1322142214929458
-2.023662756388861 1.865851738555389 0.3110780465136026
-1.972016875168969 2.051573768520859 1.278597319821776
-1.065484153042897 -1.509878237643966 0.9572819633656629
-1.448642472084238 -1.400902987534598 0.9388115829036678
-2.048943759870275 -0.7064665109935638 0.7800734835515402
-1.532721153383223 -0.8136174219731431 0.1224883625920351
-0.4560339526188265 1.942675117406102 0.1829352407952329
-1.819794723320034 -2.056753065505863 0.1461780320718424
-1.137576448002325 -2.511291547203736 0.4182323936733183
-1.04805345799191 2.07355219542406 1.294763669115081
-2.027180375099381 -2.026444727419833 0.2809372133275262
-1.817129197434272 1.33782184093205 1.03398504835787
-1.796008527245299 -0.4970048093241076 1.059865305621493
-0.2813555175721816 1.937116541516795 0.9664060801845644
-2.008029643219189 1.699615180925319 0.2078708086466706
-1.344860381957907 2.055733442123007 1.230422368700212
-0.4853834688161777 1.983554952365989 1.214948007871537
-1.978517644599432 1.854550276619881 1.19869708952257
-0.4046723395790134 -1.892273958576311 0.8824725168479453
-0.4229359474222492 1.831601145204398 1.185461653210499
-0.1558884996731372 0.8967316592001391 0.566683152932421
-1.53543031405406 -2.016817067363241 0.8169814275949764
-0.9796720826552005 -2.477257534686166 0.2004436238136329
-0.7663609115109143 1.90618003254314 1.0186297002421
-0.1643048725982766 0.5664652454505728 0.7763113785159691
-0.5564594731987923 2.093304199963079 0.8079055224026454
-0.9049362161055976 1.839464041514637 1.230310564243666
-0.4069455531625544 0.8630773877527723 0.04559154788747574
-2.004863269207604 -2.029568626722032 0.1977936412663722
-2.009836510874916 0.6130508650044755 0.1502462277872789
-1.93449967292223 2.08208405694437 1.283334764399327
-0.4263693631033022 1.140188124029855 0.9725038465818436
-0.6555108333468926 1.932509028036494 1.07116464981376
-0.8120000050698477 1.960087709801036 1.263238690036987
-0.7580472112506289 -1.512721272128444 0.9079460201272582
-1.096843014717184 -0.7144010828055163 1.022391814757754
-1.503204442111387 -1.512721272128443 0.9079460201272583
-0.8359174784764329 1.166145238331604 0.8465384457370714
-0.610740765477275 0.8872535600106321 0.7309925782093851
-0.6812658231776213 0.6789530689253678 0.1223806954245781
-1.278862741697723 -1.057516007262118 0.981964779112261
-1.763327988678371 2.077485002900428 0.8973267609382591
-2.085232896956355 1.1623672856075 0.7547336099698605
-0.3148161320220001 1.032045906596546 0.9497535253276692
-1.207351475356345 -2.428917655963952 0.1564353426829274
-1.494662646580056 -1.56655154849985 0.902387137295028
-0.5341402660185062 2.046455783376437 0.2843122952442189
-0.4279537632813509 -0.1585260085751245 0.1359590223853873
-1.505639831820656 1.702439561853057 1.007402901722208
-2.090621935609301 0.6056553087902754 0.8321329606055995
-1.541247906626167 -1.810807516000727 0.1168716888067861
-0.3149256770065517 -0.9121209866216751 0.9390201429439133
-1.701655397613819 1.918163156594713 1.003709276102927
-0.1559101011750514 0.607744531668992 0.6945729331880686
-2.102226922289817 0.6514402448448289 0.7723761344313713
-0.5207963441788879 2.091605651843914 1.256281633879695
-1.947645238327987 2.008281029530785 0.9805098233129624
-1.819305105024494 -0.4960157789271396 1.05351739902264
-1.656090269198289 1.784800586665104 1.208790342089274
-0.9278369327934941 1.975897826826151 1.001304146337144
-1.780133224766578 -1.844069353872282 0.05656826526499825
-1.408356132496138 1.712005329077756 1.008560252598644
-0.1798199326634307 1.284695682024212 0.6804795489057355
-0.7178260586075267 1.139311335558974 0.1103307126222422
-0.5552831847983524 1.602104556803684 1.005499227564632
-2.090352590011091 0.6088642409695004 0.3026480597115049
-1.545449409829733 2.115026346275188 1.275539025075598
-1.771423544793307 -0.6163929979940537 1.005727175770592
-0.7547022571668702 1.791180388919164 1.192879203321692
-1.918083182527459 -0.7925704020023974 0.9461646157793142
-1.902997184625109 2.056223842839407 0.9305363638436643
-0.5599774328843828 2.036097722647694 1.024722443168971
-0.4660979237065068 2.029246507733747 1.020353385344117
-1.660580114946191 2.102918925007688 0.7632000232850323
-2.093073600476563 0.6544294824213208 0.3052776934903911
-0.8368521304826462 2.112137163220845 0.8534028829565898
-0.5016814642195896 -2.2109876648068 0.7283174738823854
-2.049375625663088 -1.492942971585286 0.1031822896289882
-1.644626128008887 -1.191434060389361 0.9195298330440564
-1.955864583685131 2.085313024937976 1.277325687656665
-1.774693876620071 -0.117717276341496 1.067761006771884
-0.1837559461441545 1.16233353574906 0.3310091703086366
-0.3210799454210002 0.106739937639121 0.1413415992192556
-1.482328022161693 1.936377830571085 1.120481509125498
-1.540963783709397 -1.756100031721875 0.1141227356337822
-1.790580585081967 1.503023475753659 1.00691328329668
-2.088723449147488 1.032913848605041 0.7923920552509071
-1.916536876484328 1.357308907122423 0.02291133817595382
-0.3741874057687017 -1.358868792378991 0.9474344645609558
-0.183433353922758 1.284697321393657 0.7385571447544348
-2.087900853951551 -1.437899724271637 0.4071516123629751
-1.062176959906555 0.6794889756767861 0.1138139748911737
-1.755523413638869 2.086223826369861 0.8080620246204969
-1.830086097762705 1.119074737119549 -0.03897751886050638
-1.825960366973373 1.367521183549345 0.02028429141257468
-2.04890328706835 1.701695745975848 0.7608672233205055
-0.2650305114841723 1.600910677564977 0.87602218676557
-1.217589720754305 -1.379223368797003 0.1111598567791027
-0.6229438017275605 1.926210344411155 1.029280934871961
-1.502010824583338 -2.455910314702517 0.4936459917999001
-1.705968468563663 1.602104556803684 1.005499227564632
-0.8307706429229286 0.1141436902383606 0.1183412968250256
-0.7166405151970214 1.917280647003125 1.153099426718648
-1.669542179187473 1.975330541903813 1.034126880570545
-1.894843104667802 0.8603541740623983 0.976042169857391
-0.2366324361247866 -2.092835756655489 0.6603886458273374
-0.5224882912002034 -1.583455344655021 0.898684827416339
-1.842523955235375 -2.295092755155869 0.526028245273525
-1.636748573691723 0.2387562665934161 0.7312431250311489
-1.130625826681141 -1.29261425138354 0.9755889534672007
-0.4560339526188265 1.942675117406102 0.1829352407952329
-0.21672494369409 1.798064041039856 0.7076996749738818
-1.545454930232411 2.106690912229335 1.291042274058861
-0.3526109586500498 2.0756876760076 0.4032532488051734
-2.087169582113078 -1.547765521124769 0.7508774946213986
-0.3520475236750821 -0.0974518652884509 1.04104623196901
-0.5128187801382991 1.833013806780228 1.18406462399965
-1.569942986747242 -1.022289627141829 0.1233570596407788
-1.737872199634871 2.101308854168865 1.264400327329069
-0.2025996223558713 -1.965173296613684 0.6964023222856777
-2.041957803739006 -1.427617246593891 0.8867288629979117
-0.3338582241466157 -0.8852637100997282 0.1424433463417254
-0.4818855816654618 -1.630749351309667 -0.005944788660842296
-1.924164455037284 0.6181696824210501 0.1390132742996299
-0.4342298360608758 1.272736931618868 1.038300658985118
-0.2261638479290725 -1.340711159542701 0.07558031283810922
-1.956557255992038 0.5355331394207801 0.1414298128861239
-0.8111081905942302 1.835982212094218 1.229552538110501
-2.070493772872545 -0.9994971645554762 0.4120257964370094
-0.1948522937726899 -0.2634849520410331 0.5621289578615465
-1.804597736869856 1.991328555011772 0.2313602030133432
-1.072146078805193 -2.51025904516889 0.3143948111264693
-1.903788784251611 2.054221389658562 0.3465457342240234
-1.861295414183927 2.055169059791828 0.9810713168779054
-1.750591931745161 -1.526825152960855 0.05843056842024744
-2.056129990265543 1.580622477613919 0.7573968452055386
-0.6341523583725535 1.965944443906948 0.174139806612528
-0.8549469763196029 -0.2114994296078067 1.25602267257467
-0.6347964292824347 -1.466744841178543 0.9026139017311761
-0.4308555556544162 -2.290953942498722 0.2603651369582657
-0.1683140495797975 1.032871487807662 0.4219986992500554
-0.5136692436476741 -0.2641546385811689 0.1320059204212488
-1.911734510256569 0.4698744583422578 0.1386525436138304
-0.2674993909855901 0.3642611691995946 0.1498924711440546
-0.8772044930464183 1.520768914953738 0.1225288491010075
-1.830467414503692 1.530641787774082 0.1300951177359257
-1.531995357800782 1.234625463281835 0.9682829911772888
-0.4079581658596184 1.20381880260166 1.025877121199982
-1.736108214698618 2.103867756562308 0.6574813624505446
-0.1771420726697878 1.223856489197171 0.4948523432922414
-0.610740765477275 0.8872535600106321 0.7309925782093851
-0.8307706429229286 0.1141436902383606 0.1183412968250256
-1.22383066562479 -1.936738205348623 0.8908904172443526
-0.8292038337814714 2.107407577359791 0.9443109209781282
-2.073353311149699 -1.766475632208963 0.734397067486984
-1.213790823383408 1.798133954470623 1.203398867274637
-0.1841534155300191 0.4559955964429786 0.8322222809454276
-0.1548757433336604 0.6529647372223166 0.4945110861819049
-1.77787495344508 -1.961932360694369 0.8540846917264833
-1.54136006293457 -1.644910662999448 0.1120473049378673
-1.981929733757179 2.044940132822486 0.7301602414257851
-2.085849086650466 1.223863936530353 0.6836846257956449
-2.014498113609126 -1.900447270464686 0.8263477535280168
-1.898108699418651 -1.950668840914173 0.8672626421698475
-0.171287259178854 1.162337552361489 0.6356549146565709
-1.754359176186999 -1.470326883573166 0.06598971343310994
-2.089518764595654 -1.154599598354763 0.6143357914745422
-1.301002912764308 2.071892014235002 1.027142975720275
-0.5873163426929853 -1.900541221776582 0.119632105270143
-0.757424483017066 2.11449980316255 1.267151222385565
-1.921198249268254 2.015597728089828 1.002364644004738
-2.014717029843974 0.7623911219700065 0.1389978086374001
-0.6595091128451932 2.00761269535963 1.140004561542865
-2.061938444009076 -0.7960289280044001 0.5529866765173943
-0.7151442848566765 2.013033011648136 1.279733652282122
-1.957291380222669 -1.609353337172093 -0.02438229435701267
-1.809006367346967 1.961052192205206 1.001345633136388
-0.605039478343929 1.880388914805531 1.242109744704415
-1.193636565288363 0.4827257082771583 0.1131258167879105
-1.959755234147738 1.804006541446009 1.196335623532624
-0.284421219510938 -0.2425723779117487 1.006208877666865
-0.2243148340692599 0.7329127934577026 0.8999532932681388
-0.1711696172869451 1.162349602198775 0.6881996563731758
-0.7547575575969794 1.801915051804369 1.18689733784964
-1.880151317850942 1.604863257408999 0.1449654678535741
-0.1631468514291045 1.03289065297435 0.6927399379177421
-0.658797259311745 -1.687417236220527 0.8788300139148815
-1.282018744891276 1.914182949016761 0.9974003061058401
-0.7710706168665009 2.112673408029622 0.8068200410814765
-0.2107002167084851 -0.3044825741635338 0.8322571494924113
-0.7341040814328406 2.125062937342706 0.6542411549772733
-0.3587070189435222 1.878408446496792 0.1603737237014544
-1.311378382353988 -2.150771080705479 0.1267482890738708
-2.068970691347386 1.284694192557576 0.3315473917104297
-1.097837450951847 -2.512746444679569 0.3520281387564753
-0.2562619629761049 2.0335872115773 0.6347651935152212
-0.5156385833005368 -0.3691953022607628 0.1320411139329752
-1.782248356298714 1.34393020214671 1.041515399317392
-0.5542041366040977 2.05492414151318 1.013293439214594
-1.281579570706815 -2.477257534686165 0.2004436238136328
-0.7189811660951568 1.204790806486943 0.1132238622319292
-0.4373516881546835 -1.835646578332304 0.04114292540393821
-2.050763331228765 -1.292277968433872 0.1399898249599408
-0.6271005621761049 2.087612047565821 0.9433070148762086
-0.8734806889163297 -2.090741868469706 0.8006363387079185
-1.245940840181822 1.791132875461087 1.009154254537116
-1.913279108113515 -1.825629695455561 0.04437459969360606
-2.051261148117428 1.700650145429158 0.7326057188017567
-1.617533505247017 -2.226552113488752 0.1398343669431241
-0.2041363002439536 -0.7960289280044002 0.4138141765914599
-0.3883710778684129 2.090970770441384 0.4595023585286232
-1.416624112666742 1.924032881336862 0.1379478432881466
-0.5893361264906886 -1.699069728826111 0.1034911286992872
-0.1902372990169297 0.2407462154281314 0.3076767643571957
-1.936454250693788 -0.03509434306475293 0.1413429824262234
-1.889701243652265 -0.1964242763445442 1.156549497954436
-1.506549396195146 1.791180388919164 1.192879203321692
-2.02801384509071 -0.1597943782626528 0.194955839552493
-0.6134864275673305 -0.1575251263750923 0.126547064355151
-1.874390759186837 1.722838027158642 0.1490597343963872
-2.057619095926643 -0.7959830530509997 0.7483276067644537
-1.877257757411218 1.302054681779822 -0.006111219990543938
-2.062711267078564 -0.4766683775629584 0.6965464956636942
-2.017728109354294 1.939086984280371 0.3222287255142268
-0.6892470177381216 -2.444701052005813 0.2559935069041146
-1.741498851062826 1.878164041254466 1.241244769503056
-1.631639448721158 -1.411440162232276 0.9064878346457038
-1.535679182746206 1.093710152426876 0.75936113114561
-0.7405727658021184 1.973664458830976 0.1695648612425391
-0.602793121409825 -2.382254424886102 0.1806656158345632
-2.045670593011594 -0.969885729107573 0.84942760589842
-0.2854715405581464 2.004614967054246 1.2664436658942
-1.526388004434241 2.100698965312222 0.9436417630893806
-1.709148684184884 1.994043095133792 1.021412418911283
-0.2705230100900357 1.823503705098887 1.208610436423075
-1.816437955528124 2.095878662840342 0.6256951879345593
-1.318443362946319 0.551803633905137 0.1154923789487387
-1.966016614973996 -0.3448120227942361 0.9891871665142396
-1.205752680362873 -1.059804807382658 0.9849231956157444
-1.701809105844439 -0.3887625098465996 1.139688817201249
-0.5602925833749102 1.983858175788013 1.199968792964227
-2.010421755010921 1.347401055243042 0.05869174788262225
-0.80846817148016 -2.217051564013554 0.7359854258435119
-2.100306883978338 0.5287067232678513 0.6375201005501578
-1.975780112803869 2.004614967054245 1.2664436658942
-0.4979236646836445 2.077485002900428 0.8973267609382594
-0.2435006201535739 1.100862398050484 0.008809364027000353
-2.007573356806816 2.008182011537278 1.24968409142886
-0.5448326799025886 -2.212388441293104 0.7390922640097266
-2.095990440474356 -1.332721191934932 0.795760754529511
-0.1793235547160938 0.8352381338391006 0.8496737736544913
-0.3685120955868455 0.9234143679850799 0.9761676389219001
-1.573433975146767 -2.388828145229323 0.5758882292560212
-1.114177362973404 -1.455722140263684 0.9640129672791685
-1.881349700449212 -1.935662909792941 0.1322941679575594
-2.059103310867047 -0.8790265824514795 0.7859857875722409
-0.1718735333450379 1.098861026471092 0.7619299961796814
-0.9700377471141624 1.946367543484189 0.9977016694641887
-0.3935714808513481 0.7667653645407331 0.1267852156756541
-1.295250103178157 -0.7126527683726949 1.016646658945697
-2.073315593390628 -1.766475632208963 0.5935743190311535
-0.6259187858504673 2.112308059309241 0.6968422582793936
-2.066711788388945 -0.2634849520410331 0.6324724904823302
-0.5429797300865 -2.30365754445466 0.1566070076184044
-0.181290212308684 0.1037894176973532 0.4911208873330881
-2.083972027142032 -1.601921207776101 0.7486695878096916
-0.2526097096888149 -1.604092202048697 0.01207789760070179
-0.5194495790279805 -1.528953710108615 0.9044078617988114
-1.962550180239478 1.169673659700047 -0.02532676294214542
-0.4284093905748834 2.002926769047272 1.275581083826359
-2.012094269640492 1.226096647627896 0.02123250551113868
-0.3378098397967244 0.7631155587534692 0.1290241588846209
-1.873352225575614 -1.727168579480683 -0.008608304105591014
-0.1528375492121663 0.7070615304851029 0.4945423323545278
-1.839817177067447 1.958162125005666 1.000320914263747
-1.928833498870531 -2.011971515875625 0.8283720658170478
-2.101537931547083 0.9649302368789618 0.5666940010709429
-0.1634933822933415 -1.275238583335778 0.5464192427018942
-1.196020355741024 -2.189928967055145 0.8053488228788081
-0.3118873935138656 0.9635456000214947 0.9459863251176537
-1.899799117307179 2.020018200928871 0.2905244737729907
-0.5594425475175765 -0.3887625098465996 1.139688817201249
-0.4446172197759474 2.100039269797982 0.5784354880367555
-1.828845355719277 2.075799292556293 0.8076820385408767
-1.308538339099863 2.136690428481336 0.5106441788568618
-1.954892372588608 1.900136259056957 0.9844353659286891
-1.888941996084665 1.976840657192957 1.005216914258087
-0.4039956657454558 2.025373581590834 1.018572546997341
-0.4522452860150489 1.961052192205206 1.001345633136388
-0.30515432325535 -1.663348874149455 -0.01405265067452014
-0.4239234466579273 -1.010785139635378 0.1376161824769794
-0.3484777530345538 2.076832005769393 0.6582213138457617
-0.8149460659477195 2.073830411142891 1.240646930918443
-0.2167412053281653 -1.372517533710401 0.8899754391928549
-0.755056967246294 1.84728772082945 1.185661016386393
-1.811576144179748 1.658796337564874 0.9949782571642494
-0.7129136450036295 1.79160876919991 1.210272241915186
-1.299138728549291 2.027262529502106 1.014363738322822
-2.094175835290179 0.5261331954784019 0.7767615906707079
-0.8116430917393012 1.85082788073365 1.186656805063731
-0.6812257975324749 -2.450912167824046 0.4085556268313765
-0.7546765386178354 1.788856451098067 1.201379473217007
-1.617533505247017 -2.226552113488752 0.1398343669431241
-1.299464100130079 2.050539584304927 1.022797419333456
-1.845273095089234 -0.06867602159807565 1.199960153122115
-1.376198267811646 -1.509878237644068 0.9465052953064027
-1.879102511417773 1.17827396375141 -0.03840028989827658
-0.2561043843938971 2.03839229960886 0.5304626186135684
-1.312297525575793 1.094616663229167 0.7628351519756369
-1.506194686115722 1.847287720829449 1.185661016386393
-1.130625826681092 -0.9037377378776352 0.9997188893852916
-2.095955640225041 -1.38463631549983 0.7557218748292439
-0.6708525919747623 2.10300332675715 1.290215174405673
-0.1987446655836604 0.7846563621471434 0.1439290143085589
-0.2058774471009245 -0.706492721257537 0.413758666951999
-1.443075624060015 -2.474167840954735 0.4581751761920204
-1.961214939407014 -1.883686919046815 0.8620912637341556
-0.2861146305999455 1.84845036606249 1.222855987553187
-1.809006367346967 1.961052192205206 1.001345633136388
-1.143519957316011 -1.804780422726156 0.9207652653021818
-1.367797260307267 1.636318578829065 1.012349442181005
-0.8815964684875768 1.784425851221703 1.005318588979175
-1.816664921501138 2.101781527575793 0.5197525863292047
-0.2284590758550567 1.868153373063882 0.417492295192567
-1.070309684039212 -2.509879453416383 0.4226290999557845
-0.2827340087625839 1.854550276619881 1.19869708952257
-0.4364346360984197 1.785526968411544 1.207910752293151
-1.407329132846116 -1.177191911119434 0.9676631379198486
-0.5048308348752081 2.050561906765912 1.01215860881363
-0.2547810880756967 -1.766786001377348 0.05485878205586032
-0.3304822790000107 1.723646437074465 0.9591076791515265
-1.610893923957189 -0.2116922225600834 1.251701986365365
-2.094271794473414 -1.384636315499831 0.4767658602808129
-1.594530523533917 2.041985698951239 1.220358739943466
-1.365895784352232 2.00239874670297 1.010332282092348
-0.1624131801731028 -1.336707652787899 0.6945026864134966
-1.542427024180392 -1.901914670171508 0.1219158475097611
-0.748375697219273 2.042363541839908 1.049055409077775
-0.5732238784658402 1.684118333871318 1.004306567032258
-0.1818788451435086 0.9006615106432305 0.8455080254195122
-0.5200004534171037 0.6502794745467445 0.7528104163578685
-0.7127334608730626 1.872628206410353 1.183765984805345
-2.091442773095677 0.8967451468803461 0.8206048214050076
-2.049375625663088 -1.492942971585286 0.1031822896289882
-1.805588276589353 1.935019448402698 0.9957606254561335
-0.1940658191643653 1.350142173820787 0.7860069736284734
-0.2544506248831739 1.977879834008642 1.249941271382943
-2.048602906827319 1.407352380511545 0.2285903177167249
-2.10072220957727 0.8967570437210338 0.4216743604891933
-2.078637881753858 -1.651641997019753 0.7823585336830257
-2.051126492766422 0.4631120340016182 0.194802318748052
-0.2236405865427106 -1.709776624636987 0.1114861050655922
-0.3536793485532091 1.821769647238305 1.221523649253101
-1.503204442111387 -1.512721272128443 0.9079460201272583
-1.171664853699464 2.015073887165054 1.012352068342472
-1.877205211035377 1.894817936582955 0.9910895775702435
-1.424880701110679 -0.3707316910193441 0.1183875422767
-1.301366621996287 -2.235110549438626 0.128908418908445
-0.3429538607424016 -1.89672015267409 0.1055730955631995
-2.018694248540376 -1.962170563981983 0.2030258990015219
-1.71306824703442 -1.828187480886698 0.864396950505828
-2.066827741188772 0.1037894176973532 0.3085833697803362
-1.215843819112485 -1.901558296010014 0.1166951209576523
-0.483376699916936 -1.961932360694369 0.8540846917264833
-2.011994105934961 1.928924178314157 0.88309218926403
-1.073357653063963 -0.4927981822372302 1.100768336972972
-0.5542041366040977 2.05492414151318 1.013293439214594
-0.8731731418600999 2.006878370470694 1.176055622623055
-0.5795713065201118 -2.382824611404427 0.2090726636731864
-0.1762030844654743 -1.27604699416493 0.3166585515461038
-0.7710706168665009 2.112673408029622 0.8068200410814765
-2.095822082724862 0.7686109000357539 0.8265529112555597
-0.7510800964030147 1.920679511610532 1.153950733757901
-0.5832493620383717 1.070285080116805 0.1009742112762223
-1.264609993804545 1.724543366088976 1.012253882596189
-2.053661213301228 1.47532850471948 0.3274827056596696
-1.34152971758681 -2.000965218315762 0.8510854986539567
-0.587615816295031 -1.019423647706347 0.1282259732964849
-0.3626917296977799 1.890054264207726 0.9903337078504929
-1.771423544793307 -0.6163929979940537 1.005727175770592
-2.055374206261091 -0.7064927212575369 0.4137586669519989
-0.2798394713906197 -1.518770642027244 0.9137604858450774
-1.045410847421097 -1.588790518664831 0.1062808138264626
-2.083580104794713 0.2381648347555121 0.7069957493720021
-2.059009077779606 -0.7064927212575369 0.4872622172837375
-1.192380629897446 0.891812239509129 0.7380360974271896
-0.7653991073396858 -2.46649669991888 0.2910681287922171
-1.262982522309905 -1.455722140263759 0.9589178653928985
-2.059546582999418 1.578457077273204 0.6308317808381654
-1.626643025612 2.015123511012716 0.2232003062373061
-0.6913086666147732 -1.022289627141829 0.1233570596407788
-1.440578391378992 -2.477557485231517 0.3639859515301642
-0.4482710977518146 2.090820086383139 0.4007813588485542
-1.701722555795616 1.954371275680952 1.190750662142387
-0.1947460641395646 1.476252633976419 0.632564445773994
-0.3230833803074906 -1.253041797525194 0.9525614149667731
-0.2191713603466104 -1.601921207776101 0.09947157862822421
-0.9473962181096103 -0.0303862033688745 0.1154020151071054
-2.04600397318118 1.573836430988507 0.3189331229618467
-1.99675936398011 2.02617792692368 0.7105641401197598
-0.3067323461689837 -1.890081200848137 0.1082633599033316
-1.905531015630304 -0.5236175803532269 0.9903949193475325
-0.1803805245450567 -1.65562972496102 0.6871520026230953
-0.165429570637154 0.7686109000357537 0.8265529112555597
-1.85267548044915 1.898906053379799 0.9913885464798145
-1.368557494256684 -1.563590928816927 0.9409741571651799
-1.216060758442386 -1.933477555581302 0.119108147051447
-0.2118760276989279 -1.492942971585286 0.1031822896289882
-0.9527806662119397 2.124158940434822 0.6752328061641306
-0.950606371191296 1.235627740902675 0.9715039299248515
-0.2133096603383363 -0.7960289280044002 0.3025855275560104
-1.920166375797261 1.483940939864181 0.1123797753418572
-1.962289624638901 1.809934228970699 0.9655395805983561
-0.2551457827370213 2.006345536682847 1.25843717785734
-1.314700712256781 0.1141029346162876 0.1154005756134581
-1.861295414183927 2.055169059791828 0.9810713168779054
-1.130625826681003 -2.086505305415738 0.8534329035337708
-0.7756062471184014 2.032318083774383 1.108934887850914
-2.066572455033567 -0.2634849520410331 0.6993520176849771
-0.3007650487949798 1.352250698506371 0.03114355607311876
-1.769055418228576 -1.322034018835921 0.1086643875848603
-2.045955216962893 0.8418835668292155 0.08114874842138162
-0.3783833033855265 -0.7122410269014324 0.1391555388992326
-2.109101756961956 0.7688912951104759 0.4945774255046603
-1.82206353902267 -1.677965969421668 -0.02491436706105149
-1.362081491331716 -1.179540557037008 0.1175529240097076
