-1.373052269692394 4.997502883854906 1.500775037146714
-2.207486059298097 2.741790092592384 -0.2151539524733342
0.05698238377071535 3.657795869341342 -0.439890510860014
0.5942259196708446 3.707379216676943 1.541522061140856
-2.217753573462613 4.045243041404975 -0.3403506487680821
-1.262667221223033 3.765076475326115 1.526484876020373
-2.175042413213821 4.384960237016657 -0.3383395790571417
0.3427492055116295 5.55362222638106 1.516986660080954
1.368058661821268 -1.893302158437473 1.485036818644029
-0.6077349978256943 5.66135688844622 1.294452722017797
-0.6117657132725575 3.337468582144992 -0.444132019427785
0.3882274535716744 4.000021317776461 -0.4218537225718989
1.759974191979714 3.111841313246977 -0.5068089453075064
1.996692438464414 4.14683481421841 0.9854508209399679
1.16130339897939 5.640369411254893 1.112532550068788
-2.137073778389726 -2.596952211244027 0.1088574441417771
-1.067656301082582 3.857529123785127 1.529421857450939
1.098558991791106 -3.475041155920313 0.9623271815490779
1.935370286479901 4.951527131988229 0.01077156646139632
1.875928005449268 -1.609865673584515 1.401257409121758
0.3303977290631799 4.171775861160725 1.536309115357385
-1.119324008136945 -3.475586442878506 0.9722213897683294
1.98320211366542 4.14777228808351 0.1149531404636845
-2.140231393461537 -2.591846620857446 1.220778984899157
-0.8708394612835673 -1.60734692668101 1.50134085260043
1.631677149468355 3.755524793264478 1.514609100283048
1.859610021210338 -1.800754517418664 1.407954966959987
0.3378454679824732 -3.458643658355602 1.189774777961706
1.987832589973271 3.772255534913095 0.5878754624990779
1.326726291479157 -3.466648723405653 1.033593932848679
-1.172788731963419 5.645689861847259 0.6557482811172692
1.655418377686823 5.601004642259554 0.489844335264531
-1.816714611877868 5.583541894152503 1.477987840921727
1.917272325929462 5.257667543989901 0.4812484400830861
0.03718422818491839 4.289940036459829 1.537852713433762
1.961026634791265 -2.070139613127076 0.9747586170722635
2.008640120690238 3.504114016359008 0.7189019724226965
1.187548271543913 1.855980132780049 -0.4508546078920268
-2.220597727802393 3.364664169428274 -0.001014918297918544
-2.21978392041428 3.607292106247723 0.377829847029983
-1.206946924589353 -1.25673824556933 -0.4331157537548455
-1.893983681112718 -1.248380489578962 1.446845912899315
1.982953039791374 -1.803070304130282 0.6146796256318221
-2.156162216945455 -2.069383901569952 1.328266327328545
0.8419176656094967 3.777163483184858 1.532241302427889
0.854386349189754 5.0228856679654 1.506894846840576
2.000773897124548 0.3167513045392355 0.7853479870814952
1.090372141801775 -2.44640482238671 1.51077645768151
1.70972229775917 -2.157903982036291 -0.9645706177398286
1.290445438451511 4.67640515833987 1.49776980466232
1.983271615717436 4.147058216215479 -0.1016252390411272
1.949505687374419 4.635260856242415 0.3804468208916021
1.723241394143355 -1.987347352678154 -0.9764228516038565
1.986322430791986 3.689137553761669 -0.3422169163145501
-1.882091864241909 5.601990001386545 0.3959472323100918
1.752118526847116 -3.428091150178442 1.06081786839518
1.268838327367581 5.645826554918322 -0.01772135825376058
-1.429977958345057 -1.524127060325611 -0.4620938700702443
-2.224376136334334 -1.61562247503655 -0.2447125455573881
2.006712721439239 3.946150931164086 1.111116917906445
1.990646015239022 4.045344871426263 -0.00101491829791853
-2.212177680752415 3.128836045946227 0.2250465175850871
1.909980924240851 -2.596887155660627 -0.0468396387163367
1.989153847579219 -1.25489859624385 1.305684477238603
-2.161120982588363 4.144408478283316 -0.7423837566449796
-2.200888614844634 4.255624611673099 0.4706719828408918
1.961555954141329 4.393247095966936 -0.2019230538877444
0.9806018609764753 -0.9165336080409172 -0.4328844071573461
-1.526465914658853 5.298588352274897 1.505359865880559
-2.241058703506957 -1.250663644186819 0.6146796256318222
-0.9151294087520177 3.528719609035926 -0.449340096265461
1.978254957265862 4.255438096642009 0.5880113518148992
2.007557445664146 -0.5087727484106485 0.4671737990307119
-2.212124668972941 3.129773641055906 0.2940794698702898
2.002922099963889 -0.1188941918199426 0.8915484226405528
-2.217433690721929 0.315542391767035 0.3679362032014992
1.310684305837403 2.823035836491528 1.519168944863838
-0.5742716921451627 -0.3831314858970191 1.488208410977726
-1.182330537044018 5.640505757595224 1.270426713236888
-1.5345049877509 4.017757581571833 1.516176819199721
-2.217608300484759 -1.706466282920381 0.7661181382159884
1.871321493157629 4.288389897563952 1.464824513227347
-0.9072175568404903 4.396442035487488 -0.4314547157747274
-2.187204659558431 -2.072934163218501 -0.5222935314392913
1.356985891005514 -3.470065373542347 0.4410528154382691
1.479289187006677 3.599514767915279 -0.9353528502314257
1.975219020154379 -1.898089393824545 -0.251197870534103
2.001902180299557 3.129073472422534 0.8593709430881787
-1.192528486535083 0.8265741042489297 -0.4451297576002327
1.990323396422933 0.3152654969747255 0.3350848658292676
-2.162468339008668 4.951527131988229 0.01077156646139634
1.972700985037309 4.253332244622409 0.1149531404636844
0.8484011710430668 1.450145144984467 1.504856640117509
1.313102118692375 -3.450048628638804 1.162941041354575
-0.8632110004470983 -1.984006048797153 1.515107241274534
1.561884135889302 5.495688303219194 1.499971741162328
-2.240989281344706 -1.251888055789854 0.4410528154382691
1.98633567892194 3.688947726951625 -0.5568939628309653
-1.187241297083378 2.312272227107847 -0.4500688303467403
1.650834030880104 5.595158257203496 1.420457233137741
-1.172607103875253 5.650797827676641 0.5312172244574849
1.161975994114059 5.647600390919445 0.4179717527092694
1.960461811045454 -2.070150415611689 0.8439916120214136
1.94431405358836 -1.894795906323724 1.323885589798543
-1.188728777096273 4.376413243797021 -0.4381729799102203
0.3554332850145129 -3.489949684636494 0.1275860260387046
-0.2635893508887562 2.427689854844383 1.543523696002684
-0.9097103757818492 0.8255112633581601 -0.4438624305013853
2.009276897574202 3.36651821413802 0.8599459015107498
0.6818521347997194 4.34102753195679 -0.4226841124535545
-0.6097887042541916 -2.034533254195688 -0.4544393623632085
0.5900535823860597 2.844806103939405 1.534845831741706
-2.217753573462613 4.045243041404975 -0.3403506487680821
1.875526973238229 -3.051167193901173 1.212761176635115
-0.2732914406775323 -3.484720693645441 0.4756459829096044
1.9676470035389 -1.987347352678154 -0.04665134842090328
1.140288863782305 3.676544496047209 1.526140991327861
-2.15983889254303 3.769369791185062 -0.8242826678225425
-0.6158274873855517 4.100182516283226 -0.4172997473337926
1.410572679643514 5.631997964094951 0.8719843427065774
-1.539453517541976 2.392151053816416 1.512329284871473
-2.104569669876121 -3.091392719429298 0.9702548506903171
1.997018369677328 3.501661333681819 -0.001014918297918582
-1.066956531030987 2.401285489870359 1.520975313660224
-2.143090804484811 5.256586541614972 0.3893995785384358
1.99027145351591 -1.709327701434235 -0.2474773806697643
-2.070744083203084 -1.98319509846131 1.414019950887399
1.827041942333071 4.97825467588476 1.492591379937751
1.630328992725925 -1.893748090492673 1.465140283129719
-1.92100359940177 -2.342899152220062 -0.8641899637064733
0.3862904508347712 3.735548662449332 -0.4362331786757088
1.961551678638121 4.393314765901789 -0.100982913063163
-2.209229365557412 2.307288214132509 0.4508125581627157
0.04608585939564307 -3.492927081673016 -0.2180855856861591
1.960106607029661 -2.072934163218501 -0.5222935314392911
1.388400615918937 -1.481575859876807 1.471060534956351
1.936348096443506 -1.98387409244622 1.326003090144772
1.038554195420953 1.948575353221031 1.507704317058234
1.187699961487267 -1.901822044773059 -0.5450607080946541
-0.6119465841110175 1.364323434370295 -0.4457594167779739
-2.030249460600226 -3.397352437246068 0.904616903118729
-1.540225177185134 -1.804810737020781 -0.7124096905280484
-1.266793451789117 4.682313864809643 1.496559538353558
-2.213740144859361 1.855334104953639 0.08176615821474098
1.997278083805567 -1.61562247503655 -0.244712545557388
1.960114937968558 -2.072841396226846 0.2633006171420859
-2.235738173219005 3.504114016359007 0.7189019724226966
1.992901104920454 -0.2954161505961812 1.291276742138427
1.251035951102559 -3.040015682975094 -0.4348554394050899
2.009276897574202 3.36651821413802 0.8599459015107498
0.6742999894988064 -2.191178839219705 -0.4611632146407772
-2.182566541883775 -2.155272037924295 1.109290604921258
-2.200296170694188 -0.3595277742792138 1.36799265521354
1.721151679469837 3.300556526546745 -0.7361831868616553
1.912718623356512 3.410216855983578 1.480439163299991
0.6419769822506574 -1.701864537841862 1.50374093382076
-0.5825313375439505 -3.489949684636494 0.1275860260387046
0.05482303352104389 -2.135808553778075 -0.4563396213265731
-0.6135525709566272 3.905136946132816 -0.4269064024519267
-2.170757181668094 -2.249008759203293 -0.04665134842090323
-1.387116074138401 5.647277587525124 -0.01557440605780705
1.339186801053605 -0.9054085884954366 -0.4349830172750373
-0.6191112458929575 -0.9409524174943966 -0.4286183106827504
-2.241721193647245 1.859923494652822 1.244819956345506
1.637628545586667 2.816981215113685 1.510545122862705
-1.396164099465805 5.515358132632059 1.487847680190266
-1.265652247949722 1.948575353221031 1.507704317058234
0.9621727307346749 1.860480736860045 -0.449705017901572
0.6742999894988064 -2.191178839219705 -0.4611632146407772
1.990476230472547 4.048297113943666 0.3778302782590718
1.969199751800074 -1.611177433680996 1.315371301336975
-1.850725007210301 -1.982630295601952 1.468634890547615
-1.854048578425654 3.919815987936953 1.510002964339081
1.997033641040219 3.501662032984674 -0.1017366124594402
1.411109429368146 5.631416714350241 0.7144157019414029
1.510824445895487 1.856628781501724 -0.4512433480987673
1.995442369711495 1.359958566344962 0.4459136650668513
1.973198118165419 -0.3595277742792138 1.36799265521354
-1.195195967907309 3.703828958866068 -0.4550157972162227
1.322168103563538 0.8276514199685801 -0.4464143444253956
0.3595096122196397 -1.701247559982362 1.515890659830104
2.013855779201172 -1.252513287246724 0.263300617142086
1.995476780853988 0.3140750944752513 0.6409521622672438
0.3830573866230075 3.261226380753644 -0.4431710250505154
0.3781035476873444 -2.300680774518851 -0.4564359833869293
-0.865205162636032 -1.893809659482951 1.511541203602993
-2.230941102421522 3.144537419331944 1.400022167591736
-2.207968538666608 2.307301669639819 0.3564751659219152
-0.5921832079221435 -3.11317571301914 -0.4280383824503656
-2.246093159023571 -0.9023971262462096 0.9267276059308358
-1.195195967907309 3.703828958866068 -0.4550157972162227
-0.2634626463325821 2.865672404418229 1.549589765723543
1.79339988659737 -3.401367107742644 0.263300617142086
-2.174073030340054 -2.246183295555337 1.109712684319604
-2.200296170694188 -0.3595277742792138 1.36799265521354
-2.077335601140963 5.4814763743117 0.5060154215802643
1.472879405604727 4.142478122092635 -0.8551511129224392
2.006712721439239 3.946150931164086 1.111116917906445
1.748426961586827 -1.629417501112437 -0.7706690420282321
0.6152087929586053 5.540558789957207 1.506625063197918
-0.5647620467607342 -0.001920557460837205 1.494146247367906
2.017939026066855 -0.90104024053413 0.7254496903960312
-1.422961207062695 4.147173114808755 -0.5034231448660478
-0.9107510277295885 -1.833167948294015 -0.4442881990332556
1.952586944077435 -2.155320032848593 0.7661204065099192
1.9676470035389 -1.987347352678154 -0.04665134842090328
0.9571311950417851 4.664478491500771 -0.4414376724431918
1.187548271543913 1.855980132780049 -0.4508546078920268
1.217524388280479 -3.479309708416406 -0.2317026918739646
-1.191770238245588 3.311321908550892 -0.4559095208301374
1.961331231842784 4.396422080508913 0.3783576745074077
1.135664996152364 -3.044882215895409 -0.434293498941275
1.481453899697442 -1.630811078895874 -0.7545876150807591
1.97521902015438 -1.898089393824545 0.1088951022008639
1.74354913362243 4.045243041404975 -0.9383073127501735
1.991420697359555 0.3152491828689196 0.5159993528817275
-1.701382845542835 3.688225164796616 -0.9626574102916802
0.6789996192468638 -2.018255159519383 -0.4565673760363941
-2.204827371860376 -1.484933476645414 1.311635947565741
1.937271482307528 5.255568470918155 1.118890363932876
-2.212839643032186 4.251611446465908 1.250870904431034
-2.177844387869433 4.635200611204187 0.4738203179292845
1.934881304298221 -2.345794567300567 0.9747814571924236
1.894664974706631 -2.81738229115836 0.4410528154382692
1.294208388419474 -2.157888056439053 -0.7489872962766997
0.9646721857168195 3.311321908550892 -0.4559095208301373
0.6688292083519266 -2.378239845582423 -0.4531448602870218
2.005891119231794 4.04397619920984 1.109369462103563
-1.393441919381667 -2.346885164006237 -0.5302826081304299
0.9044212652732032 -1.893445773464073 1.500747203121278
-1.265652247949722 1.948575353221031 1.507704317058234
-1.127914481782124 -3.485182625920361 0.1150579883145182
-1.676145634560055 -2.157888056439053 -0.9425269257301567
-1.170376110554326 5.650209735906671 0.1094111459160586
-2.24123198370643 -1.249490863015231 0.8439755608370607
-2.188348458368953 4.396191248082576 0.2975520030594202
1.923893160929596 -2.453750286934316 0.9738359598235729
1.986736573717998 4.250894330879365 1.107711353924527
-0.5830236452329858 -0.516631615414984 1.489382410779311
-2.161060260547434 -2.347393169353983 -0.4932215691694502
-2.080139852120433 5.480609808927829 1.431671162451227
1.996913652368158 3.50461720941983 0.3778293479117859
1.934007503403684 -2.346853169274727 0.6146796256318221
1.934007503403684 -2.346853169274727 0.6146796256318221
-2.134039129574877 -1.558341846614578 -0.6104497454914655
2.004099966302872 3.948497637928334 0.8576168967104739
2.017800971943869 -0.9037090918991171 0.4084719758866558
1.141670542304837 3.438101037903134 1.526126206485139
1.085640880538255 -2.579194759659536 1.503991718901797
1.314833957019723 3.854271318497738 -0.7516341454064518
-1.998130024012051 -3.409327455665039 -0.2063259768980068
2.022527768189935 -0.9078278080692868 1.057199384024262
1.793195968503632 -3.407312385544117 -0.04244565118709934
-2.244125577965144 1.36078513117649 1.10235961618006
1.994675336958048 0.8285126655100964 0.09291919097506919
1.952315856776762 -2.158009871629253 0.2633006171420859
1.191607696061183 3.773413428153034 -0.5392381054918017
1.953616585523412 4.401536215593502 1.390770454367398
1.933170369523695 5.256371778060151 0.8525031317355974
-2.142879626404969 -2.245550879726717 1.331290783207586
1.645256082345274 0.8971824976464419 1.476270950630322
0.8960735624170899 -2.154086871952916 1.508070756467554
1.992821037830441 3.604076712740541 -0.3411533492030396
1.975226750756693 -1.897996589438417 0.263300617142086
-2.085762837040871 -3.27362455106938 1.14141248397108
1.155407356997649 5.29983663420511 1.50109495119289
-2.056766224821941 -2.154003114127606 1.418373062303676
1.039695399260348 4.682313864809642 1.496559538353558
-2.217744067767789 4.045344871426263 -0.001014918297918577
-1.363261152321097 4.67640515833987 1.495218745066197
-2.210177944655642 4.150112911817978 0.3778317213689709
1.070609713227626 -0.2280360887583103 1.462016937519265
-2.207464605695463 2.741240848557169 -0.1164789104658307
1.960377590366337 -2.070151005897401 0.766119940535732
1.983284854431256 4.146935009279244 -0.3382681092304541
1.859610021210338 -1.800754517418664 1.407954966959987
-2.104569669876121 -3.091392719429298 0.9702548506903171
1.934881304298221 -2.345794567300567 0.9747814571924236
-1.301845807687457 -3.474817200512206 1.036990965127947
-1.444622440809248 -3.479309708416405 -0.2317026918739646
-1.972811073220315 3.599865112496768 -0.9604809882129274
-1.828633613402495 -3.455836182507719 -0.2051986661061338
0.0468078086119061 -3.479732684553709 0.8479676100277399
-0.81843360476314 3.873982383671797 1.536994101068962
1.997423914597561 3.129631391869572 0.7178226374423171
0.9665836561506795 3.78554433905695 -0.4508906715581019
1.994128739940944 1.356271197672208 -0.230295708593923
1.160018021609633 5.647277587525124 -0.01557440605780696
-0.8177463084090164 2.410297195515387 1.528670987638435
1.990323396422933 0.3152654969747255 0.3350848658292676
0.9045872973921849 -3.431505896408129 -0.3816271470720729
0.6933562127737853 -1.268893505400101 -0.4305958109740962
1.687525161563656 -3.068687302887043 -0.3844260123420512
1.685442447542381 -2.436056391288506 -0.7758023490144804
-2.134111830876252 2.792597608949424 1.477429646136095
1.322338543564046 -0.1231879099934597 -0.4367326056100042
0.0560502512644139 1.366600974509761 -0.4445112746103642
0.05482303352104389 -2.135808553778075 -0.4563396213265731
1.995442369711495 1.359958566344962 0.4459136650668513
2.012833745140636 -0.5160551807511997 0.9174718844443546
1.90145359416638 -2.451077185010989 1.328845231162434
-2.221074443633214 3.371376356674925 -0.3398621535633314
-2.044678971499359 -0.9107898937416652 -0.3869504937138684
-1.195507758003247 3.871043045402959 -0.4462343491397564
-2.233810773968007 3.946150931164086 1.111116917906445
1.982814097465294 -1.804810737020781 0.1088951022008639
0.3761186874213005 5.659759680924893 0.5539818318577878
1.980366553166695 2.74124084855717 -0.1164789104658308
-2.152391956534248 4.351801803678674 -0.4990106447217975
-1.803332202431751 5.292871985138682 1.509737240263411
-2.09462269470365 -2.80959670690788 -0.2467120788346016
0.03684846246755831 3.823749065489217 1.554427643275872
-2.176628708457766 4.634044626688057 0.2316433048332308
-1.412013466403891 2.736100028064046 -0.4533591908784588
0.03724219097274698 3.49196490382577 1.5561043727132
-1.266280318467052 4.022237995077383 1.518367430179261
-0.5554133955810839 4.506464240437826 1.517257496601328
-2.227848306462489 -1.612388935807242 1.104533966117901
1.980327974144797 2.741878782055179 0.1012176241441787
-1.544719752658854 -1.712369082557737 -0.6739815701967845
-2.213196300714791 3.691997195145551 0.2971102704044487
1.106976093784317 -2.068172865170983 1.499044702592887
-2.211892290237445 -1.261776640902761 -0.2470148176683936
-1.943685336368818 -2.072934163218501 -0.9796917126124329
1.157832991618699 0.9018863504358079 1.48869419815815
-0.2703279471177723 -0.3827694072667304 1.498004233691259
2.01396065097819 -1.250663644186818 0.6146796256318222
1.999160169084858 2.325534040067105 1.388736972211345
0.05298856825729052 5.667880555572397 1.393783477420493
0.9638746789426793 0.3071269716698473 -0.4396240606487858
-2.231870034486783 -1.485057338946017 0.720257543257814
-2.235738173219005 3.504114016359007 0.7189019724226966
1.123459549186689 -1.608536232240002 1.480887859611938
-1.06787783979865 3.215481343182803 1.53194200976241
1.802155956719412 0.8276514199685803 -0.4178736576277951
1.885853306576696 -2.344972175657602 -0.7257533611848654
-2.162483585872439 4.953404829012918 0.2368989493397277
-2.210051092320142 -1.803070304130282 0.6146796256318222
-2.224528404600583 -1.613501064826859 0.6146796256318221
-1.88310509276491 5.600449509260229 0.5971123081935501
-0.9058523172287875 2.320670559285416 -0.4484178771630518
-2.213694079451223 1.857866119356778 0.2674059930502081
-2.229870465456909 3.689763572025412 0.9906305777719144
0.0460176642766711 -3.495499753382632 -0.02723965336312682
1.913007729646389 1.414453757439808 1.450409162952963
-2.217103091738236 3.857145501172337 0.5878453135461563
-1.444622440809248 -3.479309708416405 -0.2317026918739646
0.6007431181530683 0.9050692158920807 1.503280557646318
0.05695672104955929 4.215613059997488 -0.4123572959274041
1.144839255941912 -2.806546781016072 -0.4368153583461941
-2.22122600926017 1.356394218749938 -0.03660999172696106
0.04660315490090537 -1.894511962222326 1.532373705303608
-1.18418853377859 -2.089094587413598 -0.4754493500599443
1.997303195098059 -1.615248120777738 0.1088911016318983
-1.499262085411899 -2.514396420917179 -0.5743628181788132
1.271063069537303 5.645852877891834 0.4101588549248631
-2.167575334772481 -1.710987709194629 -0.7172448556571791
-2.2346928677667 -0.5076741608215769 0.5629409249861351
-1.387520602633643 5.618877259399001 -0.2755358694007037
-0.9062678842128016 3.096909929581127 -0.4475063665233461
-1.877932083408872 5.595158257203496 1.420457233137741
0.8893435122439145 -2.342586549928543 1.514713443281794
1.990289596385314 3.947173874119911 -0.5536034666867425
1.317105349413986 -3.262032150889438 1.335214952273196
-1.80169251120926 -3.450415301742917 1.036108150535402
-0.2732763197613695 -1.985714152233701 1.535287147677173
1.611836597090536 -3.445590047681538 0.8826995673936606
0.933792324648179 -2.664213473085876 -0.4372479385736882
1.978254957265862 4.255438096642009 0.5880113518148992
-1.388401451508158 5.640369411254894 1.112532550068788
-0.9137984535441207 4.179818569601991 -0.4171380093337598
2.001478879847377 3.949525981703826 0.7186593149867536
1.431939090486287 5.624798044212064 1.257349732495767
1.902646524521111 -0.968317100740382 1.38716383888058
2.007659482095219 3.605932532674167 0.8590875995616878
1.96642068927538 1.356271197672208 -0.3366284102672017
-1.351146886140851 -3.274918260669068 -0.4342934989412759
-0.5835543546345682 -3.480336250047518 0.6460179122621663
1.729923407975934 -1.898089393824545 -0.955435630395394
2.007480162704581 3.947395685940308 1.253595846811084
1.933310051454257 -1.804810737020781 -0.7592213441494153
1.041045576744461 3.578101398027466 1.528529070203969
-1.54270807100267 3.574400603863718 1.525417700196871
-2.220606697525418 -0.1231879099934592 -0.06015282486050057
-0.2786835076403368 -2.64994647653766 -0.4340944964487348
-1.546632982750601 3.599514767915279 -0.7381006491559343
1.914432312231559 -2.593474924242539 1.105523759375676
0.9638746789426793 0.3071269716698473 -0.4396240606487858
1.965808924334713 -0.1231879099934593 -0.2999429554892589
-2.232766123374903 -1.485036706827799 0.9737859973875537
1.321436372481981 -1.630829380654061 -0.626379567277463
-1.683971331819801 4.355851280667466 -0.5981968520932717
1.88085698104936 -0.227489124010096 1.424389157735325
1.729923407975934 -1.898089393824545 -0.955435630395394
1.127057157905921 -0.6309106718144282 1.458793879098632
-2.221223325713123 1.359961817565775 0.2994468989111209
1.312905950608761 3.769369791185061 -0.7562521235234128
-0.8342286089048899 -3.474528550027207 1.122000369146017
1.952367596613086 -2.157453385354313 0.4410528154382691
-0.2713480814642207 -2.342843387913911 1.539718555657715
-1.499262085411899 -2.514396420917179 -0.5743628181788132
-2.170757181668094 -2.249008759203293 0.1088951022008638
0.6614909722457394 -2.612473442211364 -0.438252123886694
1.471637833490585 -1.804810737020781 -0.8923290294633728
-1.957021460504703 -1.898089393824545 -0.9554356303953941
0.388345706810856 3.543662549197848 -0.4469883899173669
-1.880628519779012 5.603468785091319 0.3159365596261063
-1.394703889670087 5.639048386029555 1.208548511515866
-1.828205883074964 -3.45217690085373 0.2633006171420859
-1.649566437342419 5.63482256283248 1.123214351111438
-2.227021589236519 3.854567384782983 0.9889860922344365
0.3568828424026757 -3.479094037808647 0.7542545258524075
-1.363261152321097 4.67640515833987 1.495218745066197
0.3395717135036537 -3.398216068532003 1.26809329001743
-2.213740144859361 1.855334104953639 0.08176615821474098
-2.17003779319553 -2.246023702453144 1.226425147307337
-1.127767762144629 -3.488651038740728 -0.0416620161397054
-1.866528102539913 -0.3854594400358488 1.442181284530354
0.681481329811396 0.3024665235736896 -0.4385427267634114
-1.276802513298991 5.003879786930785 1.501864068383329
-1.156286819518947 -2.823795328814501 -0.4335357297546011
-2.207870022227251 2.307036254013855 0.2744393959850439
1.996797056636465 -1.612093855856055 1.214991194796219
1.408173486638647 -3.281657170385423 -0.4348554394050899
1.592132753648415 -2.579691112485966 1.469099918303756
1.269611128090523 5.646301010563366 0.2486919024939753
0.8415316445582566 4.463521823254084 1.501899878138997
-1.421753707908367 -2.446418822107524 1.507679858079565
-0.8867188330804712 -2.684456417641668 -0.4337256797309051
-1.404754190839006 -3.47356153834178 1.03367882712028
-2.051988030276398 -2.244885090482958 1.419168420859047
-2.095093597100882 -1.704335949224193 1.404501020275827
1.990122836262762 3.950228701218994 0.3778303471815442
-1.683971331819801 4.355851280667466 -0.5981968520932717
0.6670293642880147 5.626073595865347 -0.2702522792023268
-0.5785915067671651 -3.477064403140795 0.9990389146607888
0.03681262102291142 4.524585305064967 1.523738184343803
-2.170366467117812 3.601276045363364 -0.7968827525254544
1.126534629638475 -1.481436736385204 1.478677952090259
1.980865997899846 2.303877598629049 -0.02837016861708497
-1.436548879358909 -2.153476731776667 1.497110429006484
1.739773043034209 3.688295233712915 -0.9898608053108695
1.034275073676845 4.317482555085006 1.502730011266729
1.946862825044473 -1.623922513838523 -0.6634743062726547
1.983019732107892 -1.802234896342843 0.720257543257814
-2.217369506044678 -1.709327701434235 -0.2474773806697643
-1.886736835393451 -2.513283466251101 -0.676976054131316
0.9639961597485074 4.321377977819055 -0.4322577575619294
-1.565476199389495 -2.446418822107524 1.500964616165996
-0.6125140147537384 -0.1468057695997554 -0.4331111031784701
0.6390676291371265 -3.476884870560918 0.8253355299785827
-2.162473492878112 4.952276744625766 0.126549963259956
0.854386349189754 5.0228856679654 1.506894846840576
1.949736262198328 4.632123810028025 0.003176309901098748
1.977653824768046 -0.5688844633442778 1.320862714839645
-2.12254859702143 -1.253071533479776 1.391650257246211
0.9039770686933943 -3.475397232255054 0.7314672369977342
-2.224710777618133 -1.612455873587006 0.843980501739476
-2.176847672439851 4.631965556751068 -0.09835353014707851
2.01786168436999 -0.902345701507286 0.5778031689815447
0.6867004010152187 4.179818569601991 -0.4171380093337598
-2.221768944714035 0.8276514199685805 -0.2245169089003597
-2.207423441696469 2.744425677131331 0.3664259359505617
-2.245006240033655 -0.9013014024837558 0.6809283886898943
0.3376911670641659 -3.474728162304567 1.133779522488173
0.6371005144813243 -3.478271337564388 0.6352068949803971
-2.214518784158812 3.692193299772885 0.4706290120237622
1.220341171547952 -3.472697931406676 0.720257543257814
-1.497825227320865 5.637875955996577 1.09646934273473
-1.559286282608029 -2.579083796396297 1.494133579236865
-2.224732758127249 -0.3601312789481242 1.235308373696235
-1.170292708934853 5.644846000726103 -0.1299252294685109
-1.591048970730562 -3.467308374365346 0.8017229861032591
1.794291125738139 -3.343934218786213 1.19479565845951
2.017800971943869 -0.9037090918991171 0.4084719758866558
1.98443119209767 3.854271318497738 -0.1016247214800206
-1.262600608128063 3.929645066485079 1.52093109530848
0.6614909722457394 -2.612473442211364 -0.438252123886694
-0.9022513794145681 5.646484405602864 1.32341354282019
1.601311999441558 -3.455443588054863 0.1099255243858161
1.926654682377459 -2.453589965508567 1.107808767688374
2.01031993824437 0.8339320446971619 0.8769904166006334
-2.123177468708312 -2.809555592054434 1.216246162557609
0.375095491668466 5.655825020561796 0.1251146993776865
-2.231691758166392 -1.487711382093964 0.1088564763635475
1.977885491952441 -1.895246618895305 1.10716374356663
-1.966871095562977 3.688295233712915 -0.9898608053108694
-1.614464948629788 -0.6309807337148795 1.45414423130431
-2.221018305050441 3.607261710059297 0.4706087272772837
-2.123929865691191 -2.589918163256955 -0.2516721901612288
1.933962208018666 -2.347393169353982 -0.4932215691694502
0.6222750946105835 -0.383573101795342 1.476260754624741
-1.504458010062549 -2.434057959842289 -0.6357818209494285
1.858668715762891 -3.290991496635026 0.6146796256318221
-2.031968703783096 -1.263246136807881 -0.4051183412656301
-0.8956015312249892 5.655147175855277 0.5422652968808074
1.981589723066215 2.744408615151078 0.4600975600145053
0.9432780580255584 5.650209735906671 0.1094111459160587
-0.5554133955810839 4.506464240437826 1.517257496601328
-2.150128575977337 -2.454000086382179 0.720257543257814
1.099368173807567 -2.244407129258822 1.503562450600802
2.003570190374431 1.857737949811284 0.8400666734192689
1.410880055419528 5.640583538062427 0.474239475184925
0.9019378913067555 -0.5173125472636938 1.465394157752409
0.6912416736393937 -1.470840270929559 -0.4314185882550195
-0.9073271169154695 1.866400915395311 -0.4481928257902736
-1.964491880441654 4.142867265568241 -0.8795902250763215
-2.100850266539458 4.313845167379067 -0.6378391667689751
-0.5826449664150483 -3.486349112173822 0.2857903682755781
1.992562913147245 1.858096511246819 0.5640024881095787
1.986657639100711 1.854492846606607 -0.1358440206529183
1.997126571654181 -1.617880472120192 -0.4706056424052466
0.3303977290631799 4.171775861160725 1.536309115357385
1.233565279754842 -1.608710665103019 1.477307706415424
1.312800299112596 3.298474318881415 -0.6086279751813617
1.22191754249292 -1.893109106932711 1.489124859085687
2.008751160225567 -0.5091300643218383 0.7855379802031637
-0.8541610322363253 -2.342674207720157 1.523247589532777
1.359199749308749 -3.468185429503312 0.6146796256318221
-0.2634626463325821 2.865672404418229 1.549589765723543
2.01396065097819 -1.250663644186818 0.6146796256318222
-2.107539629949677 -0.5247614439466714 1.402719397661353
1.926654682377459 -2.453589965508567 1.107808767688374
1.6025452038024 -3.449193916187684 0.4410528154382691
0.04008760161865756 5.381504737181384 1.530498136777074
2.007483744560288 -0.5109394072668729 0.1526395911902539
1.960262812133971 -2.071194782124956 0.6146796256318221
1.894910521907858 -2.815036402787966 0.76582694208349
0.3813496538620045 4.71201891507069 -0.4374617498113654
-0.610558498592606 1.872679293760391 -0.4465891386415055
1.875526973238229 -3.051167193901173 1.212761176635115
1.034309234775715 2.394434662829901 1.515124952645207
1.952367596613086 -2.157453385354313 0.4410528154382691
1.606833700310664 -3.446548724984504 0.720257543257814
1.813002293701185 -0.5119569824500752 -0.393903963390036
1.699877058784892 4.349114881025513 -0.6174022596668529
1.606811552946478 -2.244449191858349 1.474127259860307
0.382690651724754 -2.034533254195688 -0.4544393623632086
-1.517543490980278 4.67640515833987 1.49776980466232
-2.176524457391627 4.635018561895961 0.2993189336793063
-0.9095440402012651 1.361545590414538 -0.4472817364579403
-1.869345047070442 1.940208388065876 1.493769670770793
-2.231870034486783 -1.485057338946017 0.720257543257814
-0.5854166653662938 -1.798771311729169 1.519274365433947
-0.8611964577729641 -2.069857947652957 1.517144653642413
-0.2670919180454588 -0.001571417148358373 1.50082555636222
1.902646524521111 -0.968317100740382 1.38716383888058
1.983085699202436 4.148968492334101 0.2282297374347386
-2.199667160229594 4.25567217959826 0.377833772122133
0.6892711695185508 -0.5315682161952189 -0.4320856260151003
-1.073333173717018 3.589203780518712 1.53428542332119
-1.068657113651482 4.332478576525382 1.508487622433092
-0.9118469418065605 3.719223100143004 -0.4386760241243526
-0.8192543999666219 4.484362548803877 1.509353205931478
-2.012479984586453 -3.258707439314658 1.285962471393917
-2.220644412252617 3.365075425640124 -0.1021841763771189
0.0468078086119061 -3.479732684553709 0.8479676100277399
-1.497825227320865 5.637875955996577 1.09646934273473
-0.6133885033642088 3.735548662449332 -0.4362331786757088
-1.855975184396859 4.012252950277136 1.507024666568081
-2.231698837260013 -1.487602259815461 0.263300617142086
1.134161318404844 3.840851786970799 1.521725227103458
1.980240147516407 2.744425946631177 0.3151728838506991
-2.123490947525327 3.990084303685867 1.471657881855084
0.364219536383588 -0.9612603657326788 1.500015260624215
0.6862158472873916 3.42317917308579 -0.4497813834047139
0.6766861800896503 -2.105037879926126 -0.460156558268077
1.561884135889302 5.495688303219194 1.499971741162328
-2.21221807060003 3.130007629527808 0.3749820229371153
0.3312797959316295 1.457708503281662 1.520530492133471
1.313333019318586 -3.465826879933201 1.0989415713674
-2.213714059628247 1.856767896242163 0.1971308233437399
1.911139249392737 -2.072934163218501 -0.8037730674729118
1.936773052893669 3.688577420286234 -0.8167763113243829
-0.6168036158867589 -1.558296310171532 -0.4302477441101824
-2.224072746277928 3.502273007989177 0.1149531404636844
1.913892158723078 5.255767100220997 -0.1724364953322393
-1.075499223571836 1.450145144984467 1.504856640117509
0.3617407583004186 -1.479888113883999 1.511566621000932
1.986642092330592 1.855334104953638 0.08176615821474098
-2.217753573462613 4.045243041404975 -0.1016247214800206
0.0468078086119061 -3.479732684553709 0.8479676100277399
1.995797543082635 3.856666512060261 0.7189893710163871
-2.219908050250913 3.604234901748911 -0.1016247214800206
0.97015184225979 3.409811053287808 -0.4617100019138081
-2.134111830876252 2.792597608949424 1.477429646136095
-1.976799904480253 3.500578726466431 -0.9093369898456202
1.990999310019104 3.129905365075477 0.5856494134458937
-2.078501055359977 -1.894307683761901 1.411191220540016
0.8390112844246473 2.833994591205272 1.527206517328611
1.631677149468355 3.755524793264478 1.514609100283048
1.317551403112261 1.946912613972274 1.504223142371934
1.732846481514041 -1.567262043480193 -0.6820807875384609
0.9145693506604158 -1.481019365910393 1.487541803253756
1.98795580813374 1.858131559978844 0.4444387617226613
1.856797348669433 -3.295426108598428 0.1095193600061277
1.221136967126115 -3.47259797046846 0.7576662153521012
1.943721676424739 -2.248359674253232 0.4410528154382691
0.3427492055116295 5.55362222638106 1.516986660080954
-2.187559863574223 -2.070150415611689 0.8439916120214137
1.269207070051123 5.641469426797552 -0.1347168233325791
-2.220606697525418 -0.1231879099934592 -0.1721649878003661
-1.131612233115759 -3.475214250378774 0.7691865232527719
1.975433544368566 -1.895514072109484 0.720257543257814
-2.161060260547434 -2.347393169353983 -0.4932215691694502
1.906888149363397 3.648750463799939 1.47908759045238
-0.8567457405384191 -2.244866791516372 1.520299176406906
0.97015184225979 3.409811053287808 -0.4617100019138081
-0.2701877445645955 -2.578915598337934 1.532066218475428
-2.170366467117812 3.601276045363364 -0.7968827525254544
1.271406812657099 5.617659286281551 1.345703390763717
-1.542441935557422 3.688225164796617 -0.7521129235884945
1.425893164712536 -2.80224127453507 -0.4455023165521222
-1.634916438644534 5.642182874348325 0.22913043670713
-2.202570131289352 -1.89530513023401 0.7661190376963394
1.072064282767212 5.518876243403711 1.489426999878628
-0.2848010989720565 -1.568829174054718 -0.4283349192762112
1.309215001855486 3.223906982785108 -0.5400898366691764
1.332264117825536 -0.5111882245577568 -0.4353657508848795
-0.6097118335419425 2.76484406402601 -0.4465662869319096
-0.2717979331307833 -3.477688080501915 1.010355513343088
1.933842835150356 -2.348498636744503 0.2633006171420859
0.3595096122196397 -1.701247559982362 1.515890659830104
-0.2703279471177723 -0.3827694072667304 1.498004233691259
-1.963723824515274 -1.804810737020781 -0.9138954669093784
-0.587928279035755 -3.327164856543729 -0.428038382450376
1.972773930224867 4.252612606923123 -0.1016273092855538
-0.2834054715018649 -1.860347682883197 -0.4402244536560023
-0.8947343632067523 5.654888303345822 1.133946363129216
0.3757744346446459 5.658705581176284 0.4467176440339037
-1.706387239535444 3.599514767915279 -0.9353528502314256
-1.286395378917876 5.305279042306186 1.50231916113309
1.923893160929596 -2.453750286934316 0.9738359598235729
0.3760264374560276 5.545527988415802 -0.3868783286046518
-0.8627461752858397 -3.483938567630373 0.2780319004615958
-1.422961207062695 4.147173114808755 -0.5034231448660478
-0.6117657132725575 3.337468582144992 -0.444132019427785
-2.144370378458229 5.257667543989902 0.481248440083086
1.606811552946478 -2.244449191858349 1.474127259860307
-2.142866116617264 5.255468432891421 0.309566761098527
1.910044827452105 -2.596306819864877 0.4410528154382691
1.113944788398584 -3.473922027144295 0.7605462923272688
-2.213196300714791 3.691997195145551 0.2971102704044487
-0.2786835076403368 -2.64994647653766 -0.4340944964487348
1.109625133524028 -3.479937572594551 0.2651544818328127
-2.144370378458229 5.257667543989902 0.481248440083086
-2.217220888791532 3.950228701218995 0.3778303471815442
1.93494959292844 5.254369273431159 1.287170565282512
1.989153847579219 -1.25489859624385 1.305684477238603
-2.030249460600226 -3.397352437246068 0.904616903118729
0.9439996819392549 5.6421290551213 0.9689500606413666
1.251035951102559 -3.040015682975094 -0.4348554394050899
-0.834475044224805 -3.458468462195949 1.181179306547538
1.946974977811286 -2.246183295555337 1.109712684319604
1.166343866852898 -2.346885164006237 -0.53028260813043
1.072064282767212 5.518876243403711 1.489426999878628
-2.104457205407049 -3.084638972737722 0.7202575432578139
1.846045018090053 5.480701455170381 0.1536138389031617
-0.5566757630689702 3.480088837320671 1.549520471744909
0.05482303352104389 -2.135808553778075 -0.4563396213265731
0.6075270982034484 5.34163825430247 1.515760368208411
-1.496709180619291 5.646301010563366 0.2486919024939753
1.225969649527661 -1.799437424266094 1.484326440164948
0.8989484702495001 -2.068900630961088 1.506861842298106
0.9570904812498211 -2.089094587413598 -0.4754493500599444
1.978254957265862 4.255438096642009 0.5880113518148992
-1.338093179925653 -0.5175637740835167 1.456543796982128
-1.414798014016034 -1.901822044773059 -0.5450607080946539
0.6768579000597538 4.6875507120491 -0.4393196905975134
-2.072550664060438 5.479315740415342 -0.151345066831527
-0.2845905995631369 -1.615340510490919 -0.4288780228307206
-0.8192676411058284 4.352204622777775 1.51606129153076
1.162510512831824 -3.456980499160393 1.164584812393506
-2.04820843074415 -2.343456707645063 1.418835244125331
-2.231905742974929 -1.484843180445896 0.7661172830314172
1.96770326319645 -1.986697853045068 0.4410528154382691
0.03864216779661801 0.9081199192035248 1.516981055491372
-2.121981481081254 -2.815265901790923 0.720257543257814
1.845207153712572 5.478040315628482 -0.05040975747865698
-0.273115716806779 -3.495499753382632 -0.02723965336312681
1.162713745981353 5.634559453043089 0.7871409238657108
1.960262812133971 -2.071194782124956 0.6146796256318221
-1.266256038604049 3.441562156628701 1.528161897320958
-2.209329110140114 3.769369791185062 -0.2025992439989482
-1.649699681600022 -2.514379857361913 -0.6610862533225972
-2.241058703506957 -1.250663644186819 0.6146796256318222
-0.2752849794421005 -1.479410742268141 1.521704738591963
1.857011027104079 -3.342151592812678 1.051210686306957
-0.9097103757818492 0.8255112633581601 -0.4438624305013853
0.9652033480599096 1.358926230572724 -0.4487172033522704
0.3576879745695172 -3.478449693873646 0.8377714568214476
-0.2798164340420976 5.656270519149162 0.008503409991663515
-2.179662521214659 2.305652316341231 -0.3343953967756981
-2.22377888927824 -0.03091209502347168 1.245303309189823
-0.5888388108298563 -1.479888113883999 1.511566621000932
1.915992751956044 5.256586541614972 0.3893995785384359
-2.121715097957264 3.897620891780222 1.474895632604618
-2.219908050250913 3.604234901748911 -0.1016247214800206
1.965040475453296 -1.984339070747942 1.22221053966994
-2.217608300484759 -1.706466282920381 0.7661181382159884
1.26555273988955 -2.643703794866431 -0.4675293944261003
1.160422550104875 5.618877259399001 -0.2755358694007037
0.3750572413599487 5.650251037622295 -0.1194782828518103
1.329599708631664 -1.446913029082596 -0.4694186979477085
-2.210093421791251 4.150113617784521 0.327030667191295
-2.245084457139623 -1.254622543668341 1.103527862287805
-2.121691926290708 -2.818051676369663 0.1088028903596282
-1.709761591257391 3.077288195447485 -0.5059160659400706
-2.230668242903199 1.857737949811284 0.840066673419269
1.27770191884765 5.63654455053261 1.193809261659794
0.6862158472873916 3.42317917308579 -0.4497813834047139
1.162130052693806 -3.472960587687497 1.099535822932407
1.896831813162424 -2.589918163256956 -0.2516721901612288
0.3890869735091691 -1.604534485513477 -0.4307871003540349
1.168959320928761 -0.003154942044541274 1.470337189305706
1.997903152003532 2.306695707125626 0.8463054479653822
1.991348097424045 3.950189387933164 0.470617054221828
1.953314535393744 -2.155309317010866 0.9749268098805609
0.9732780804095194 4.063358022224336 -0.435507941700767
-1.395273958130048 5.287383124194241 -0.4281353831790725
0.6477905344094006 -1.24638748560194 1.494357257752916
-2.227386637205423 2.760746820510528 1.396325982520807
-0.6022937504745404 5.630409289723113 -0.2670689886937185
1.171205839476782 -2.252283781936153 -0.5460134070013087
0.9176413446115757 -1.246798777257895 1.482698741648944
-2.15983889254303 3.769369791185062 -0.8242826678225425
-2.111382503825704 -1.483566736082884 1.397559551993086
0.04118963260230997 -3.270195245079636 1.371798516153282
0.8431751399944184 1.953563570967305 1.513577795663909
1.823520010452696 5.478737449262237 -0.2654721721856627
-0.5842607628308665 -3.449278474166692 -0.376336589204671
1.990283292422192 0.3127122326015113 0.1267058778585853
-1.447439224076722 -3.472697931406676 0.720257543257814
1.993976391104444 3.371376356674924 -0.3398621535633313
-1.649699681600022 -2.514379857361913 -0.6610862533225972
2.017939026066855 -0.90104024053413 0.7254496903960312
-2.199677842337173 4.254528125978194 0.2282297374347385
1.160122446809869 5.648138001255134 0.1036173887235304
-2.217608300484759 -1.706466282920381 0.7661181382159884
2.004094309879189 3.854804370561241 1.256344895869578
-2.241058703506957 -1.250663644186819 0.6146796256318222
1.292849520601267 4.955947985641744 -0.4336963862825305
1.198720469880757 -1.634095124935488 -0.4975919830562329
-1.112785389623828 -2.446362823224266 1.516708635530561
0.9010641875652723 -3.481665551696226 0.2707160759049928
-2.163871105422437 3.688577420286234 -0.8167763113243829
-0.6154437593402935 3.543662549197848 -0.4469883899173669
1.997287044790113 3.502645815869908 -0.5371432961059963
-2.160932423854065 -2.348583684551254 -0.04665534898986879
-2.22122600926017 1.356394218749938 -0.03660999172696106
-2.192138527982066 -1.984339070747941 1.222210539669941
-2.219900372927505 3.60433682857022 -0.001014918297918568
-2.160408103983025 -1.80481073702078 -0.7592213441494152
-1.544719752658854 -1.712369082557737 -0.6739815701967845
1.9676470035389 -1.987347352678154 -0.5214651882489774
-2.208687775594982 2.744408615151078 0.4600975600145053
-2.168064921722953 4.045243041404975 -0.7818685910983725
-1.301845807687457 -3.474817200512206 1.036990965127947
1.949666761487569 4.632773100166627 0.1195401076627611
1.637933015026232 2.385679747066129 1.502882740145094
2.004089515731568 4.046460524089045 0.8570037203759483
1.997303195098059 -1.615248120777738 0.1088911016318983
1.895532674050598 -2.814671446496847 0.9714292248843401
1.472879405604727 4.142478122092635 -0.8551511129224392
1.793803090860099 1.856648701829862 -0.4228143696555758
0.3378454679824732 -3.458643658355602 1.189774777961706
1.961539791602963 4.393434730761975 -0.0001766726581151207
-0.265740220326726 0.9081199192035248 1.516981055491372
-1.708551952226209 -1.630811078895874 -0.7545876150807589
1.960106607029661 -2.072934163218501 -0.04665134842090327
0.3568828424026757 -3.479094037808647 0.7542545258524075
1.980272219352003 2.743180085334473 0.2154968580361325
0.3555663987496436 -3.490096243359409 -0.221231209467523
-0.2643516285205601 3.736933586984109 1.556136135807243
-1.389811798510122 5.634559453043089 0.7871409238657106
-2.224710777618133 -1.612455873587006 0.843980501739476
1.990367210767733 0.3155425309671692 0.4198584020165432
-0.2824502671498329 3.119077302573786 -0.4433487151020178
-1.191770238245588 3.311321908550892 -0.4559095208301374
1.804870651254327 -1.263246136807881 -0.4051183412656301
-1.35822847111578 4.442397267886765 1.494622340995422
1.874110550090564 5.481328080907661 0.8783541793885022
1.479289187006677 3.599514767915279 -0.9353528502314257
1.251035951102559 -3.040015682975094 -0.4348554394050899
-2.122244465737598 -2.248336256222338 -0.7680146001340338
1.198720469880757 -1.634095124935488 -0.4975919830562329
-0.5650375069257222 5.363544180027709 1.523858510816112
-1.835562372986346 4.307691225436656 1.495801517489727
-2.23874187682038 3.365749190339896 0.9918556179423579
-1.704081565710342 -1.7123654222061 -0.8321639418237803
0.6836529752006866 -1.833167948294015 -0.4442881990332556
-2.242759708747507 3.365012912775257 1.117449684994542
-2.122008574436625 -2.815036402787966 0.7658269420834901
-1.127914481782124 -3.485182625920361 0.1150579883145182
0.933792324648179 -2.664213473085876 -0.4372479385736882
-0.283021774084667 4.378951318479139 -0.4179896603307536
1.310847621737681 5.512978302694561 1.493227013685719
0.9755442844696078 -1.533336041869534 -0.4384436356207506
-1.128162240094042 -3.481665551696226 0.2707160759049928
-2.161979356826989 -2.345794567300567 0.9747814571924234
1.73531307526874 -1.527525312135507 -0.5895655680595913
1.997491183849182 -1.612665340000462 0.720257543257814
1.983079892126874 4.150112911817978 0.3778317213689709
-2.075808641800151 5.478431555053021 0.3319306108421899
-2.080139852120433 5.480609808927829 1.431671162451227
1.153800110392019 -2.578297114107575 -0.4650441202781274
1.339045637777709 -0.2281409074202107 1.457972831507446
-2.217608300484759 -1.706466282920381 0.7661181382159884
-0.2736744283210118 -3.478861728595439 0.9259252162260827
-1.197249894788558 3.409811053287808 -0.4617100019138081
0.8431751399944184 1.953563570967305 1.513577795663909
-2.210382906960023 4.146935009279243 -0.3382681092304541
0.04787708282865764 -3.343270164245511 -0.4261102075308443
1.992821037830441 3.604076712740541 -0.3411533492030396
0.04638868384529298 -3.482029261296426 0.6548818103787782
1.946835383091208 4.952920010812085 0.8535206251496259
0.9424734179863009 -2.452754453943538 -0.458109122882264
-2.171412106117129 -1.894795906323725 1.323885589798544
0.9448515398821107 5.630382597053326 1.35963117550069
-2.170757181668094 -2.249008759203293 0.1088951022008638
-2.197296579494886 -1.984508569389365 1.107729484068395
-2.220664201323638 -0.1208805152393758 0.3393060028270025
1.990655520933845 4.045243041404975 -0.2025992439989482
2.00368131277436 0.3255804857554833 0.9432082462176663
-2.220557382346918 3.3652759827796 0.1149531404636844
0.667636310677851 5.654888303345822 1.133946363129216
-2.213410276214975 3.689271101602341 -0.001014918297918568
1.922763615292366 -2.456564179070067 0.1088911016318983
-0.6000289837948865 -2.572828258756045 -0.440771816455581
-2.199874957852008 4.252583815952533 -0.2026121830266144
0.5921695885769263 4.352204622777775 1.516061291530761
1.652142584976126 5.584386639445139 -0.2577227529701103
2.004414880283531 4.045191047811253 0.9862797158465509
-2.209185586700047 3.772425907051076 0.3778319148882146
-2.222923451158306 3.950035239565136 0.5877641082442908
-0.5877124277754784 -1.606630386420387 1.513663499892965
-1.75455598376492 -0.5119487365770103 -0.4353657508848794
-2.199860924491474 4.252721581802435 -0.001014918297918584
1.983284854431256 4.146935009279244 -0.3382681092304541
2.010724758814536 1.36031085667304 0.8442545420952548
-1.559362170354304 -0.5111882245577568 -0.4353657508848795
1.696192470769934 -2.802363244785985 -0.4042585198879363
-0.2854728991280203 -1.292353247830623 -0.4263191011164709
-0.8590906495052068 -2.154688814277334 1.518188177624071
0.3300033008064965 4.072110731086458 1.539727307556905
1.268838327367581 5.645826554918322 -0.01772135825376058
-1.521666818368662 4.997253227468863 1.504302406641519
-2.217381344950959 0.3127122326015113 0.1267058778585853
-2.161979356826989 -2.345794567300567 0.9747814571924234
2.008480753210847 3.690243949136737 1.259688697008662
1.912570045226006 5.260852457446482 1.434846635244264
-1.640200656028049 5.635456275804129 1.018586808236038
1.260615986308646 -2.801003552147807 -0.441390230409292
1.996937800727786 3.7708886816079 0.8591224252524562
1.310847621737681 5.512978302694561 1.493227013685719
