1.129663524043305 -0.5887373370709899 -0.5545435335479041
-0.9058536361799934 -0.6855863712114378 0.2647296521917548
0.04443827694202084 3.804462580347312 -0.07537513893765681
-0.8583610827900894 3.543935410943033 0.6731691808574918
0.7731543359555823 -1.040775746238221 -0.1134736853757588
0.9906589682504068 0.02827204870268115 -0.6152804438667616
-0.6726537317909328 -0.9760681724259582 -0.4689224947205145
1.118623039367741 2.093068594253461 -0.2207845694823861
1.129282652875569 -0.2494576455515003 0.3225029037203324
-0.8937796296737668 2.307019473206923 0.3190870295513891
0.6962563513633401 -0.6691852903456321 -0.5427688714050064
-0.9839465217657866 -0.07025991692244724 -0.07385527263268267
-0.8837978897604493 0.4739026201621125 -0.4602405915623511
1.029473879637041 3.499280036841222 0.6062159334407503
0.9249744251268981 3.632264298782717 0.03726867269050227
-0.5782029235297665 2.317151447736438 -0.5423215699193598
1.046274803664942 3.7373550250018 0.6802211942702785
1.048139767677248 3.751747935284558 0.6480232730560878
-0.9402142421420605 -0.2494576455515003 0.3225029037203324
-0.8573285824545882 3.448505912258639 0.5041209333733204
0.7618150147860787 3.633674636852758 0.3934641748343883
-0.6568981104845505 3.688331429989543 0.6366647085455891
-0.4294805736260109 3.699389721602816 0.3104449035215755
1.035135318786473 3.587746995309769 0.5597168227045266
1.07644355204276 3.294918921002249 0.08407643483210769
0.03390258198692917 -0.05653058421262857 0.4025195790010902
1.073400090790666 1.641554073230584 -0.4613366491697544
1.109643427027295 0.3350440220482888 -0.3421726796117075
-0.9140781969684795 -0.7756712569222128 0.1959512426979216
0.1581333041348924 1.217406220945597 -0.4914827322612437
0.8134797452254828 2.545651069437141 -0.6024750163313632
-0.5074548700919147 0.4594192940574023 -0.5421440706580141
-0.9215836476346875 3.179357986794673 0.02134478518384664
-0.7934485647314424 3.555025737112179 0.0323423219105751
1.184198875393563 -0.3215395686979714 0.09062543333466122
0.4265993411210271 3.420934764722223 0.4383722525743983
0.6150912149352931 3.582181492407776 0.4468166423657299
-0.8542353296887509 3.763504697903049 0.5851185485040583
-0.3761124576260356 0.7917119306461673 -0.540688921073001
-0.5435231477369527 3.754990985063325 0.01682960668714275
0.7244906153324557 -1.060048084243065 -0.3636373776828251
0.4042798019200556 1.750893421145796 0.794944523827031
0.3971271031725235 3.164747693269958 0.523187238649535
0.4042798019200556 1.750893421145796 0.794944523827031
-0.8418115324934623 3.344674389609152 0.5466303433233591
-0.6051090244748952 -0.5426505891609145 -0.6002466399577642
-0.5354222045989471 -1.060048084243065 -0.3636373776828251
0.152941752108857 -0.7462189602132402 0.321928341839927
0.3482262362796715 2.989046147637251 -0.5038437016973018
-0.9373772621388139 -0.3099065901338197 0.3157793434583787
1.036815252371614 3.763579205965592 0.6192852477214441
1.011770911556557 3.500657408955244 0.5993640114487118
1.112454059896311 2.959083868160318 -0.4468002701942044
0.8557359153539441 3.536868928612346 0.3962923400346846
1.040859618457277 3.350031178290191 0.5729753614479107
-0.07209148503707566 3.416401791697834 0.4475731308558731
0.6437029173093418 3.643914202193216 0.4513742514328502
-0.7658927687421804 3.374729878946904 0.5322049233494183
1.135428490533918 2.673368043257139 -0.2158777262221921
-0.2189776274150792 0.7305289508554684 0.590959667420526
-0.08740911756160191 2.802406622551439 0.6430237557790249
0.1779106127695357 -0.4145016278825561 -0.4978278341406964
1.049763569360334 3.652688891498309 0.6684700561020168
1.04329215668297 3.711361658437401 0.6858036381138599
1.154337773304879 -0.3826031957851859 -0.4581278803092803
-0.9396743185836355 2.518940666824819 -0.2162438064574211
1.065877191290024 3.320762166260421 0.2110667397059163
-0.723486955900822 3.349218027201933 0.5368966561518133
-0.9309127640322815 1.359762683794405 0.1556926338479113
1.184232627875578 -0.3216659847936071 -0.009133149934296727
-0.2024418595407583 -1.079736876389414 -0.3598272887692419
-0.2143779315546946 1.60749279918254 0.7982525408889416
0.6952791168286169 3.057124673869574 -0.5504807280782499
-0.8562126375789172 3.488677146761489 0.5106491737622898
0.5403384039452783 2.72408026542871 0.6543061547914866
1.135683510319748 -0.6831221090208497 -0.2722915704175016
1.046959719211845 3.715689825043774 0.6880836423455258
-0.9699423293406211 -0.5948147171461656 -0.06228605937910113
1.146252318120194 0.08314081956795577 0.1597653088386013
1.104813203548171 3.179094638207932 -0.2161239636947516
0.860587387152577 2.156902775374645 0.7000596392447829
0.03347573779595855 0.3252607471430971 0.4314208054009014
1.14233746200223 2.890065338735943 0.08975250229744201
-0.2152113911865691 1.750893421145796 0.7949445238270309
-0.6564961818531201 3.760194201826214 0.6385432107631908
0.1590091646864017 3.529002819507571 0.4407053556982915
-0.9254487815122681 2.890057945267084 -0.4489833342191998
-0.6567840404875457 3.738967632468609 0.6443795237598146
0.991194406759964 3.392244496779275 0.3852325535657819
1.042700266105637 -0.1724522144743284 0.3511927406468451
0.6057494941098542 -1.053938050790444 -0.4832078849747488
-0.4043810534386715 3.451359102924149 0.5514147110118689
0.4046575719574375 1.049528444222253 0.708519069210098
0.9000522430517526 1.599019816492822 0.680371462692015
0.5469250570622011 0.1753625601115666 0.3907296310894751
-0.9259509060547837 2.820254543654176 -0.4505034770998888
-0.9022839713173334 2.923743897286317 0.389593100762386
-0.50787293508536 -1.007496873116219 -0.502904288884238
0.5348522365194706 1.322741346281658 0.7666205853571662
-0.3483310536404064 1.049521955898993 0.7035359014725162
-0.9544051459790656 -0.6834405617916572 -0.03825767555990731
0.6109649436637352 0.2102680714853819 -0.5388638463296402
-0.6467060933598505 3.05991495553644 -0.6525762364145533
0.7505766983744364 3.61775330745032 0.403849873760167
-0.5712403867602406 3.630300747038725 0.5564718226881558
1.043165295801564 3.645746920557076 0.6692711923105215
1.019910494030266 3.244567390152555 0.4074328623122927
-0.2308506358986256 3.577202452123455 0.5695969587694363
-0.9025593516267518 3.062920493202207 0.3782396807337347
-0.5879546603360202 -0.5262972208082208 0.3231320474092102
-0.09869820723763437 1.217438592268821 -0.5054476869012387
0.8627784399506924 0.08960381366649417 -0.5455966832496757
-0.2509326668333086 3.536579231468589 0.5643429959494452
0.760716135427725 3.571003430755696 0.4114021578621381
0.843446323849065 1.465162755656226 0.7263307371061569
0.2456845956197194 3.783429627590996 -0.3250309462144062
0.9561416231650336 3.187077803372838 -0.5568236622097558
-0.9039821805664111 2.449483744382951 -0.5538476613608634
0.9993579155404844 1.500962010321459 -0.5140249400526321
1.121793828568601 3.10486813848135 -0.1331608599768297
-0.920575016293786 0.3350440220482888 -0.3421726796117074
0.9984904015460174 1.21853680754681 -0.5140124457811295
0.9719282023105884 3.475609609382848 -0.3890528750374199
0.6961209260696148 3.496278507952846 0.5999637256893129
-0.3649397318996501 3.39370989855917 0.4344722869682735
0.2799931341965364 2.26818644138447 0.7523931635777821
-0.8738176328337293 1.091869260620203 0.3053193269568444
0.8211107749283849 -1.003824231420885 0.04728098310644908
-0.8514998530504933 3.410447738356531 0.5970509923828428
1.045825216550498 3.685459629687054 0.5529858691876892
-0.2113897711866754 3.022728438687099 0.5704808015072638
-0.8528110438078878 3.647799605661263 0.6575930117532318
-0.232360074672652 3.675387000872519 0.3985561070402547
-0.6443265344276655 3.728292787323146 -0.1078635360351142
-0.6616085836970598 3.582695322501826 0.3899805274310895
-0.3056890412967958 3.451534308497689 0.4322582390053403
-0.2211938533571744 2.433829349268266 0.7214697288625889
0.267485627890501 -0.9498481995481054 0.2397636981203444
1.124414091758345 1.359762683794405 -0.05484201022962222
-0.5847595782073205 -0.6166998214611184 0.3108418138040284
-0.5104257254181566 2.107946009792153 -0.5429403908981741
0.5989746870214694 3.731782109942689 0.6508290580930389
0.7014669427215273 2.197219332378765 -0.5425878283378162
1.043238227155469 3.734883225585505 0.6786760262512874
1.112454059896311 2.959083868160318 -0.4468002701942044
0.838219267190038 2.776704870161233 -0.7041427952180193
-0.9101389583710848 3.102983583475871 -0.4422326648621792
-0.9215836476346875 3.179357986794673 0.02134478518384664
0.410262264090661 2.433829349268266 0.7214697288625888
-0.8813143138466533 3.294664877496627 -0.2163342640848661
-0.5229109602260537 -0.01339233326190679 -0.5484297356847195
0.8168376440155833 1.360392696227512 -0.5326724942040069
-0.9441146368371669 2.959083868160317 -0.2153434654099236
1.050715993909303 3.439825761546755 0.6463724182901127
-0.697737609943239 -0.6677669995518182 -0.6080709810755899
0.7358296073262279 3.480000618788596 0.4148558422597627
-0.5954058906098984 -0.3098565026353065 0.3474022010650856
0.9117778590017713 1.080884659839101 -0.5239434946075947
-0.7391660665751492 3.403015876758333 0.4046952957857772
1.047429493523598 3.543935410943033 0.6731691808574919
0.9976650120027734 2.044098443149626 -0.5139883925755833
-0.5004726106132951 3.514014779909195 0.5279059916468296
-0.3637977405076351 3.69110758176675 0.3506860845995842
0.6941817135570818 3.684008223289164 0.640771375659029
-0.08592136780636159 1.322671898448858 0.7735854978086532
-0.5582233924320394 3.726046875379783 0.6095351274559643
-0.7642646015268709 1.158171061651839 0.5403366564770002
-0.4847766340458223 -1.072660768368955 -0.3700305569701401
-0.8574536395646752 3.377846624868308 0.6134333185369407
0.9108528098258665 2.038791809436735 0.6585921603252074
-0.8629214354404456 3.356103021725655 0.5471388050488897
-0.9337134809278359 2.300339210774077 0.1574759703439525
1.078270156981195 3.24308621121867 -0.3268496998403919
1.069476545568092 1.940708634221588 -0.4613347349644857
-0.6271768885726303 0.9435694334793346 -0.5325348125619623
0.8422207745563202 3.429919254295262 0.4102758002188486
0.03607915677766372 3.736470173539805 0.145858694639061
0.158140349657486 1.804291995069273 -0.491500247491375
0.3528008502589807 3.781168480170784 -0.3421787998627932
0.6747982443766639 2.376206544734595 0.7176888914068761
-0.927175537004209 2.180667599490812 -0.2206542120564319
-0.8641843420513254 3.370587530845549 0.5469218483349195
-0.5862938701425421 3.364266377000561 0.5652740253029036
-0.5240785576694155 3.539391337191689 0.4351904287922173
-0.8090125200105399 1.800409732506047 -0.5140324753316707
1.039662609310801 3.712605935567969 0.5793279086348863
0.8457975709535144 2.317764515255401 -0.5326430142134131
-0.7987220149480904 3.349052500026085 0.5368317439619996
1.047128334705498 3.374139110822081 0.5098352502577905
0.998502823942099 0.9474455211814505 -0.5138588647306175
0.5378210445178074 2.544200787899146 -0.5296195773683153
0.8479018433935511 2.621746737889307 -0.6826495552256578
0.9111574644798947 0.792483723996387 -0.5236997656376059
-0.856367255953179 3.39538467158614 0.5058732183369061
-0.7838980489025051 3.212810672088418 -0.5218628870022261
0.6231131179244476 3.584890414500671 0.513198900339703
-0.8561463672617318 3.492494828858949 0.6396012011224082
-0.8386760863836619 -0.8547560721029535 0.2124836145408162
0.1772007546628625 3.236987137769887 -0.4793801160273833
0.7187187853934938 3.650684504259942 0.5529336816518307
-0.6618641929333908 -0.10286000077819 -0.6593253539668922
0.5372103621144411 -0.8800569730138456 -0.5283335718884903
-0.4694880984344459 2.953638897355265 0.5779729082352576
-0.1918643652454042 3.632668140744526 -0.4093611148295612
-0.3560991351181924 0.01098564085545477 0.3852696906636289
-0.3366993619121045 -0.9085584954930546 -0.5267229759710218
0.5471931286621961 0.3253860177847449 0.4115853476666575
-0.9926409536322559 -0.3216659847936071 -0.1531171356974345
-0.4619842537294185 3.666402427118661 0.3936450249515128
1.175070442002161 -0.3826031957851858 -0.2403057721696945
-0.7164585481999759 3.336831789272099 0.4198155954235353
-0.521268706173895 3.681889316537998 0.3704499952534975
0.6142175318952658 3.609989321474617 0.4468278823810638
-0.4828628864677594 2.160179030684139 0.7491158556356573
-0.470888910733331 1.465660116307692 0.7762335781550775
0.8361735084725639 -0.6724354324935518 -0.5935540051243251
-0.8418206509375242 3.406459739422375 -0.2120467888211011
0.7760556206120342 2.053285000065185 0.7410336660995671
-0.4748971797988402 3.647793000799721 0.4871646863291247
-0.4350327403422023 3.632248549623256 0.4474284633680415
0.1582362879183991 3.402727666124659 -0.4362412265421746
-0.8996050035330389 -0.3869780567030279 -0.6991934619620327
-0.2629123241511077 3.493507446474961 0.5602860087496023
1.049674076828981 3.412710831680522 0.5056988203827025
0.7563621305812263 3.243656581592504 0.4695205010716775
-0.8526537158690299 2.407538197734467 0.4224959812809726
-0.9294525092487376 0.9511460652217973 -0.2225524408098722
-0.1635329296235417 -0.1029860819856855 -0.5092461258063126
0.9760702898274023 2.533808151275799 -0.6967572920329372
0.7710432363418639 -1.018928467653401 0.1325778741076665
0.1807193232143712 0.02793113041981792 -0.4918391600472066
1.162410922260882 -0.4440377916935742 -0.3422214729105529
0.2249801100295278 3.33440260509246 0.5607604511945008
-0.3457838257859617 1.322741346281658 0.7666205853571659
1.042047610954805 3.759102551986572 0.5953646627670618
-0.9318784781398191 2.037109550770051 -0.1337794701309792
0.973672501096126 2.975148006602673 -0.7218309820704107
-0.6578534018229363 1.749806891914731 0.7307114858372524
0.772000449425491 1.90695214543832 0.7523412737897885
0.7936279725268262 -0.4786450663952973 -0.6113269319996687
0.3528989329739577 0.08040007998588435 -0.5038575020374737
-0.8567600197300689 3.373812450729784 0.5164976944129783
-0.8630188090903169 3.348587818369206 0.57222139434956
-0.4822711422416138 3.645545914125334 0.4861217632142304
-0.7319499322746184 2.207538341892982 0.642113835942179
-0.2186815637139436 2.645078365816754 0.6779576816746603
-0.03667895083941088 3.374442126673106 0.5459817608318383
0.1681896307893137 -0.7998322234243118 -0.4810693095515238
0.5704845494994079 -0.8469343605686088 -0.5292511313799524
0.9673127558906225 3.512919583661629 0.3738644021259426
0.9868564664527709 -0.52557399188992 -0.6961992358151979
0.8638876675160692 0.5708089410935917 0.470155566830461
-0.5800358537217971 3.282761973864151 -0.5215223512780958
-0.7781892708184611 2.905442642619649 -0.7432582474162712
0.7563621305812263 3.243656581592504 0.4695205010716775
-0.7120304161886195 3.519616404006981 0.3924638996058946
-0.3107186821636396 3.477625503468117 0.4309951869376262
0.1779708762895744 -0.5410205839744243 -0.4930903339263081
0.8466868987597196 3.350693541596798 0.4234947323346959
-0.428600074401847 3.48834283719056 0.4250986377744159
-0.09835095336734548 0.7916666974318795 -0.505160811644806
-0.9784750296844993 -0.1636298051535355 0.2857869119578169
1.131426003885097 0.2306656825101601 0.07000748718103116
-0.9342518715392602 -0.756438170805751 0.04822298426187122
1.161798342605581 0.003625686388401685 0.1559214997979153
-0.9822279024939637 -0.07025991692244724 -0.1531191523933262
1.044623607655986 3.446106819745554 0.616666422398789
0.5356697928980464 1.607572110582156 0.7940699088522277
-0.9360388869353006 0.4760802359468295 -0.06564489526355546
-0.6578534018229363 1.749806891914731 0.7307114858372524
0.2799926937410321 2.319514675825181 0.7443463313075313
1.146330754266355 -0.5934732239347142 -0.3512911102220784
-0.2345747437530665 3.68596223797511 0.3768689935025074
-0.129252229212881 -0.7996439931975398 -0.4949343896203808
-0.8522028358385395 3.491249154073139 0.5334656322352928
-0.8617970846655954 3.626232441808641 0.5916258590748024
1.142976797675597 -0.6834405617916571 -0.0841564223580981
0.694222821138097 3.546750788064062 0.4692448359029391
0.8366838537917426 -0.2921271200105863 -0.701157342099233
-0.9432896733128282 2.596282497800365 -0.2160057633701475
0.99863051929359 0.7963689993054053 -0.5136943343026672
1.050715993909303 3.439825761546755 0.6463724182901127
0.509210024097051 -1.055300204533597 -0.4808011785546389
0.6738450447793311 -1.072660768368955 -0.3700305569701401
1.128231219474673 0.2309493083763345 0.1228285358641282
0.4757334483203878 3.327206945576957 -0.4913978061618529
0.6802081312844943 3.531092129544152 0.4429527640910124
1.155609557398428 -0.5948147171461656 -0.1845503312744608
1.078270156981195 3.24308621121867 -0.3268496998403919
0.1547982035576062 2.052278630689042 0.7783487789238239
-0.867769840980978 -0.6543763958626263 -0.5877239265713856
0.5469250570622011 0.1753625601115666 0.3907296310894751
-0.05580918854022586 3.796403902885253 -0.2692394518208618
1.139528232033722 2.673403669751815 0.1558558964348727
-0.3685957122256559 3.580825162781569 0.5461992570320274
0.348757845470313 -0.2897016868011712 -0.512860837998203
1.039662609310801 3.712605935567969 0.5793279086348863
0.9024012083782831 1.740883277551017 0.6774833803248098
-0.7142588435264056 3.749130975256517 0.6179781745732098
-0.8415510354008581 3.357424100274092 0.5312618601208092
-0.9346769680205621 3.10486813848135 0.08639587354011169
-0.7016930410357815 -0.9926586454735003 -0.1569691511708886
-0.6074757155978308 3.119804875286407 -0.5819845805245966
0.3557000525702169 2.482947305469318 -0.5075464308428661
-0.8540954421553304 -0.1098143461272664 0.3551381910648422
0.8469218125564449 1.749806891914731 0.7307114858372525
0.9761267791769474 2.321854737491871 0.5389411035197576
1.124414091758345 1.359762683794405 -0.05484201022962222
-0.6937247439120126 2.987191804701396 -0.7172451132090107
-0.8294883321707072 3.464792740010559 0.1827330978603557
1.017375816486581 3.468489487428415 -0.1314635173939286
0.9581680993547945 3.346597342245233 0.5484829573462012
-0.7914111912380506 3.043059733504951 -0.6910431503846695
1.047712494979901 -0.8821557864457883 -0.2621659438537872
1.052411330150112 3.355835699177092 0.6043013569987128
1.050804681833979 3.353227770856113 0.6199836282601052
-0.4719715006928811 -0.4409364246455767 0.3385511410563641
-0.4828628864677594 2.160179030684139 0.7491158556356573
0.5126170602321332 -1.025400715505922 0.1412328102433713
0.6538479352133378 3.676116977685506 0.3834979287637591
-0.03519892648390791 3.727270359415776 0.6547067516723408
-0.9273470761311211 2.372908633707807 0.229643156956124
1.043171536314303 3.491511414316068 0.5115232010356687
-0.3483310536404064 1.049521955898993 0.7035359014725162
0.03347573779595855 0.3252607471430971 0.4314208054009014
0.7505766983744364 3.61775330745032 0.403849873760167
-0.6715189764190683 2.156902775374645 0.7000596392447828
0.897237078092461 3.543682085005044 0.3893479339389255
0.6754791390070392 2.320637228780641 0.7270729473813187
-0.9186101200822161 1.219594935731102 -0.3430904643170588
0.5989746870214694 3.74565765438987 0.6489903608141026
-0.5351515123031028 -0.9510173754582951 0.2107029496793113
0.7602776323582471 3.746592041356454 0.6193645318582964
0.8581604434354289 2.56610921940149 0.6329395634589736
-0.8385119213279422 3.451257709980965 0.5386385407255691
0.2877785158830353 1.50227488577017 -0.5054575155762797
0.03657794287114577 -1.022742566558494 -0.05046703482692092
-0.9837634662674587 -0.1355686529113946 -0.2327364872900327
0.7977925569867097 3.169920357344625 -0.5634410247178338
1.07644355204276 3.294918921002249 0.08407643483210769
0.1518125808042598 3.360181016064886 0.4633792755135761
0.6376922215989206 3.614414712647653 0.47919932528121
-0.5070525153361061 3.496278507952845 0.5999637256893129
0.9887967434208417 3.500917092942145 0.3571741387542193
-0.5859539084695908 3.343078330221363 0.5448202656030275
0.989765066376687 -0.9327471887009486 -0.1612255674233816
1.118276025691623 -0.4395658417309489 0.3019116802956917
-0.8555551969224773 3.446106819745554 0.6166664223987889
0.6958983657084565 3.118018416251216 -0.5468413658101133
-0.9394224363107794 2.748189729685199 -0.3204356910602088
-0.5308361515559654 2.253829478217761 -0.5422416162333539
1.053411986913018 3.361242792837838 0.5777011919338568
0.6437029173093418 3.643914202193216 0.4513742514328502
1.049763569360334 3.652688891498309 0.6684700561020168
-0.08109943234067185 3.640662458080092 0.4231318063635344
-0.6464831458374678 3.748460702108489 0.6181930806677449
-0.8903797597450263 2.307758560843342 -0.4557658640984098
0.6171019183688332 -1.010443351127424 -0.5127171069992366
1.053798903022312 3.393184908272662 0.5490633612651362
-0.5996380839815079 -0.1850562307492776 0.3606008667251964
-0.275725396419582 3.797225977191636 -0.1115000586703397
0.008349087518915967 0.02793113041981793 -0.4918391600472066
1.008091633607342 0.3059498776885528 0.3492203009769692
0.7198392785145664 2.407791679349261 -0.5422616927869449
0.9103652526515467 0.6252580387580091 -0.5234591668003608
1.064595204833042 1.226400420087708 0.309848290963384
0.8479132289578129 1.050459248668057 0.646740234721354
-0.7951083807726427 3.761174400272408 0.6380847860283373
1.013196176022668 3.352705262132382 0.5594066660633434
0.8168843788978536 1.647024848810639 -0.5326740618272221
0.1482746571043156 3.784105163052813 0.01119904582979531
0.5103977133122839 -1.07191023188008 -0.433346224974052
-0.2222596073995801 0.1755034496768657 0.3984787493703342
0.9542843037521684 3.761098468400705 0.6378604690656928
0.9139893239443875 2.406968222266405 -0.5602291981666059
0.5741712790439502 3.547288378002718 0.4317540099054319
-0.3740083755452967 3.402744902043226 -0.4839651231140083
-0.3391280061650783 -0.6066273838205833 -0.5236202144200775
-0.9791150720497893 -0.2860443028743785 0.2761285847935399
-0.4619842537294185 3.666402427118661 0.3936450249515128
0.9887967434208417 3.500917092942145 0.3571741387542193
1.181589985871104 -0.2602214192602896 -0.1514854266241509
0.6231131179244476 3.584890414500671 0.513198900339703
0.988020796645309 3.353271510434924 0.5563931601371026
0.6176684851353558 3.48834283719056 0.425098637774416
-0.0718600594372958 3.669067706485278 0.4122857403657106
-0.7225008748419763 0.9446647677165888 -0.5238560426015865
-0.9375137660884412 0.1546328707625419 -0.340133301266259
0.6252067143960554 3.556776711565204 0.446135923447829
-0.8586586224956933 3.347975163744021 0.5458513050051013
0.1738209817741416 0.1381593770752099 -0.4889940786061632
-0.8223880663763727 3.39447712254902 0.5316006459034438
-0.7756510838298349 -0.828703010935485 -0.5047735383031036
0.7710432363418639 -1.018928467653401 0.1325778741076665
0.2788600952102784 2.15922015843389 0.7660367631926486
1.173590634661045 -0.07025991692244724 0.09656163263403857
0.6702359434963436 2.571029360519124 0.6798327369686542
1.182060522790762 -0.3826031957851858 -0.01594330683873703
-0.9157447928146618 3.179094638207932 -0.2161239636947517
-0.1661421903468653 -0.01539347229528519 -0.5070260243807666
0.4021913981851424 2.951728353531234 0.5927512360400195
0.2801036426011027 0.2514391669405298 0.4110052953701924
0.9582326016518602 3.156130979339166 -0.5965636399651689
1.125083227057684 2.373422890530422 -0.2178932241417784
0.4487507761184078 3.742374447442209 0.6269953808167316
-0.8937796296737668 2.307019473206923 0.3190870295513891
-0.5742415370380093 3.38052070985546 0.5364374539304739
-0.2372477832607949 3.690580785394882 0.3586062460815379
0.6998307981600301 1.217435788016256 -0.5430306183803031
1.120133702099711 2.519083367415141 -0.3218587212044225
-0.09844635909095473 2.147440415208624 -0.5052396283097373
-0.850870275580378 3.592638928307115 0.5344690641589822
0.03448383692091829 0.8971907726854866 0.6638520480855112
-0.9147516955625401 -0.1393113886163997 -0.6852722878816422
1.009417157334959 3.717583824179033 0.6451010193031661
-0.5441085520583348 3.658863373977149 0.3871492843015193
0.03651856664801819 -1.006722367254733 0.005175039145107959
-0.9128860132499421 0.1158331294952003 0.3006952277292363
-0.774109665989404 3.538449487347944 0.3703799394576094
-0.1603149089013334 2.774257975007908 -0.5142437566630174
-0.6711087305439183 2.496174334552102 0.6470441271096308
-0.8506061011289359 3.641722659988546 0.5437375878912258
0.9845622861305576 3.653299954917334 0.6287033396463324
1.018202753210814 3.467214362711551 0.06547104667366169
-0.4764988526256286 3.687744702053328 0.3618358808808552
-0.9406264139581391 2.44468848643269 0.1584093556046682
0.1517391257688818 -1.079965266917559 -0.330031359542165
0.7753805203959642 3.350653890084952 0.5585159952716343
-0.7219602960956548 -0.3029434766290344 0.3442774353574468
-0.8287226629300628 3.466647951117604 0.2668172241993382
-0.6261581882919439 0.3153647852809923 -0.5313076342381355
-0.8613284758822448 3.34327982936154 0.5697686301734914
-0.945062792125475 2.74824046183651 0.2285181740556729
0.8117046278470503 3.527989700640456 0.404179445483709
1.072510327602344 2.095028614842422 -0.4612552783446324
0.4214325623891426 3.681521855172045 0.3886874784820061
1.046274803664942 3.7373550250018 0.6802211942702785
1.16552701309508 0.003625686388401685 0.0008738802497370388
0.8145960834076826 0.6232653860247051 -0.5321325406577243
0.8473581806082283 3.555538657906133 0.6071503771143741
0.7669583041819472 3.495189773931153 0.4137005786003278
0.9399314803264015 3.347924496429018 -0.472241548411668
-0.6471050977390552 -0.6724354324935515 -0.5935540051243251
1.047828021184022 3.341212234921753 0.5678437091971529
-0.78831323205754 3.105662272074708 -0.6459635269795729
-0.7838980489025051 3.212810672088418 -0.5218628870022261
0.4258094603822051 3.666056568766289 0.406917994757303
1.074480527210947 3.29491892100225 -0.1329885757623808
1.0114061222627 0.9852377327647073 0.4039710705399844
0.03514038180033258 1.322647658447493 0.7753998504651141
-0.3455949057416993 2.619439532870325 -0.5321467821248896
-0.721159129116857 2.195332174020619 -0.523553234835095
-0.656472801173181 3.449025435415426 -0.4531818440657593
1.067938058329208 1.647020071389192 0.316990323427479
-0.8229957071290672 3.335151008857421 -0.4268469667973598
-0.08724539837704379 -0.8800303033812973 -0.4930754125147679
0.1580979307318757 2.107076787305756 -0.4913947909984472
-0.6960317032702799 0.2504613056478185 0.375581323469764
0.4241119372692607 0.7917580570351755 -0.5247038500818029
0.3521182865468274 3.69061385918975 0.3633234080630129
0.8591313051315415 0.005031506599053663 -0.5995910287824809
1.076207240634523 3.292258871473864 0.2118525296911427
-0.3186333376199859 3.597875493022828 0.4237564747687461
0.6660561942023198 0.8969181260542418 0.6423395358803987
1.045147467549127 3.735735732273808 0.6844888480940561
-0.232360074672652 3.675387000872519 0.3985561070402547
-0.8522992316954151 3.741762048877126 0.5814788208447025
0.7838839883177529 2.224916554529753 0.7230680483812401
1.065859483916144 0.04765580848264193 -0.5937565796057938
0.9567450121510164 3.501596227450542 0.5942468142146341
0.6785448308042125 3.531440487439771 0.5018735234223889
0.0312826306455246 0.4601044550592662 -0.4906186482328782
0.6109649436637352 0.2102680714853819 -0.5388638463296402
1.108290652727142 2.093068594253461 -0.3430605596265239
0.8646914979434467 2.372065924621845 0.6696138356877565
-0.4328336879984593 3.524577464331128 0.5360811479383871
-0.8684795107754635 3.268386332920716 0.3659671886459757
-0.5347428305279746 -1.067616002312324 -0.2976838962553625
0.4361002567173488 3.471751971241181 0.4341199533124442
1.044166837448415 3.537770898449927 0.5187468238227254
-0.6687884954340475 -0.8775750579331019 -0.51180141669922
0.01079448648551929 3.168049807203025 -0.4863264773535375
-0.6100513355547579 2.775844877618699 -0.625531788761635
-0.9032749540354293 2.519864478917405 -0.5725264980026531
0.9653975651006367 2.834952146980686 -0.7566420846564002
-0.8620917704268803 3.372406566230691 0.630020356674788
-0.6960317032702799 0.2504613056478185 0.375581323469764
0.6452568560490493 -1.007489157897889 -0.03346117658610121
-0.9702891442202509 -0.5947894339270385 0.02623835356885075
0.4247052807059217 1.21748390265566 -0.5249945399152842
1.121978726476361 2.180634007632623 -0.05483324407058883
1.072014963975545 1.21931986516286 -0.4613037156858448
0.6973268782202867 3.361830011122101 0.5677898823143242
1.130786665710844 2.373104732986485 0.0944614687191182
-0.8491497240561268 3.352628408835574 0.3402932427188588
1.044161231145268 3.598437589312095 0.6729710906119049
1.135006261744123 0.003490167334746748 -0.5556012724233673
-0.4776225570563943 -0.247418464288654 0.3607607209599438
0.7743841304726252 3.649278636135143 0.3844780558318326
1.046980540335918 3.341698309773888 0.5644237352436643
0.7753805203959643 3.343898361575529 0.5514908595802369
-0.70038056588541 -0.2875700331612031 -0.7508675938612415
0.8578569061675563 -0.8775750579331016 -0.51180141669922
-0.4234550183655236 3.459036748461338 0.4245746556624772
1.131356818799392 -0.1883859523660615 0.3280925377341692
1.070089293984934 2.239567760911837 -0.458814572113058
0.9134498759205809 3.386950506412652 0.5684849837226345
0.7807029610626298 2.160390390020836 0.730529733497592
0.0106550374212442 2.774345898294215 -0.5001952408269772
-0.9858267741538562 -0.4440377916935742 -0.1622532882320297
-0.720697866268589 3.753540334368583 0.6419782708040293
-0.9238955756803513 3.111238943728778 0.3051811421145966
1.152193039279154 0.01030536160647953 0.2303967687653465
-0.9458172158488765 -0.4440377916935741 -0.5833066216751388
0.350530360873051 2.698054750882622 -0.5142694757210599
0.8213056740936403 -1.004379157794793 -0.0303216929006888
0.6608478967264103 1.185688516105589 0.7298829106047593
-0.9037765342242446 3.244580826809539 -0.05463878268149573
-0.033824196688413 3.48954839256961 0.5660022861582522
-0.5054117197951811 -0.5408678820559114 -0.5535921589212682
0.9784348068078541 3.494149355550252 0.5547466918457161
-0.3756059533909478 3.789472229713529 -0.1769953490240394
0.03349361402312938 2.268235260791288 0.7544088398757401
0.8657316970071374 2.440630600406201 -0.5895204266216164
0.01100321390983464 2.918844790131156 -0.4922195339434193
0.6954010380249988 3.551255617919915 0.6114548668312529
-0.4729514045258795 3.515960503454626 0.4281477260787072
1.165661974623304 0.003625686388401682 0.05492096041729767
0.7388966010567493 3.328842082842803 -0.5093359645238194
-0.8586440842463921 -0.8821557864457883 -0.2621659438537871
-0.2592444991642763 3.728981226566307 0.6532363205115138
0.9554773457605146 1.572972095778319 0.5809448537005028
-0.7766611797368389 3.259806046473309 -0.4954605883692922
0.1550017438289184 -0.12013175898853 0.3990461041495832
-0.2950171846112788 3.681690609698582 0.3848129887642681
-0.8550709480350502 3.748928457233121 0.5688328307091984
-0.5349594910386524 3.691691273320501 0.3407439470281176
-0.2160677605968993 -0.8797957729241999 -0.5124577515358662
0.03448383692091829 0.8971907726854866 0.6638520480855112
-0.9189286487674981 0.001423261713039819 0.3401526856853871
1.123679618237942 0.4760802359468295 -0.1411841604149505
1.041553323660727 3.713870092162662 0.6662614946863541
-0.6275288087709808 1.080172012056607 -0.5326234536050234
-0.7442095740675069 3.550735952764327 0.3806351904825056
-0.9872507268948603 -0.1355686529113946 -0.1528847189034426
0.919571023319416 3.598136463567402 0.3710588670201918
1.121162491780413 1.938044839289548 0.09291732762573723
-0.5704847952674979 3.521731623228966 0.4149377949434766
1.173014932499295 -0.07025991692244724 -0.07385527263268267
1.045305494406507 3.343348849306984 0.5546419700317352
0.03313798006209454 3.638105780608462 0.4285321409864624
1.173014932499295 -0.07025991692244724 -0.07385527263268267
-0.1017163941631185 0.3168257147151059 -0.5040897952222173
-0.7066059411382504 3.637699881163075 0.3537153691157429
1.02584161204362 3.734154363276164 0.6025911549309096
0.8162452993061391 0.9435694334793345 -0.5325348125619622
-0.7638085238830501 1.29286983978562 0.5600622116836633
0.7044472354072534 3.459671677943506 0.4170565823765978
-0.602535294875559 -0.05795788764222151 0.3680263449838581
1.030581044539361 -0.4254911241292033 0.3242381881484669
-0.3251195193449842 -1.085626628508606 -0.3059920734751512
0.9608119628131806 3.587413702774944 0.3433825720104203
-0.6604878013767991 3.366026614590544 0.5632531353206149
-0.9432369440168458 3.029642071199874 -0.05469031573814864
0.7735961791184018 0.8968641120803523 0.625680553182435
-0.4676949212785037 3.648716567344141 0.4257137936961539
0.154363810642183 -0.8801978601328987 -0.4792279924184411
-0.8643435761795091 3.361242792837837 0.5777011919338567
0.7829517073143286 -0.8501241446130574 -0.5212119213749842
-0.7277538434828668 2.144170836590855 0.6489578904881013
0.03093119060691889 1.36017311332775 -0.4914924675655107
-0.934754636406022 1.499267247241827 -0.1337822311315126
1.072014963975545 1.21931986516286 -0.4613037156858448
1.013176933127324 3.468236452936281 -0.2099782417063996
1.170298883998443 -0.5113274200919233 0.04894366968195796
1.103107422672347 -0.8017048014444194 0.1160964284532546
-0.9333207815239414 -0.7564381708057509 -0.1051802041257666
-0.2596573773181488 3.597935182263212 0.6276367826470073
0.5297401214897201 -0.6888581984184978 0.3106516072613003
0.668089389002494 2.053096135640079 0.7598128516715343
0.8948347723762553 3.565892695096213 0.3862356851640973
1.130733244513236 2.444686308182123 -0.1336129133113141
-0.3677140899210757 3.455198558139049 0.4284958785727918
-0.850594198577292 3.71260593556797 0.5793279086348864
0.8971924652822134 2.542916646595663 -0.6935466504916046
0.5174473039775964 -0.7524193949219251 -0.5159368285246575
-0.9765935638897949 0.003625686388401687 0.05492096041729768
-0.5951025352180335 2.376463284986961 0.6996699750161783
0.9108248162222692 3.644556228293349 0.301928247475176
-0.7935843204992161 3.424041155835526 0.5391378854570956
1.097134425684482 -0.8084353038269465 -0.2363609613736634
0.8347617552035671 2.921422362821398 -0.6899329610707519
-0.08856520939162065 2.052246496847421 0.7765627092799076
-0.6442504456271858 -0.4796352550732854 -0.6779221927453839
-0.2345381185507814 0.6243469351679666 -0.5244562193318392
0.008097786215423675 2.438828111165665 -0.491624881155456
-0.4099232602086577 3.709965157000923 0.6487925122587994
-0.8332011132057645 3.243210843641925 0.4065738452581436
-0.5771503047652072 1.465725578005273 0.7571580250953183
-0.485492608740509 2.224691643023866 0.7415170239280388
-0.3467437239746997 -0.4392528408624791 0.3458795534377708
1.016597213759507 0.6717622334842748 0.360590538761107
1.159167937175813 0.003625686388401682 -0.2328253879338115
-0.7276012811383879 3.441895610893308 0.4010189778431569
-0.9784750296844993 -0.1636298051535355 0.2857869119578169
-0.8725888553063731 3.332090738120881 0.2107225060981718
1.030879664148908 3.36494101595132 0.573065698864394
-0.07949836062284865 3.711802993195663 0.2614565824177212
1.173658489633425 -0.07025991692244724 0.0006977854147480617
-0.5388196636875424 3.758609819287686 -0.2922373086650433
-0.7975275568981559 3.501376313291307 0.595668877285817
0.4113280181330666 0.1755034496768657 0.3984787493703342
0.7957491443017063 3.058851732347946 -0.5965420168379833
1.044166837448415 3.537770898449927 0.5187468238227254
1.079448170478535 2.307758560843343 -0.4557658640984098
-0.7293861567593518 2.481244430129237 0.5991949470787327
-0.5704847952674979 3.521731623228966 0.4149377949434766
1.043238227155469 3.734883225585505 0.6786760262512874
0.1555747967101577 2.268235260791288 0.7544088398757403
-0.9075295594801759 2.37913693938362 -0.4503040965419518
-0.9400371586945624 2.373189222792001 -0.1336492059847347
-0.8235083514918571 1.253622357514132 0.4296030593416687
0.9783483949368678 3.538911720621405 0.5641824146410276
0.7053054010539097 3.635222959122274 0.4158153774608087
1.15935755495376 -0.5947894339270385 0.02623835356885075
0.7522589855929801 3.313196990379075 0.4445755226653136
0.8557359153539441 3.536868928612346 0.3962923400346846
0.03420111709392998 2.64526542320813 0.6844058663776788
-0.7016930410357815 -0.9926586454735003 -0.1569691511708886
-0.5464021366519787 0.2092180816045522 -0.5409248722868369
0.6954010380249988 3.551255617919915 0.6114548668312529
0.9210183430081269 2.207538341892982 0.642113835942179
0.03714695180191969 3.390932481149236 0.4557615496058353
1.011420353998847 1.119109752765994 0.4183186019526293
-0.8816905241783852 2.184722706093215 0.3193146312381754
-0.08925046668295805 2.569651386767538 0.6978615138609573
-0.8692980424888281 -0.8756356288922882 0.08004160488075979
0.544689555727224 3.675954358465256 0.3908878529391902
0.3176308207295937 3.327334637142001 -0.4722918262528231
0.2764775282949998 2.802406622551439 0.6430237557790248
1.077939320033121 3.176144676955587 -0.442822931581719
-0.9436884550218918 3.029642071199874 0.02202478512508737
0.3953645764360722 3.241304986981395 0.4947341465298203
-0.3531698826969456 0.7304734090973679 0.5849277216033214
-0.9781042016876073 -0.511453836187559 -0.1698188477274527
-0.854942571337042 3.75106866179393 0.6677725763429216
1.161035075621839 -0.1980202369621149 -0.4554678230548924
1.043292745533773 3.419955325761626 0.5200247955157515
-0.9037765342242446 3.244580826809539 -0.05463878268149573
0.4472266243166969 3.529780843247062 0.4300207919180558
0.8607216212256388 3.648515397225427 0.3637286152865782
0.8626221342590624 2.430778493770173 0.6593231375086859
1.087394727360102 3.244281903691365 -0.2164428934500409
1.041879454541397 3.647799605661263 0.6575930117532318
1.139929755825742 0.1559620276607109 -0.1494436602874792
-0.9101389583710848 3.102983583475871 -0.4422326648621792
-0.1610910937608156 3.39180273654254 0.4463772304051441
-0.5782029235297665 2.317151447736438 -0.5423215699193598
0.410262264090661 2.433829349268266 0.7214697288625888
-0.9368590471822976 0.3353098534279226 0.01004085840661523
-0.6700628943980325 0.005031506599053659 -0.5995910287824809
1.064004799557609 0.6442980185000646 0.283959769076772
-0.4759385124078412 3.534007521538588 0.4451066158853906
0.2242673372174166 3.727270359415777 0.6547067516723407
-0.6915309812562666 -0.9929317140816507 0.04804387952896834
0.2645841000679018 3.440708118060221 0.4448817597465701
-0.8299207278989136 3.468417847920418 0.01535347032439405
0.698743032491284 0.791229126943137 -0.5427390813103415
-0.5140640261782017 3.675085435969279 0.5779145386104354
0.7883207571126905 3.556528625529372 0.5483212799301297
0.6608478967264103 1.185688516105589 0.7298829106047593
1.052532319825851 3.444155110997088 0.6294188309618718
-0.8574536395646752 3.377846624868308 0.6134333185369407
-0.3757227297224974 3.603642163475127 0.4291655843297375
-0.8394023781354314 3.385077699541124 0.3375867367905198
0.7993429527117867 3.206288623426793 -0.5471912474125833
0.5568002607925978 3.616722717734274 0.552090930026661
0.22441874253178 3.596240627077466 0.6291288249855535
1.141603768644439 -0.6834405617916572 -0.1419453156464975
1.184106422644584 -0.2601961360411624 0.09274872102258802
0.653244755795841 -0.6907852669447567 0.3035329271090252
-0.8540704705168879 3.761682350217176 0.6466404480564197
-0.4641763450623322 -0.6907852669447567 0.3035329271090251
1.139281923719514 2.673368043257139 -0.1334801433931361
0.7075022266367037 0.08140923287101409 -0.5406414027987775
0.6853613386214256 3.659108544658638 0.5516215909283246
0.04079375362919356 3.784105163052813 0.01119904582979531
1.052043316962147 2.676812965141455 -0.7052850270196749
-0.50633262729149 3.551255617919914 0.6114548668312528
-0.8512461712787005 3.73904225563522 0.5895166941754284
-0.8947557549271561 -0.8449435776525409 -0.0929635961606478
-0.08674420872235711 1.750905807726687 0.79717047779969
0.7354705473854873 0.2092180816045522 -0.5409248722868371
-0.3508766070755776 -0.01521482537006827 -0.5265938645304725
-0.6773538054239944 2.374573218143258 -0.539575647032952
-0.6949048103183714 3.116899599834912 -0.6451992486042308
0.4046374779696234 -0.3703496777024349 0.3613736126239234
0.7699932625825336 1.049268635350144 0.6764853742188538
0.7244906153324557 -1.060048084243065 -0.3636373776828251
-0.4694880984344459 2.953638897355265 0.5779729082352576
-0.9210679670590976 2.299907709431102 0.2287236097583813
0.7242199230366114 -0.9510173754582951 0.2107029496793113
0.9125553666343308 3.349218027201933 0.5368966561518133
1.012326737074032 3.372597234696913 0.5298857324585429
-0.3449527439567162 -0.5241778796582834 0.3357618923522697
-0.4733167307997162 1.751447740071821 0.7807555029388841
-0.6752834934807035 2.221157261189527 0.6926980456861793
-0.9099693812870358 -0.2019227771236175 -0.7005807459412359
1.079639864621812 2.853984507990273 0.3978525703807513
1.159167937175813 0.003625686388401682 -0.2328253879338115
1.02584161204362 3.734154363276164 0.6025911549309096
-0.7414518359861253 -0.8950323153915194 -0.5032420829869155
0.5077017483534944 3.597875493022828 0.423756474768746
-0.9627002662926704 -0.5945464185038754 -0.258544349548961
-0.8772720331264494 3.097531343019405 -0.6185640578242406
-0.7935843204992161 3.424041155835526 0.5391378854570956
-0.9332387984197886 1.219594935731102 -0.1342045832409407
1.095703981971884 3.099682786721618 -0.5486877659305269
-0.8336502978971636 3.406497458874966 0.3358020621723319
0.5784383724718809 3.546469691226855 0.5421862699362151
1.007650925401738 3.731814751539214 0.6066837099756022
-0.1623535463690011 3.794001284042261 -0.2856454465976734
0.8147435394569732 3.501557011284267 0.4066383607871199
0.3617100883457016 3.465953960750913 0.4380691804376926
-0.6550261394220908 -0.9061175258169272 -0.5102380256017638
-0.639035986486719 3.723103790992942 -0.2291060353679907
1.172831877000967 -0.1355686529113946 -0.2327364872900327
-0.3395147633446231 3.117706875054044 -0.5227540976749835
0.1440171271466693 3.798120417719404 -0.257518436027806
1.119221957590554 2.827035622207298 0.316039100956049
-0.6073893090102056 -0.6710931683664618 -0.5684006695648938
-0.625527672674174 0.6232653860247051 -0.5321325406577243
0.5102434586467793 3.537556330636454 0.4288665415662039
0.1807193232143712 0.02793113041981792 -0.4918391600472066
-0.7057663616427466 3.565892695096213 0.3862356851640973
0.7278880744210511 3.758609819287685 -0.2922373086650433
-0.9946424671585539 -0.3216659847936071 -0.07688968076804946
-0.8093531285783325 0.6303570291115205 -0.5134568441542552
-0.7336253892138765 3.42136445971655 0.4029498725694068
0.1782739242477679 3.168049807203024 -0.4863264773535375
-0.6969537920921405 2.696554168214293 -0.7460264863681051
-0.2976263373625599 3.392886343574372 0.4386084484355334
-0.2356571996176917 1.360224324655617 -0.5250044992821062
0.7369177867310246 3.761353603431521 -0.1693746789273719
-0.8373942805297338 3.753005920830804 0.6123229862097368
-0.8588159756775443 3.400254138128135 0.6420271098817245
0.7719294094641924 3.686533033488237 0.6384632761882763
-0.8133388988553979 2.312338153909577 -0.5144207110002419
0.6608571752360983 1.607885161216197 0.7840731614550498
-0.09070691698621045 2.375027306455907 0.7351123307586376
-0.5886143540316763 3.695663378819915 0.3028447965300395
-0.5916345503291211 2.160390390020836 0.7305297334975919
-0.03608123814388648 3.725437380060626 0.6206795780854655
1.121584405449425 3.03629775560034 0.3076911331079829
-0.9417182549773346 2.373104732986485 0.0944614687191182
-0.9294250065221691 -0.6801104078551459 -0.4587079422207467
0.03094636909496419 2.050080089783041 -0.4914547335155871
1.170707603895542 -0.2602214192602896 -0.334725984856335
1.104384646227958 -0.6124480933350727 0.2785887105318471
1.046944954227916 3.330714778019263 -0.3246771535649192
1.145413014610701 -0.5109937507790617 -0.4561797327867167
0.9881739699477583 3.412739540682926 -0.4052360397022961
1.007192727137523 3.491447169463526 0.5518659608298904
1.026494200899018 3.490423339734622 0.5470507765080634
-0.883587426518646 3.208047497163292 0.3699401498286509
1.129324324407365 0.2306656825101601 -0.1449434014984816
0.1580504126834045 2.147479904633921 -0.4912766501916691
0.844931991633231 3.35940065834062 0.5341137473476583
1.178765190556791 -0.1355686529113946 0.09502801901226499
-0.863342919416603 3.355835699177092 0.6043013569987128
0.7354705473854873 0.2092180816045522 -0.5409248722868371
1.056969869152369 -0.880224143386161 -0.1072183225448844
0.03664364489154476 -1.053698725157889 -0.07848181127779315
-0.9836203551061362 -0.07025991692244722 0.1535459038074434
0.8948347723762553 3.565892695096213 0.3862356851640973
0.4947574520303044 3.451534308497688 0.4322582390053403
-0.3477915869523929 1.750994783655874 0.7907323801074678
0.987012714335477 3.553657505199582 0.3152827637787203
0.476912124037943 -0.7993805259203184 -0.5143414474390816
-0.6324275319189376 3.722920684628315 -0.2925428756402072
-0.8083792556027218 0.4677034886594192 -0.5131296273563151
0.6932881535372728 3.358300723520237 0.5386237038130719
-0.8843664942354969 0.6353828727874054 -0.4605173941177221
-0.4386894235666209 3.519085275339103 0.4300783744199029
0.6142175318952658 3.609989321474617 0.4468278823810638
-0.383418685452753 3.515398593563288 0.4299751105345975
-0.4613524301546144 -0.7479886614991762 0.2915267989037854
-0.7677133940275355 3.358406373334147 0.5329629113495215
0.1779708762895744 -0.5410205839744243 -0.4930903339263081
-0.9504598213002133 2.673403669751815 0.1558558964348726
-0.8211895291630295 3.397433886081997 0.3663943644919818
0.4035460193806518 -0.4390174547171916 0.354025252952423
-0.618960540573019 3.618576820374432 0.3892882251669469
1.181541304533882 -0.3826031957851859 -0.08221778727100082
0.4502068319793496 3.376425523120437 0.5795807436516282
-0.9039956803881684 3.244660611119341 0.1408857319216628
1.036478201485143 3.754914356119367 0.6074421961096733
-0.8567300480710138 3.682396255851689 0.6950273685358537
0.5126170602321332 -1.025400715505922 0.1412328102433713
0.9020128139096829 2.48136484869129 -0.6494706636533836
0.5407813305300323 2.48285574518581 -0.5271211908314284
1.039699406127563 3.39338231238474 0.5231841203653185
1.139260992172345 0.08273317525523476 -0.3355938541126063
0.6998680681268009 1.502562934917639 -0.543040606774418
-0.5071879406298309 -0.6691852903456322 -0.5427688714050063
0.03664364489154476 -1.053698725157889 -0.07848181127779315
-0.6411252362857253 3.673949011679631 -0.3811115040783544
0.5995633953075723 3.600709361105005 0.6251941402819371
0.8850317967962772 -0.6056515506517677 -0.654182567216181
1.037866865251544 3.60491755378117 0.6380736760771453
1.036972035992199 3.490522470868012 0.5406250558374541
1.036003682590144 3.407785612581332 0.2010842706983363
0.3526013403569399 -0.1029860819856855 -0.5092461258063127
1.050316288421565 3.349930148467248 0.547508373652086
-0.8291343424773057 3.467214362711551 0.06547104667366169
-0.8521914884220097 3.764922514210848 0.6158121644983319
-0.8211895291630295 3.397433886081997 0.3663943644919818
-0.1587950670485507 -0.4769121186309688 -0.5100852994742273
0.6755861623124685 -1.079286580304553 -0.3032875273525473
0.6997236087354647 2.05089551978988 -0.5430018917479689
-0.5782029235297665 2.317151447736438 -0.5423215699193598
0.3541041632581014 3.797531376308338 -0.1600230064100779
1.142250420453619 0.1559620276607109 0.06194367325130921
0.6850407921879553 3.538334190211242 0.4700304649890368
-0.7686238526515031 3.34919243869719 0.5367028400886811
0.5463443614763381 2.223777497077871 0.7512588927183239
-0.4748971797988402 3.647793000799721 0.4871646863291247
-0.3574607363728915 2.375144743243796 0.7272880479686843
-0.724458936590558 3.36686227707067 0.5620547922727811
-0.7828739405168803 3.486870456369474 0.376723713302485
-0.9541738001912578 2.820258531215655 0.02277647083305085
0.8685677113308056 -0.8441755027426519 -0.51268503745636
-0.6959633860627685 -0.6056515506517677 -0.654182567216181
-0.4747171885921658 3.487698362219358 0.5453176308422952
0.1440171271466693 3.798120417719404 -0.257518436027806
-0.3700455341695676 3.655772378644754 0.4092323750034408
0.6875838312553994 3.64344794748758 0.5192554112107956
1.039338767566966 3.589280323169217 0.552039430321813
0.9098821120392909 3.689154943473163 0.6356568251521757
0.6962344172531044 -0.289705765576381 -0.5629150105000376
0.4241119372692607 0.7917580570351755 -0.5247038500818029
