3.336775304222567 2.680534744503048 0.3474312761171596
1.624523381989931 -1.211150306899347 1.271398968314966
1.698614770257193 3.217742311305454 1.494258032804286
3.305668435278988 -0.4613442542848709 1.495277990626714
3.761330034446861 -0.1937045006474177 0.8813730132446918
1.449150513770094 1.552852679393919 1.31565295895891
2.527481032521438 -0.06729221057285449 0.4594819807304515
3.765129244827874 -0.08625999631766597 0.968207756502242
3.769292082360021 0.02428397006808095 0.8834003658928481
1.492804378205115 -0.543782487092958 1.393652431689677
3.51750803763148 0.7766728621013129 2.178034884049296
2.162072810638733 -0.06729221057263513 0.4594819807309937
3.700783141454216 -0.003463073025772007 1.476533111935164
3.689973451195734 0.6098232288433395 1.672545070605843
1.447266271128093 0.8545450841502086 0.6132458876973188
3.720939246806149 -1.014203058290612 1.02234753567616
2.828643267175892 -0.3159476840308197 1.555837516176361
1.43181060068838 0.980597762304033 0.8169882826177363
3.615852874235737 0.1158905079443529 1.51531935380114
2.002318624812727 -1.040611990738865 0.4704251776485839
2.777253458413977 3.33363869503234 1.724968894378565
2.689776467134666 2.876646599806158 0.4683548816001278
2.914722153961676 3.492675613784668 1.183784767845428
3.732374256518642 -0.5118940907733968 0.6269249179980629
2.483581986716856 3.506290849834808 1.173209366685302
3.730640826054879 0.05704727323660928 1.445749852289179
2.421830026552716 0.9805977623026897 0.4598152640070448
2.354848809763964 -0.06729221057276567 0.459481980730671
3.420324963054536 1.370848946066291 2.252999088142732
1.494356945779124 2.6125394720976 0.6333393437423563
1.57617357091464 -0.1106247516830893 0.26922555351416
1.465544189765708 -0.1937045006474177 0.7197207028589946
1.430621856871887 0.8545450841502087 0.8967165308713352
2.356348631626935 -1.010003289901803 1.471341752815849
3.781532551280905 0.4097156382107069 1.197726878596893
3.554525066963074 0.3037523903059122 1.708001069500783
2.58531437835846 -1.111824113022994 1.441831315786052
1.477214674230317 -0.2869258802992041 0.6268341345585918
1.71518495863217 -0.3890882988315106 1.476343326867673
2.552938676862132 0.7751243123922629 2.249302250534115
3.48086454477838 0.7392487214676984 0.4599339464196387
3.226289955600439 -0.8640787527600745 0.4392644683941445
1.566142135359042 2.339287241001366 0.1001125309067616
2.181649672872551 2.876646599808217 0.4683548816004351
2.153162856338204 2.146133096594461 2.270678015814053
3.772990459166437 0.7392487214676983 0.6133670950012918
2.433728484760397 2.336520464071117 2.271639400064039
2.48698441261242 -1.168943254325647 1.368085650287279
1.46457559317241 2.339291861762159 0.9884902301766512
3.74616887778397 2.246425977475091 0.6322117650163581
3.046458540767281 -1.284287194924604 0.6039954759036155
1.680724630471039 2.612539472097599 0.05101801112632416
1.543228197288807 1.379400842533128 1.713970042077893
3.740994654324313 -0.576138434471528 1.32459327945862
3.32655440595638 1.779568469179082 2.261299897832303
2.583327629177379 -1.275720285075326 1.226920426861618
1.504634886143119 -0.7682988165117461 1.370140128462041
3.234419876626362 -1.065005313095569 1.402133847618152
3.758891129529593 2.062644135096354 1.317960357003967
3.33177391312854 -0.3159476840308548 1.508775864628741
2.778489820079068 3.016239976790991 2.224921707394586
3.386533961796621 3.219155269642771 1.563037621275593
1.623456812951879 1.009126104620499 2.00533543300474
1.542833376411625 2.060716435332136 0.1929956227072733
2.548265356758567 0.2716786642517186 0.4610729193741752
2.064511070670632 -0.4613442542848709 1.507573584518481
1.8083298722712 3.218774102389088 0.8615060956959006
1.678768435809048 -0.605262915050688 1.447611914551844
1.857287639573566 1.113920729764612 0.4598061608617526
1.525947079471509 -0.09116060095272296 0.3858802360469485
1.490380982850865 -0.2864581906319731 0.5013237256165323
3.717944263498495 -0.9116422484314866 0.7166190883527434
2.555903344633173 0.1711193500290363 1.601359934748388
3.726523236845737 -0.9119850345557712 1.207503558333738
2.414095863506311 -1.166818038626371 1.36907588425144
3.789153855825007 1.367619328301374 0.817386857640122
2.585448915243823 -1.185086801285658 1.341651888287341
2.931294755091897 -1.284208789452536 0.6038957720145113
1.497043752242471 1.113920729764612 0.5108264256959205
3.046458540767281 -1.284287194924604 0.6039954759036155
3.768236215101856 0.8679472269109 1.314004532841752
1.499083365165011 0.6333720653760808 0.5113889785831608
1.769862229726471 -0.2890779753245892 0.06881692375109345
3.761898800603809 -0.1937045006474177 1.154081888601111
1.532802683534071 -1.179870409406755 0.8599808142871777
2.175477535749911 -1.299872256645122 1.045104460877918
1.715889073444684 0.1220012100348895 1.537775648717729
3.717729807602876 0.4062750953480303 0.5112637242798586
1.703371658048002 0.7766728621013128 2.178034884049296
1.496848662296298 2.435772870307905 1.465141135919538
2.12733433185014 0.7392487214674052 0.4599339464195044
2.466143570783025 -1.214559504380802 1.295740927725117
2.830792962243676 -1.214488421558412 1.295842318878971
1.535400216317427 -0.9036926556111473 0.3456820255325674
1.432476223302388 0.6333720653760808 0.8912993592042222
1.579738413658413 -0.728051968549101 0.1022662161946497
2.301451087767365 1.004180586909771 2.262208146666322
3.465202828875341 -0.06729839074208692 0.3184822291780364
2.294582007276737 0.4645439210179893 1.978486695530632
3.32176018685522 1.544604856077128 2.263838466044705
2.713953057859499 3.332039386752108 0.9631632710540869
3.66084470440213 2.246212303816917 0.1187535274572224
1.988947614422616 2.246409305293303 0.4254651596289286
2.578760147509524 -0.8935020144191318 1.498010029331026
3.029638364887666 -1.19603588204887 1.320043691608176
1.692647246996897 -0.685882584950312 1.43979053524705
3.337484305324641 -0.5118940907733816 0.2988521522050244
3.219175161312941 2.876849209252523 0.4656965078762833
3.207026737465548 1.779495040706494 2.264003199789626
3.216611456859649 -1.169432768074505 1.33367266932967
3.302130099714005 3.219069816416678 0.7977022866264275
2.020060431248056 0.7751243123938829 2.2493022505372
2.284505280637259 3.498226567846718 1.409239644409714
2.436641399800899 2.612304117737448 2.27187465494103
3.11301596937576 -0.07094441591318196 1.557339643938474
1.63395597261129 3.139823111552009 0.643020510546735
1.57617357091464 -0.1106247516830893 0.26922555351416
1.739262225465499 1.113920729764612 0.4598061608617526
1.465783592935953 -0.1856963828041528 1.347476309091235
3.722893425705928 0.7392487214676984 0.5111779871809022
3.182857119488205 3.032585088005643 0.5289567127053552
2.978132594058546 0.1957895407095282 1.597233958133809
3.660298100983868 -0.07752671080969212 1.484224183015685
2.573396302106062 3.219604351927344 1.821780846632346
1.532802683534071 -1.179870409406755 0.8599808142871777
1.918072296695818 2.612377546217794 2.269020419161122
2.040058843160563 3.076379706584462 0.5745981859527114
3.509095032794006 0.4665925823331567 1.972014641795511
3.723646941826822 2.833227451008268 1.093507014609654
1.63100422085693 -1.254756934384235 1.147066052902001
3.72510376495858 -0.9119850345557711 0.8570143144462443
3.741345861452631 2.612540798628765 1.094427890850168
2.48698441261242 -1.168943254325647 1.368085650287279
3.70459621923486 -0.1065627040597343 1.464665734247804
2.491039655140324 -1.113404388682139 1.441368685689883
3.181672732253008 -0.9621896173251181 1.441428132313805
1.48119569544471 2.612541955970647 1.203400342423595
3.340263692629152 2.339287241001208 0.3117563857980504
3.69156906817725 -1.182000940108516 1.031263570516669
1.429915990593981 1.466422099703384 1.097580568483148
3.744653877759155 -0.5841494982254868 1.149828093007511
2.327784564962111 3.107030347855369 2.069579272021994
2.666378031592501 3.032585087996143 0.5289567127038227
3.768242476002599 2.062631285872094 0.8175846980628824
1.697922519123428 3.191066401221198 0.6947344725369464
1.519178281986706 2.961711893139903 1.303427569254917
1.430558709166553 1.552546385152797 0.988765898261653
2.668572166965216 0.6007553970172657 2.17517738886717
2.833117311845984 -1.275566717704804 1.227042980554003
3.011047212859263 -0.2425178403050268 1.554739532961524
3.475026696928651 0.271678664252613 0.4610729193749814
3.705379890718102 2.9529003777886 0.899097808748304
2.175911652231843 2.680329667552036 0.4609950190862175
2.467204561569851 -1.009461230348837 1.478893992225455
1.698614770257193 3.217742311305454 1.494258032804286
3.431932519244276 1.973889756908347 2.252234093186194
1.968829369423329 -1.203391328331406 1.300131683561935
3.740279654736702 -0.3653093384133914 0.6279060308308134
1.499263774805405 2.833227451008268 0.8180282754617066
3.539842536048052 2.681620389072644 0.1042548741443823
2.375306567364578 0.03845407546087894 0.4621423178326503
1.506681149197723 2.900600443527123 1.199673724058775
1.474977527342856 -0.5118940907733967 0.8002438294421407
2.925064993729495 1.973522614543115 2.266317187414837
3.775288549540889 1.882316146589379 0.8175179625092384
3.037234356662258 -1.287823301240083 0.7277111824628982
1.52181400703829 2.530896030144799 0.3020694092580947
3.408512207919148 1.981069772575682 0.2757593145225395
3.200761855249596 2.240428160434066 2.271578159856322
2.063879691292669 3.232686358545771 1.295244394699986
1.503149888076606 0.4062750953480303 0.5112637242798587
2.362999618397144 -0.7988549798737845 0.4583120513771523
3.244380194451965 0.03095055948162381 1.553875976422017
3.695674111719852 2.612539472097599 0.3151475592052914
3.749038598402654 -0.3653093384133914 0.7214647746458932
2.671658141911614 0.9805977623023507 0.4598152640069194
3.723646941826822 2.833227451008268 1.093507014609654
2.421830026552716 0.9805977623026897 0.4598152640070448
3.510814848026803 1.131482660890512 2.193351765451449
2.164914566617863 2.612304117743342 2.271874654945312
1.469885273661754 2.435695953696333 0.898978903056065
2.038282085636695 -0.3159476840308547 1.521071458520508
2.788297898851335 2.993093719278201 0.494342351084333
2.786905526664175 1.255145500666956 2.266263223509937
1.471609090552565 -0.0865553985119257 0.6223211865279849
1.447457146279027 1.973923636318645 0.8989209807808036
3.675051858305668 1.263683789942053 1.713081196442484
2.421830026552716 0.9805977623026897 0.4598152640070448
1.456642459256887 2.062631300574394 0.7309381181027757
2.549556068401572 0.4068105798973977 0.4606232390499076
3.051264673691998 2.755402621898446 2.270945711554766
1.563364675748704 -0.2491018195608305 1.47358786883356
2.213984983630639 3.423092535802764 1.294330960766052
3.564660164656974 -0.461344254284871 1.462789617315891
2.46596920099284 -1.29252921425062 0.8606012237368992
1.88404552882277 2.530896030144632 0.3193774418756868
1.504839442567225 2.834040743861433 1.310558608761993
2.786905526664175 1.255145500666956 2.266263223509937
1.941259440536523 1.654729252575347 0.4603173117567638
3.182857119488205 3.032585088005643 0.5289567127053552
1.893702810698919 1.889822046437397 2.261649164635368
1.480073091143515 0.590700999646496 1.442841197776147
1.696112210079376 2.815847373258218 0.2751852056763069
1.831375787884517 -0.8935020144222264 1.424882416090639
2.299778144160784 -0.3159476840308364 1.554882672955181
3.610233578257299 1.367619328301374 0.4664105698078257
3.295388812432172 2.755476050372995 2.268091475770572
1.541068689819682 3.126739848376302 0.8095119454486235
2.436205624200157 -1.152152778174292 1.395233121772942
1.793589371254473 2.146500238957639 2.256406836886685
2.549215525084623 1.466806958556949 0.4598007048068214
3.634838601096086 3.048796354954473 1.67971267187659
2.662159807520839 0.03010875866094987 1.588426848353713
3.743665021449166 -0.2869258802992041 0.6268341345585918
3.49797653992158 3.197452970059942 1.670256661423384
1.96847944118007 3.219499131389352 1.573002831255419
1.501436863728738 2.153747237827962 0.3219188694478692
1.685058263103537 3.214817177433449 0.8604203175096817
2.67160899942621 0.7392487214663397 0.4599339464190161
1.476225817920327 -0.5841494982254868 1.149828093007511
2.165698946254579 -1.274151890496311 1.228172076479902
3.463471124190855 -0.6052629150506881 1.454034326166574
3.77559654364207 1.7742795033391 0.7287272952629849
2.384440013634972 -0.2425178403051712 1.561838052055559
3.535420855949909 3.211942246730248 1.179179858963607
2.293876837518327 3.422335062536903 1.094635304908782
3.509095032794006 0.4665925823331567 1.972014641795511
3.790192982929263 1.551969081989536 1.097668862943205
2.477668744700736 -1.063125201604919 1.463608516808806
2.028813057557791 -1.123311620876641 1.376052482683265
1.472365106804404 -0.5118940907733968 1.152264450068629
1.432476223302388 0.6333720653760808 0.8912993592042222
2.743210950978611 -1.063125201604919 1.463608516808806
1.519623474847208 0.4807734502056726 1.614737081243576
2.264352972384869 2.951010190195289 0.4752359376158478
1.485046840363829 2.062269456911086 1.46503015173848
1.521236355736844 2.898732139408319 0.6255439060040077
3.2939469589092 2.908676485428407 0.466804475814727
2.28588141287601 -1.242440879420447 1.268473962382721
1.692337604540963 1.779935221091673 2.192898976190286
2.55339593966467 2.435051358384596 2.271652149916532
2.099343168987068 -1.116134945357353 0.5186254752381666
3.780630290160987 0.2667850008894448 0.8876816758692695
1.480187650183447 -0.6558082848240026 1.047871339773059
1.517704311778861 -1.012357429778649 0.626930172172679
1.896247981032101 0.03845407546135227 0.4583215463965701
3.744653877759155 -0.5841494982254868 1.149828093007511
2.466143570783025 -1.214559504380802 1.295740927725117
3.634838601096086 3.048796354954473 1.67971267187659
2.787151210918408 2.336520464071117 2.271639400064039
3.227277825309694 2.435695953695532 0.4264276623135231
3.573878633090447 -1.015597923348611 1.393310114607683
1.701204005351196 2.337434563453679 2.200289353567644
2.52700365223494 -1.243277271589282 1.267768473158627
2.16498907559627 0.1764899632480273 1.595617978876529
1.485046840363829 2.062269456911086 1.46503015173848
1.472880727047886 0.3007496209358483 1.404342937508929
1.514556770836244 -1.076566396133443 0.7232245907271929
2.567745668557769 -0.3890882988310905 1.54947094010833
2.540331855387096 -1.156231573026426 1.391408204653513
1.883281628607231 2.747046775507639 0.3726241266202499
1.450706973617266 2.062632590708254 0.9890297564397746
1.46845776169244 -0.2869258802992041 0.720532851497838
1.789366527318901 -0.9556414454724872 0.2129895953622742
2.961658950361172 3.31401269038918 1.61371688950222
1.525947079471509 -0.09116060095272296 0.3858802360469485
2.922585720623277 -1.197922120272969 1.318933990175389
2.552637438907599 0.6877107885945771 2.236528653064362
1.4302039910293 0.8545450841502087 0.9877018601099793
1.485094733419901 -0.728051968549101 0.8661288141836346
2.530032862561961 -0.862984661766436 0.461071436770282
3.413427554998502 3.217817800501204 1.293848412175096
1.889105782550943 -0.3159476840308547 1.508775864628741
1.877623250848701 -0.7892369005189556 1.448832154189419
1.503318926390938 2.833185233435841 0.731462555921737
2.742713979080776 -1.184113360758652 1.343180880798574
1.52181400703829 2.530896030144799 0.3020694092580947
1.731597783915696 2.756182735667011 2.199641652467181
2.529690929392608 -0.9828574789718058 0.4658649456937447
2.310219271205778 -0.3890882988313866 1.548516096890215
3.367817054753425 -1.284628783716588 0.797367716531043
2.039215392238865 3.165221130112558 0.6635476113618033
2.529050669026079 -1.061865983542937 1.464130898638198
3.780630290160987 0.2667850008894448 0.8876816758692695
3.709169250297319 2.899576490856858 0.7304877129494595
3.356980391704014 -0.02715426142279704 0.4421842080488124
1.822288204062038 0.2146902972697121 1.562449475330644
3.67915026992905 -1.132239868967763 1.31957445397515
2.764862683112938 0.03014779459159713 1.588430698608764
2.788525535846058 0.6877107885949041 2.236528653065061
1.469336533292079 -0.357299171353538 1.336383415125327
3.203590016805668 -0.8935020144222265 1.450948377786731
3.438976372284227 -0.4387489438926808 0.002412296729447011
1.471386699318971 2.435695953696333 0.8177626529904871
1.451149717949755 0.6554116905994423 1.308814083216127
3.789153855825007 1.367619328301374 0.817386857640122
2.057496193179135 -1.289682061790526 0.6621008900332053
3.100285823673914 0.27167866425242 0.4610729193748075
1.715027252467977 3.152075918223425 1.851019166390364
2.129326681468077 -1.124185738008044 1.386804034838164
3.187694154645253 2.612304117745082 2.271874654946576
2.040058843160563 3.076379706584462 0.5745981859527114
3.299975605152885 3.195833758743133 0.6971812047098397
1.438204192379263 0.4043637482167978 0.809549180432382
2.788525535846058 0.6877107885949041 2.236528653065061
2.157596419390369 0.03123276776680631 1.581416130933254
1.458978010904164 1.882899406238571 0.6278220896026278
1.695112278875743 2.056761442924192 2.197439930328733
2.690983725842496 -0.9217211711636913 0.4634353130053716
1.479533834226851 2.612540798628766 1.094427890850168
2.549217784368481 1.113920729762753 0.4598061608611301
2.039206963426475 -0.962189617325118 1.441428132313805
2.178748446898468 -1.292529214252342 0.8606012237384385
3.688190601730389 3.057778617095328 0.8165649465810176
3.093966823283645 1.367619328300913 0.4598050696507446
2.528681153490766 -0.28932839854265 0.4562972167642699
2.583358429045703 -1.243277271588547 1.267768473157798
1.8518130204638 1.874964753152947 0.4302967660796367
3.603579208745273 0.7801759691950112 1.99301694360882
2.554327410986183 2.681987718848266 2.2715767473259
3.768870527540206 0.02460204110473008 1.165943185908879
2.586813097443443 -1.156342805721371 1.391160080719532
3.78467986705458 1.113920729764612 0.7269381125849511
2.329103321034377 -1.172623346403761 0.5433201896345539
1.56767156861538 -0.4387489438926808 0.07990612863015006
2.686876539278103 -1.184892113180643 1.341957686790105
3.060973236620476 2.435051358392154 2.271652149922292
1.430054514266944 0.9805977623040328 1.098407099660312
2.983790513925379 0.1176379055457531 1.596733135645005
1.469503141006866 2.24646799780059 1.316818909955875
3.770797555451079 1.653675668528075 1.315833282332165
1.4819010654073 1.973982074543809 1.463647103442501
3.777031531193067 1.882239134504768 1.098984871397082
2.815943956536453 -1.184336332600954 1.342325325407706
2.537374692119358 -1.16977539477339 1.366733900635993
2.690089777830591 -1.198160420784219 1.319055242980758
1.712258823666995 -0.7892369005189556 1.429703088537862
2.667860628335947 1.370481803702313 2.267270267068355
2.408141306233036 -1.116134945356279 0.5186254752374819
3.64175303581994 -0.4679289705809291 1.457138354763657
1.787443143023061 -0.3890882988315106 1.489049980904499
3.233465562561956 0.4068105798983387 0.4606232390505765
2.431027426157365 1.779495040701009 2.263879352598497
2.205659733860719 0.2012812119935538 1.585394663322884
3.576625845006705 -1.250245660129961 0.7259313421473049
3.580645956747647 3.19731622377355 1.620516765143203
1.496520343534105 -0.6154431042649249 1.386074989545282
2.859131302206529 3.430743285432898 1.038973530889731
2.637857326931832 -1.061551179026837 1.464261494094446
2.193508310254178 3.31195775584209 1.514690833744441
2.690812457915107 2.612539472093679 0.4613008468646601
1.440108237715361 0.5275828321114312 0.7242731958141819
2.69548148549872 -1.284208789450325 0.6038957720130497
1.800869371992202 -1.116400206348339 0.518630166937875
1.489165514205417 2.530896030144799 0.6330412397170376
1.925265091292315 3.076517341011158 0.5747435173355654
2.55416953036152 0.2043641821818638 1.565656312916218
3.384432245906507 2.339287241001366 0.1412440669322477
1.446408517741607 1.882183371410407 1.210580423259684
1.492484318585915 -0.5841494982254867 0.6257485312075983
2.656317609200389 3.147267460152285 1.94463499674402
1.898693066725739 2.146206525068555 2.267823780029783
2.961658950361172 3.31401269038918 1.61371688950222
3.068357206086397 0.6877107885958503 2.236528653067084
2.691041063241942 2.807804248209296 0.4646136333700752
3.216611456859649 -1.169432768074505 1.33367266932967
2.305719874771765 3.213320665241864 0.7396203611789449
1.625209738571348 0.1892026236018529 1.551112168478833
1.466580409909345 2.339287241001365 0.8177169835700948
1.75555647501884 1.979655272295968 0.2095415772614397
3.062938080785731 1.255145500668483 2.266263223512013
3.722682956327656 -0.4387489438926808 0.4965905906200496
3.277245188009482 -0.6052629150506881 1.480100287862667
1.537989860057599 2.244900416158938 1.718205085716477
2.150387758947476 1.779495040705244 2.263903824011391
1.840570365836604 2.530896030144799 0.14906407604678
3.400085563991611 -0.2054666686463113 0.2212748954936205
1.480073091143515 0.590700999646496 1.442841197776147
1.612507790951498 0.6333720653760808 0.4667236930881573
1.599189547517745 0.6089226238746159 1.943123055488826
3.788861924867113 0.6333720653760808 0.9829322865782184
2.921976011399204 2.240428160429916 2.271578159852989
1.48924362304608 -0.4715268995087117 1.400362853735122
2.78240465841052 2.755402621892294 2.270945711550496
2.692198542187362 -0.2893283985426501 0.4562972167642699
1.57687203559567 -0.5841494982254867 0.06554181441676939
3.045589411908225 2.435695953694468 0.4546070192763289
1.530696652182804 3.057513574659609 1.086641388595321
3.489281911763785 2.756182735667011 2.199641652467182
1.616113956154892 2.436050533675546 2.014977141892433
1.991817533418678 2.33928724100059 0.424022763664378
1.991787066723912 2.850707897530426 0.4603686207034727
2.399570095949311 -0.3890882988312746 1.549470940111404
3.605774017537327 1.468054363727002 2.010511791062337
3.041319876070661 -0.9621896173251181 1.453723726205571
2.873408673068638 -0.9621896173248492 1.481391264767333
1.857519494748884 0.8545450841502087 0.4598516765906988
2.173335348946176 -0.4387489438925751 0.4526232704750145
3.056788358308953 -0.123795378392955 0.4583534356201029
1.563364675748704 -0.2491018195608305 1.47358786883356
3.069221262676217 2.055621967410569 2.268774541502072
1.485546040071171 2.6125394720976 0.7316780444868452
1.984145323365272 0.8545450841501424 0.4598516765906716
3.596628394039987 2.531579577872781 2.01522592678093
3.334559884943909 -0.6558082848239757 0.3052446013570797
1.502793033773413 -1.006329259692348 1.281784195016834
3.225110794172533 -0.7280519685489384 0.4277640891036875
1.474977527342856 -0.5118940907733967 0.8002438294421407
1.636195679574989 0.471612578580167 1.939771009822112
2.295436454743054 1.889748617961157 2.264228596376118
1.446128566732333 0.2670666871077342 0.7209987081171357
2.69204580151625 2.154276335695363 0.4532775618469873
1.916955687118719 3.213303658310462 0.7396064273786692
1.68103715963143 2.681620389072644 0.1042548741443823
3.184461614831167 3.19591879341006 0.6972508737133016
2.414270957730956 3.220406056520258 1.792969707576838
3.046608902082695 0.2027807311383857 1.566474250741761
1.857282080843494 1.367619328301374 0.4598050696508757
2.362710842105576 -0.862984661766639 0.4610714367704564
1.432789100210994 0.7392487214676984 0.812959860729967
2.549556068401572 0.4068105798973977 0.4606232390499076
2.165154012867761 1.838701003042531 0.4611674723326573
2.782011074753107 3.123525144414638 0.6232876323273606
2.159906459059007 2.435051358392154 2.271652149922292
1.572828119724664 -0.3956730445109467 1.464267816166306
1.96847944118007 3.219499131389352 1.573002831255419
1.549465576643943 2.531265130348225 1.718463096378994
3.708482985419023 2.833016363146133 0.6310063869209096
3.78709451015083 0.5275449691495265 0.9800752034393876
2.692695750221341 -1.214559504379604 1.295740927723688
1.617300486934209 0.780175969195011 1.99301694360882
3.709369724837707 -1.11717690021372 1.025796171462756
1.833869323353086 -1.269215555676348 1.228686423511005
2.126543174057603 -0.1641486437054719 1.548207235396919
3.240403699969792 -0.2057170918643489 0.4367671893287993
2.789356582322156 2.055621967406013 2.268772094869908
1.462257020377251 -0.2869258802992041 1.245410441267948
2.169384614250485 2.154276335697038 0.4532775618472913
3.709810992791895 -0.3653093384133914 0.299007669646666
2.583442309201707 -1.299872256642079 1.045104460875038
2.552206812486655 1.779495040699545 2.263879352597109
1.497043752242471 1.246205325322405 0.5108264256959205
2.2752236109778 -0.8935020144222263 1.477679058302197
3.77475112894715 0.2670666871077343 0.7209987081171356
2.639499798175034 -1.009286338949769 1.478966545254108
3.688830876774156 -0.6408896083542744 1.422208427733677
1.922395255999601 3.032612614891308 0.5289857789819781
2.43258179682747 2.993093719278201 0.4943423510843331
1.577651371577924 2.918192272629987 1.709126870902162
1.853062640926057 -1.284628783716588 0.7973677165310431
2.912138631792206 3.165221130108329 0.6635476113610439
1.476350500665119 2.530896030144799 0.817809857792585
1.611661661886192 2.338138966469934 2.014906692862842
1.922395255999601 3.032612614891308 0.5289857789819781
2.693295994865041 -1.297728403104272 0.9346785617142355
1.841110379426991 -0.9459917263732736 0.2801697631498624
2.786578482903932 1.004180586909061 2.262208146665177
1.499083365165011 0.6333720653760808 0.5113889785831608
1.983929342169994 1.466806958558898 0.4598007048073443
3.786920391776879 1.653942081368963 1.098046824929479
2.029996173056938 2.53072415329512 2.27184298739054
3.400960653611927 3.077067878715796 0.5753248428666254
1.606987858389011 2.058460031113207 2.011959078757227
3.479998354003358 0.6333720653760808 0.4600809628196137
1.521236355736844 2.898732139408319 0.6255439060040077
1.991787066723912 2.850707897530426 0.4603686207034727
2.7696568191615 0.1153382125358428 1.597476663541992
3.373888758219651 -0.07094441591318196 1.530608963423009
3.650536326372445 2.435695953696333 0.09570367308583772
3.783960091820194 1.552855357608294 0.7270843094579726
2.91276863134406 3.032585088001084 0.5289567127046199
2.431337726692894 0.6007553970176245 2.175177388868014
2.668511994831965 2.055621967404439 2.26877209486857
3.768024638959114 1.773034781127004 1.316365172896533
1.793589371254473 2.146500238957639 2.256406836886685
1.466791855088997 -0.2789166435734264 1.340905161438859
1.433958934117577 0.6333720653760808 0.8111977753294166
3.788768259198238 0.6333720653760808 1.094147531919863
3.659188681077068 -1.074509000521311 0.5366306527432244
3.062099717354421 1.004180586910458 2.26220814666743
2.662493953143128 -1.17262334640274 0.5433201896339448
3.054659224212614 2.064470719889699 0.4555873197958247
3.707001237352451 -0.7280519685491009 0.4975667894807812
2.85513139424189 -0.07094441591396269 1.577670614969898
1.523416478818583 3.002544657239964 0.9867168190663038
3.475026696928651 0.271678664252613 0.4610729193749814
2.530182163908648 -0.7280519685483465 0.4555199888867083
2.788525535846058 0.6877107885949041 2.236528653065061
3.681922345976324 2.33882650760679 1.718243333289009
1.443848164486414 1.882239134504768 1.098984871397082
3.764472084949151 -0.08625999631766596 0.8817577870680311
2.558385742534999 -1.17262334640274 0.5433201896339448
2.55402897576045 2.612304117735411 2.27187465493955
1.491271637543218 2.755725279999468 0.8990344610207284
2.666255564496104 2.755402621890169 2.27094571154902
3.737115923211261 -0.6477975843577932 1.317433965197291
2.530104655961218 -0.5841494982250017 0.4534120111102489
1.682185464734374 2.75247499835492 0.1850257609586205
1.476191171597527 -0.5841494982254867 0.958937234832991
2.564562086477738 3.147267460152286 1.94463499674402
2.425427816536266 3.501235057503842 1.627392033681265
2.067837373920492 3.107390256772068 2.064116370641306
2.380445489125899 3.508621537126951 1.293350119155755
3.55245103206459 -1.078180254763928 0.488488973424335
1.529004282318242 3.014070519869864 1.300561415980476
1.788240600142079 2.909067020684196 0.4611339753987317
1.886655094813854 0.6877842170684713 2.233674417282058
3.769907540847971 0.02428397006808094 0.9703528376790318
3.045015023737776 -0.8629846617669373 0.4610714367707127
3.701701413692776 2.961711893139902 1.303427569254917
1.450782610961343 0.5277342839590495 0.613321575937763
2.166206301840703 -0.2057170918644095 0.4578619547971894
1.546906149849846 3.132270189789408 1.298166267654201
3.234803950045541 0.5280343354857957 0.460307304399234
2.671323627276555 0.4068105798973977 0.4606232390499076
2.668057105258029 1.463089585514498 2.267424339802577
1.63395597261129 3.139823111552009 0.643020510546735
1.692707650417787 1.974307095852724 2.195141754442814
3.78267550330022 0.4043637482167978 0.809549180432382
3.716473273302154 -1.014203058290612 0.7949835767742499
3.324561762398489 2.055695395884526 2.265945331435094
2.774118085343016 0.1980026756947164 1.597300942114967
3.717488169497016 2.530896030144799 0.5014184909909637
2.799068243126412 1.46680695855736 0.4598007048069315
3.36049194135095 0.1970672618226718 1.552005936041168
3.749673624618277 -0.4387489438926807 0.8016127770883829
3.067716839341279 2.146133096594461 2.270678015814053
1.477293699833018 2.435731179512508 1.314518127449222
1.995788142274716 -0.6558082848238692 0.4245123478939569
3.312258221171831 -0.8935020144222264 1.437589070127464
2.388571212558792 -1.294905327373116 1.155905343778999
3.738085772277186 -0.6558082848240026 0.7974168631407004
2.637138171324368 -1.214559504378788 1.295740927722717
2.49803816396851 -1.243301692690653 0.5649290826875292
3.60684257188526 0.528020469896313 0.4669324242912479
3.775964089604465 0.1381256083618057 0.9736171157481239
3.699065688641192 2.530896030144799 0.3020694092580947
2.658789751397905 3.21891432401068 0.8620727878533457
1.775583052854197 -0.6858825849503119 1.44621294686178
3.173962823432674 -1.28838870999592 0.7974184618344093
3.736451823593466 -0.4387489438926808 0.6279693849364217
3.699643339942639 2.89873213940832 0.6255439060040078
1.611279113548694 1.552811476966775 0.4665782846299071
1.577651371577924 2.918192272629987 1.709126870902162
3.733677783279169 -0.7280519685491012 0.7948844445692654
1.42990859502063 0.9805977623040328 0.9887226328979857
3.395157496026386 -0.2892783138989828 0.1730941509999249
3.530231068258844 3.209204936287847 0.7392758371602071
3.737195797155429 -0.1533523336870771 1.422509256901107
1.789366527318901 -0.9556414454724872 0.2129895953622742
2.722841531710295 -1.243301692690653 0.5649290826875293
1.500441856553614 -1.014203058290612 0.9286250740413624
1.476429845584338 -0.5841494982254869 1.238571988956537
2.527245768958094 1.917310888997859 0.4596742885356658
1.462459862727899 -0.08631907675651793 0.7190221173989339
1.69150803415947 1.890110560917007 2.193250858309038
1.497288686712751 2.833227451008268 0.9877489157736703
2.644415251486605 3.437922253631682 0.9755186597734752
1.786281959306263 -1.082153733115484 0.4842690612771758
2.249191172476811 -0.7892369005189556 1.488922142364152
3.389595895349066 -0.3653093384133914 0.1437586207957956
1.775583052854197 -0.6858825849503119 1.44621294686178
3.689567747413302 2.759937693335447 0.3740193412386689
2.586725963970917 -1.141943418550702 1.415864282090692
3.430192493232508 -0.7280519685491013 0.028879968397708
3.517740929584096 -0.3159476840308548 1.482628117615946
1.791081636909527 1.651171831958506 2.251113876200043
1.478717260164976 1.773729950866286 1.461751204695466
1.612507790951498 0.6333720653760808 0.4667236930881573
2.692795149490209 -1.292529214249605 0.8606012237359924
2.690918543258334 2.746021390757861 0.4618630922182945
1.819919042067556 3.077067878715796 0.5753248428666254
2.305556328433296 2.612304117740442 2.271874654943205
3.733193280840693 1.969908019993213 0.3775465679811752
1.955060349446601 -1.009670131627504 1.418355954131919
1.531166385912671 3.057755737284989 0.8960519084466688
3.717729807602876 0.4062750953480303 0.5112637242798586
3.536613611768601 2.950938172315306 0.4818330171796261
3.038813857823326 -1.039795069463753 0.4736601529336794
3.709169250297319 2.899576490856858 0.7304877129494595
1.540815011637251 3.126723996771137 1.187947167147139
3.751960721894988 -0.4387489438926807 1.241874221769487
3.779885163128842 1.773696743104265 0.8174744883187421
1.720655023434419 3.216229801591678 1.563294110321455
2.46241758121502 -0.07094441591430817 1.577670614967822
3.599645671136112 -0.164148643705472 1.485356315552607
3.416611462916364 2.435418500755587 2.257380970995004
3.206824888240091 1.973522614546656 2.266379113606404
2.354123977108795 1.917310888998643 0.4596742885358245
2.357205100970791 -0.2057170918644721 0.4578619547969126
3.046458540767281 -1.284287194924604 0.6039954759036155
2.911693153460694 3.076379706578843 0.5745981859517754
1.433958934117577 0.6333720653760808 0.8111977753294166
2.662159807520839 0.03010875866094987 1.588426848353713
1.691578345484656 2.993336385112583 0.5001144680681262
2.692292823017875 -0.02715426142329063 0.4612880652320773
2.531180229195027 -1.039795069462969 0.4736601529331452
3.588400113228486 -1.258863913960576 1.039936635785974
3.638826758447972 2.991365262487565 1.697135275585649
1.433785185528653 0.5275449691495264 0.9800752034393876
2.195368035712224 -0.533008609886712 1.514308726741045
1.900788894848463 0.7751977408662276 2.246448014751566
3.701701413692776 2.961711893139902 1.303427569254917
1.484432226453228 -0.7280519685491012 1.13309965121751
1.991787066723912 2.850707897530426 0.4603686207034727
1.479659472077757 -0.5118940907733968 0.7199077447948825
3.052231901915077 3.032585088003933 0.5289567127050794
1.450095785223375 1.469513880970433 1.315746007271527
2.160316878190293 -1.210592185291936 1.299143455199451
1.513878458327032 -0.7280519685491009 0.4975667894807813
1.53947498668892 3.126625449324606 0.883725628877125
1.831375787884517 -0.8935020144222264 1.424882416090639
2.562089944280222 3.21891432401068 0.8620727878533456
2.958813365140183 -0.07094441591359219 1.576715771749064
1.576614749949498 -1.115905872299068 0.56012116899373
3.378007167756377 -1.290385497554952 1.155459237245987
3.749492996360512 2.435695953696333 0.8177626529904871
1.609745860027814 2.149305783472572 2.013853323324925
1.439240133703182 1.773311779437641 1.098609108734055
3.72376911904369 0.9805977623040328 0.5108563070593623
1.490801335686043 2.755725279999468 0.9877726511249416
1.666354628716408 0.3037523903059122 1.708001069500783
3.673651708861036 -0.1947889183485981 0.1974031131170807
3.378107067475177 -0.8754929523049051 0.216460051118892
1.843502843885466 -0.8013566379819858 0.1718217006298718
2.642627065047619 3.444236979923876 1.725281983585364
2.431523113356649 2.055621967406013 2.268772094869908
1.57687203559567 -0.5841494982254867 0.06554181441676939
3.771183862870862 1.882432798519218 0.7300663850336933
3.155612112476555 3.23606687947534 1.405526605931212
2.17512480860235 -0.9217211711642587 0.463435313005814
2.839294568683652 -1.080464870490484 0.4918160227010402
1.8083298722712 3.218774102389088 0.8615060956959006
1.434791563416959 0.9829468680666871 1.20959476755715
3.444994857388285 -0.3653093384133914 0.02935843789967199
2.799061282410974 1.246205325320779 0.4598061608612555
1.679766803935046 -0.1641486437054719 1.494534986646537
3.739684000234773 2.612541955970647 1.203400342423595
3.521431680275358 2.241515281005302 2.200218563343463
3.750882757933035 2.15427633569873 0.631941435676739
3.767892303156259 0.9923494761744367 1.315592317492043
3.107028486705329 -1.188010137731419 1.327435793001594
1.433861486227651 0.5275449691495264 1.09101814828337
1.71518495863217 -0.3890882988315106 1.476343326867673
3.585790146773527 -0.9683354074350502 1.402930045194202
2.754736124896322 -1.214559504380802 1.295740927725117
2.224663363050811 -0.685882584950312 1.499009589073339
1.880576528229238 2.85235344813665 0.4334006889809089
3.298094431349362 -1.171760591343301 1.326005675276865
3.716145109995665 -1.076808868895589 1.202772916375764
1.512347858096143 -1.117107786478584 0.9310328866619894
2.774264692438433 -1.114883826454304 1.439158969234579
3.735809892138631 2.682270445401554 0.9878184109431869
1.452643480577626 0.8679472269109001 1.314004532841752
2.566260842451054 -0.3159476840307924 1.555837516173273
2.387762383833498 -1.275566717704804 1.227042980554003
3.748270503938578 -0.4307381400356789 1.333078302295194
3.274792085168083 3.215646250302154 1.071907451603234
2.421981431545782 0.7392487214666135 0.4599339464191415
1.464419671494244 2.339305724312192 1.0965186826516
3.62787932303531 -0.6118467632285357 1.44196277699446
3.610098690542672 1.548929729017919 2.009787084350577
2.529838632436186 2.807804248209295 0.4646136333700751
3.789577655436029 0.7392487214676984 0.8939049281840983
1.476447685162049 0.4625726680283427 1.427686272619791
3.790912508675783 1.246205325322404 1.097766440158901
2.44047343807393 -0.7892369005175696 1.509253113396316
3.335153478428487 -0.7999623953999934 0.3291646484094828
2.013338649250236 1.889748617964781 2.264352453944043
2.168559097614256 -0.2893283985426158 0.4562972167647036
3.486310402390089 -0.07094441591318199 1.517249655763741
3.596072263408536 -0.8999739052390039 1.412433896281518
2.733985919856493 -0.4613442542842441 1.542339642172635
3.609919540167217 0.8545450841502087 0.466470602950368
3.740692045496036 -0.6558082848240026 1.047871339773058
1.582749484878339 3.186161639224154 1.182119286174481
1.706087097268626 1.372012172694922 2.195889312820919
2.700183045918147 -0.9621896173222391 1.488489783859223
3.216611456859649 -1.169432768074505 1.33367266932967
1.995788142274716 -0.6558082848238692 0.4245123478939569
1.860387754328533 0.1970672618226718 1.552005936041168
1.739262225465499 1.246205325322404 0.4598061608617526
2.678777366012968 1.654729252573042 0.4603173117562401
1.894325289723101 1.779568469179082 2.261299897832304
2.919510443402305 1.129952873043216 2.264727709886034
2.576027248093098 -0.7892369005164888 1.509253113393236
3.763205405586162 0.02398856787382119 0.7186577197546926
3.601673279342796 0.2714823377206709 0.4675967135292865
3.358403782777771 -0.123795378392797 0.3808425939659416
3.315327388935943 2.336593892550881 2.268785164284125
2.64918548914699 -0.6052629150492104 1.52716193940734
3.065628607610186 1.463089585516915 2.267424339805343
1.496755254631983 2.755725279999469 0.731968011276485
1.719485551857737 3.125628872929331 0.6259141783565414
1.668428663614893 -1.078180254763928 0.488488973424335
2.925064993729495 1.973522614543115 2.266317187414837
1.980348183567015 2.064303980614909 0.4348661380370381
1.497110576635793 0.9805977623040328 0.5108563070593621
3.476803756612574 0.4068105798983818 0.460623239050607
2.549270696251917 0.7392487214663397 0.4599339464190161
3.743585995846464 2.435731179512508 1.314518127449222
2.552557112548691 2.146133096587833 2.270678015808587
1.933074177318721 -0.962189617325118 1.428068824654537
3.640506396566738 -0.8928674335269912 0.1902512283089397
1.442318773581394 0.269847459967006 1.189925214788208
1.976012686993751 1.982956365645821 0.4416289778254536
1.529766586364375 3.001771207301787 0.7313424860089028
3.597219181520434 0.1425922626464752 0.4684622822804374
1.444091206109375 1.882316146589379 0.8989123210323905
3.68971330976681 3.057755737284989 0.8960519084466687
2.553717301985376 2.530724153285671 2.271842987383512
3.430454702951939 -0.80244158656149 0.06631193735226451
1.975376866382563 1.552742290399714 0.4598996613537233
3.721796330514471 0.6333720653760808 0.5113889785831609
3.73684997936951 2.154170516124576 0.5039996137057924
3.775964089604465 0.1381256083618057 0.9736171157481239
2.930560393526934 3.236725018046742 0.9717046927068321
2.438475037268284 2.755402621892295 2.270945711550496
1.857287639573566 1.246205325322404 0.4598061608617526
2.317616899581515 3.073714265968267 2.166111810310555
3.70933425497504 -0.9102711039343485 0.6238095469494995
3.788090595468489 0.7392487214676983 0.812959860729967
3.734838703775484 -0.3983832423569387 1.405819834574166
3.481563832439799 0.9805977623040328 0.4598152640075418
1.497986269973554 0.7392487214676984 0.5111779871809021
2.437614645727847 3.195918793405642 0.6972508737124679
1.586785931811447 2.994968054338308 0.5389258065592304
1.804268232763117 2.435418500755588 2.257380970995004
2.956526723294478 2.951010190195289 0.4752359376158477
1.51633533284409 -0.4387489438926808 0.2881616550147467
1.46504997891157 -0.3653093384133914 1.151182880873696
2.430872579153801 1.889748617958819 2.264228596373994
2.65792946250655 -0.164148643706203 1.568538206425685
2.320128736780004 0.204364182182791 1.566795519011689
1.446128566732333 0.2670666871077342 0.7209987081171357
1.452285381308573 0.2821053595516525 1.29249704654925
2.534003156400702 -1.184892113180643 1.341957686790105
1.876111311638381 -0.2425178403050043 1.514776400507955
2.296602353164719 1.650804689594276 2.265196998012719
1.434515074280027 1.551699070922865 1.208481908488546
2.523672889913498 -1.009321317229986 1.478952034649192
2.763737652453118 -1.140807115787709 1.416896285651592
3.730851836023552 1.00567951936566 1.460323418561728
3.602070216097432 1.375435080527544 2.010370311039196
2.664976351044954 0.1711193500290363 1.601359934748388
2.494675039853237 -0.6052629150494906 1.527161939408649
1.561511644950526 2.899628602220527 0.5226279988058749
1.703138766095385 -0.3159476840308548 1.482628117615946
3.654737560320441 2.339287241001366 0.1001125309067616
1.810198524271125 2.531091295656907 2.257571808461987
1.42990859502063 0.9805977623040328 0.9887226328979857
3.413427554998502 3.217817800501204 1.293848412175096
2.931294755091897 -1.284208789452536 0.6038957720145113
1.495435849522893 0.1676773925256456 1.469793076469263
1.703214731502182 3.079720970163603 0.5800823275249276
1.438204192379263 0.4043637482167978 0.809549180432382
2.801995653647806 0.2716786642518987 0.4610729193743376
1.494316998367619 -0.911985034555771 1.118504275167299
3.671414119035539 2.531265130348225 1.718463096378994
3.761901684775318 1.882899406238571 0.6278220896026278
2.568469718399618 3.506290849832898 1.168776914267298
3.295388812432172 2.755476050372995 2.268091475770572
3.646365474144701 2.612539472097599 0.1324194142601691
2.723585087520037 3.493711216058842 1.062149202315902
3.777187229446659 1.882296893847023 0.9890994368282589
2.302134961847734 2.435051358389391 2.271652149920186
2.527699505130866 1.983123118891972 0.4578711952298978
1.504839442567225 2.834040743861433 1.310558608761993
2.431537198011031 1.650804689592582 2.265196998011005
3.433436552656421 -0.3890882988315106 1.489049980904499
3.376798926091406 -0.7280519685491014 0.1438585587089662
2.017814071378987 1.544531427604676 2.266677610028448
2.913244710541943 3.215114093171902 1.763269268707251
2.578376841378761 3.33304307737931 1.758986836797309
2.923278337973318 2.146133096592037 2.270678015812055
2.940711420978782 0.6333720653754705 0.4600809628193008
1.802666544838125 1.255512643030402 2.251992044583908
3.55228421211054 -0.3653093384133914 0.01389284239803968
3.49797653992158 3.197452970059942 1.670256661423384
3.525767416803739 2.056761442924192 2.197439930328733
3.47866488462757 0.5280343354858432 0.4603073043992618
3.730851836023552 1.00567951936566 1.460323418561728
3.746510836634062 2.530897688284745 0.9881445058493525
2.169384614250485 2.154276335697038 0.4532775618472913
1.602676419937499 3.196564590409426 1.525384364778584
3.545506501669173 -0.4387489438926808 -0.01396037582673454
3.715174578806187 0.3138152322149487 1.530399766347065
2.66883785298107 0.3095557087434301 1.717616544666777
1.465783592935953 -0.1856963828041528 1.347476309091235
2.690983725842496 -0.9217211711636913 0.4634353130053716
1.495210171437834 -0.08479447108071507 0.5116308346345222
2.69339866315669 -0.06729221057285451 0.4594819807304515
3.720471691081395 -0.6876902793371975 1.378493193135085
1.446768628814737 0.1392470138359566 1.178544262333919
1.566142135359042 2.339287241001366 0.1001125309067616
1.452266936756066 1.253418359744517 1.315702427197526
3.736408255480562 -0.7280519685491009 0.9426378629059014
3.40934292919075 -0.06729344660634823 0.3570538560882112
1.567352682506977 2.756031871910741 1.717671258506688
1.847529205540196 -1.293719619219566 0.9345917823189999
3.711237950831334 0.02362603738243283 0.5137978578980631
1.537062303941916 3.055832714547091 0.7337057581323982
1.578271424953491 2.950453928769854 0.5261913503083733
3.622192209116117 3.090876920245705 0.6050143309745705
1.452009168139276 0.02460204110473008 1.165943185908879
2.473724835786134 -0.242517840305245 1.5618380520538
2.82215403366228 3.513761162826142 1.524420189167494
2.555903344633173 0.1711193500290363 1.601359934748388
1.485094733419901 -0.728051968549101 0.8661288141836346
1.578271424953491 2.950453928769854 0.5261913503083733
3.741453892130355 2.339287241001366 0.6324822433542945
1.499839795767063 -1.014203058290612 1.119166706114643
1.43031254678642 0.9805977623040328 0.8984446992251497
1.461868388012354 0.137595171438122 0.6124913521192131
1.920904090526598 3.195833758743133 0.6971812047098396
3.494277693247464 2.682765691527667 2.200265778894394
3.777187229446659 1.882296893847023 0.9890994368282589
2.288678191955654 -0.242517840305092 1.560883208834387
3.755353644364126 2.062631359383592 0.6316839172601508
2.47112882607952 -1.197982779070692 1.319334266551695
1.5132153541315 2.682664867827772 0.5093169795843107
1.443848164486414 1.882239134504768 1.098984871397082
3.634997566060036 -0.5395930275773868 1.449439914288235
3.609364682750973 0.7392487214676984 0.4665683939924324
1.775583052854197 -0.6858825849503119 1.44621294686178
2.414270957730956 3.220406056520258 1.792969707576838
2.662159807520839 0.03010875866094987 1.588426848353713
1.85733401060863 0.980597762304033 0.4598152640075418
1.882927917173351 2.43569595369617 0.3119943042259635
2.668572166965216 0.6007553970172657 2.17517738886717
3.438976372284227 -0.4387489438926808 0.002412296729447011
3.709810992791895 -0.3653093384133914 0.299007669646666
1.474755056670402 1.97199789900313 0.5145257296566388
3.077030251204047 0.4634183246834382 1.976477605241126
3.754299285770138 2.339287241001366 0.8177169835700948
1.703214731502182 3.079720970163603 0.5800823275249276
1.774651850983136 -0.3159476840308547 1.495416556969474
2.923278337973318 2.146133096592037 2.270678015812055
1.490801335686043 2.755725279999468 0.9877726511249416
3.434156824901584 2.681152234148253 0.1163627408709182
1.52520558395963 2.612539472097599 0.3151475592052914
1.446926628626507 1.246205325322404 0.6131564799797273
1.431734373905494 1.113920729764612 0.8173869382330287
1.452266936756066 1.253418359744517 1.315702427197526
3.633114515265955 3.182928634615543 0.7381043286003853
1.625209738571348 0.1892026236018529 1.551112168478833
3.039230022806795 2.876646599808216 0.468354881600435
2.127815087443111 0.6333720653758187 0.4600809628194794
2.451222876517305 0.1153382125358428 1.597476663541992
3.721057451905289 2.682270445401554 0.6336557972302686
3.450239145999814 -1.009894613573116 1.399164179983397
3.335153478428487 -0.7999623953999934 0.3291646484094828
2.530035802841335 2.530896030140978 0.4591263062767182
2.844994614575466 -0.1641486437058827 1.568538206428905
1.864670412987228 -1.175010695320089 0.5433624149302644
2.157949026302381 0.8835097777925349 2.257468874036674
2.040583035091318 3.123525144423567 0.6232876323289062
2.552367700846163 2.055621967404439 2.26877209486857
2.074017436435582 0.1214515786212888 1.577805222874166
2.583022368746296 -1.061551179026837 1.464261494094446
2.869286581168513 3.218877424053761 0.8770577388575784
1.444091206109375 1.882316146589379 0.8989123210323905
1.781576895035243 0.6880779309575547 2.222257474138959
2.549556068401572 0.4068105798973977 0.4606232390499076
3.737273988921839 -0.5841494982254868 0.7184965813268499
3.748514588875078 -0.5118940907733968 1.152264450068628
2.940711420978782 0.6333720653754705 0.4600809628193008
3.780771457964121 0.5275828321114311 0.7242731958141819
3.740652899481394 -0.6558082848240026 1.143061492735308
3.771857167632973 0.6333720653760808 0.6134942933468179
1.833704905104977 0.03097178266765397 1.541580247649151
1.572712030972325 2.837146196525344 1.715544819727193
