-0.8625994323107868 -1.546145308941798 -0.190945802851937
0.7805544832969864 -0.8641094115358516 -0.5092482751939085
-0.7852326452415119 1.648761899660347 0.9744472233784669
-0.9287766373178286 0.7774198502063598 0.460212314145283
0.4085919061585634 -1.454583541774871 -0.4548146572918471
-0.6781287299836695 -1.258000138641454 0.4058241980931095
-0.733367465574295 2.782252530967267 0.2969189185995889
0.8247241882300416 0.9204668466994059 -0.2363256846180078
0.3535177256815882 -1.981418154878786 0.09481108188762903
0.008013659239963123 1.46340024622194 -0.4632431404898824
0.8275486399224661 1.539914452630961 0.2393501278411748
0.7913928384660319 1.03760239108711 0.6359148694955016
0.8218872676578631 1.686004665697033 0.2393144792887813
-0.9080005106259423 1.897226922052411 -0.07353817874341168
-0.5825374487442154 -2.092324727256704 -0.1950099604568155
0.770897792145859 2.219019965125116 -0.3563183975160098
0.3748084817550067 2.50703267950975 0.9108764964928124
-0.9372152614815469 1.040960531646843 0.03122694836555395
-0.7434551512254103 2.776138438701589 0.262878048123301
0.1787101233772089 2.60117806537174 0.8328511517148993
-0.3533263062363398 -2.115292806001294 -0.03210427575050644
0.4745080302132782 2.813974143366024 0.1505837370121242
0.7015277199635981 0.7817042120657327 -0.4547751032533915
0.09004516229446891 0.2414089256676 0.9976907823652212
-0.7148007921162488 1.223502165511477 1.044228192088012
0.7804314796764827 -1.263249940466268 -0.2458937958302417
-0.09402097199594844 2.683073997918131 0.7378102773518065
0.4956762291964245 -1.181779439482475 -0.5435258878846081
-0.9003533868690917 -1.147580508149164 0.0687835583676055
0.6453121745204981 -1.276307636202301 -0.6347289259900475
-0.8956160973912402 2.154945357857066 0.03193739373087708
-0.3049412292905357 -0.6760570413748316 0.6294155815283031
0.5155048479127706 0.03160990715656935 -0.4644166563456223
-0.0976176690439132 1.244659026294979 1.047009509345134
0.821953364385333 1.43732665442355 0.4694415351303107
0.5253944198085638 -0.4763950530501248 -0.4621777502844712
0.5961600713735212 -0.748614045406406 -0.4884942586804978
-0.9338561889241774 1.040960531646843 -0.07999941194841286
-0.8801444708929966 -1.445602482101054 0.04826732334596291
0.5066885041983655 1.788633608117231 -0.5383235476677361
0.8217164712699788 -0.6264892064152057 0.2813902516528351
-0.8786511187742416 -1.393003879775504 -0.159189995691066
-0.8380097598574331 -1.446301143164595 -0.3891888716420786
-0.8690790027869723 -1.413954132722413 0.2849736471324056
0.766954547277922 -1.49038996579647 -0.1801747149324376
0.5397200269270576 1.78707878625851 -0.6159654044708638
-0.66717825842069 -1.174243657400196 -0.6849742400253718
-0.2493420622066019 -0.9527232883953507 -0.4728510388931141
0.7376512044365873 -1.081627571414548 0.4032246926528738
-0.9018074034483743 -1.091443423123854 0.001700307278430333
0.09437282794064043 -0.3812359411879423 0.7706032659349389
0.8022603376037121 -1.091443423123854 0.08738043221481254
0.6048836097951225 1.454262563906046 -0.465423238727431
-0.6781287299836695 -1.258000138641454 0.4058241980931095
0.2067592475893058 0.3901785118687393 -0.4647764407500195
-0.005765336498923435 -1.687183323086476 -0.4477321303997764
0.6048893304871603 0.5214325739226753 -0.4647887673760301
-0.8767873771637239 -1.445602482101054 -0.09491261674386441
0.4272005044940783 -0.8945633698988718 -0.4803810849088553
-0.2002546726298146 0.7880399667015648 -0.4647907375298799
0.4819059289342147 1.883006900869987 1.033768821879162
0.6141560395098975 -0.2163779608559174 0.8345852887128764
0.8327463623867458 1.040960531646843 -0.07999941194841286
-0.7297458134093663 2.097540630427052 1.00480437907495
0.7552692809353282 2.665318228806846 0.1947674761271266
0.7802147699326865 2.365877592978801 0.1323886316147271
0.7848915722528312 2.154945357857066 -0.2057516101602073
0.810446486761226 1.828299064928633 -0.0737019344074609
-0.9290106852715541 0.9193896587631265 0.4632454425470428
0.7924564453148792 -1.197840140070522 0.2755651132370222
0.6121443211089592 1.534485068403483 1.038023127221992
0.5909811705786993 -1.016783965947774 0.4596155942303966
0.3378495126743563 -2.113779092910737 -0.03210427575050709
-0.758825057975448 -1.423814193879536 -0.4736698871466174
0.5479556318722739 2.852436577551912 -0.1919970606512527
0.8005047135749819 1.68631300739289 -0.3661602066931434
-0.3992713898064136 1.886123359412537 1.033768821879145
0.7774090286440054 -1.439272812225326 0.2302316776376836
-0.8533899072006604 -0.6201606179890906 0.4994142236028742
0.8135435938686377 1.686013359437099 0.4706703989722003
0.7492902015884884 2.596557271595869 -0.2260387347205372
-0.8771827886416389 -1.327918634425725 -0.2542624042557474
0.2477989515288799 -2.097922776946904 -0.2427437911926286
-0.5058861426995037 -1.083408156012696 0.4462239982705771
0.6406457394253309 2.551485837060647 -0.4387763744766189
0.7370870339086666 2.280444944098814 -0.4681031954015998
-0.4960366847158249 1.957768283179198 1.032034395969266
-0.6310405753604657 2.293543046275376 -0.5187492222180186
0.6829958299833427 -1.791231386553837 -0.4039724945549425
-0.8975488262844749 -1.204175798250008 0.1116103874514329
-0.9386506415376394 1.040707735376644 0.2383941269064281
-0.9080378260706586 -0.9775374575227414 0.2729780222975843
0.8355516713171627 0.03867301258437164 0.1218622822932869
0.6820003990116088 1.717126823819726 0.9726743718953419
-0.7813426998088711 2.609607403364603 0.7328149671978922
0.6507738340023558 -0.1117383343280099 0.8608356228214594
0.7304301578662615 1.623859515180364 0.8389998749441991
-0.00460407276868189 0.7522802942010627 1.046038520262797
0.3307509495137952 -2.098460201039839 -0.2880865749942488
0.8034526877668882 1.897262462332761 0.4690651182764488
0.7538645125803312 2.678215821812373 0.01599329265173067
0.8246815554233361 0.647296017508129 -0.2363207117273519
0.7913928384660319 1.03760239108711 0.6359148694955016
0.6189203095736002 -0.3733781811310191 0.7639436515932442
0.6893727109739259 -0.2711589683204119 0.7472702161085649
0.4648168781576177 2.788405610104313 -0.3683738908135018
0.692775721640374 -0.7976726367177887 0.5189996359487946
0.5981597856099259 0.8708225098847658 1.048694414937212
0.7008722562375281 0.1470055186421205 -0.4545609109953477
-0.8288972249235054 0.1554607257998984 0.7705345671997276
-0.481931158289916 2.814970083512069 0.2879798306633222
0.4340003815695066 -1.979201107903542 0.09452191077013772
0.7218667402043076 -1.568790216131157 0.2759960771760542
0.08504481740551874 -1.58221326354585 0.3118371493679657
0.7053934594675287 2.74459513377857 0.3547109407387515
0.6574262130076223 2.326562929019722 -0.4693892822804962
-0.9121050372008592 -0.9200052891354312 0.1626624012962728
0.7913236466426111 2.217992004791654 0.1323363998648651
0.7015203227966623 0.5202780006033144 -0.4547731770384121
-0.6277658308199505 -1.122742247944574 -0.6389485248219565
-0.6327659319269307 -1.006393531373507 -0.630097891132821
0.5962096705265249 0.7401219818098487 1.043014874894242
0.6450872544547788 2.774573048958696 0.2356784095429411
0.670612566703387 1.702028811299178 -0.6354424491446145
0.07166916317848743 -2.131372804865585 -0.09221049950160777
0.824609525842666 1.333466615666927 0.4674224607856923
-0.007287763219165218 2.741750544077274 0.6327028925119497
-0.3025153737495868 -0.5521953020174569 0.6893349721175948
0.2852475853792352 2.716153183542637 -0.4176353369952782
0.01432801319525652 -1.012807027787062 -0.4745151636643005
-0.5355404969174423 -0.7949070199305219 -0.4691951362750705
-0.4932071103377301 0.3608076905776607 1.018985122225099
-0.8393237257662091 1.133972303099909 0.8402372287980224
0.0929436377471007 1.453054976799959 1.042957058012914
-0.8211543434169291 2.6329727825201 0.6193511597877879
0.8156883608130113 -0.8129081852953721 0.199581643747031
-0.3950712266568376 0.619652999367036 1.039449473107123
0.827455545685265 0.5187804617051417 0.4510044411341421
0.5532581850478805 0.02122632092436638 0.9298865472208298
0.6468168843564993 1.75527728576326 1.021360622947949
0.6552444362935976 -1.554876655263986 0.3048492023456203
0.1876147643107664 2.812688051837965 0.2123263351396439
0.7662960040880392 -0.8065740218434898 0.416611085440504
-0.9273041424373054 -0.4586663412808147 0.2115337347976723
0.7618283673525172 -1.204175798250008 -0.520808072818082
0.7683485773802884 2.027919941160388 -0.5285411780032668
-0.2975170800546568 1.359241525632375 1.044914221607575
0.4597724884259354 -1.700482895076213 0.2599780561691187
-0.894117370063193 -1.263438596326521 0.137738467326702
0.7698030050889672 -1.546182584882479 0.07082284635959289
0.08592618923747762 2.821758953322822 0.2879798306633135
-0.0005231488279694371 -1.539293551521908 -0.4503853752909
0.7330114508240226 -0.1726267836191976 0.6803958354827517
0.5455003808948594 -2.051658078272802 -0.3999874947222945
-0.6718177360798451 1.991685267118405 -0.7003121182144207
0.8297044043143707 -0.3027350875679549 0.1173876145965643
-0.8557023045309266 2.529626919783387 -0.2271825494610615
-0.09053623267767952 -2.125628900969821 -0.1487857278340588
-0.4944086790116846 0.8835655176019498 1.051811415410379
0.686187750609485 2.504227578223042 0.7881421068077286
0.1840510082435357 2.359178803427268 0.9807007747444339
-0.09434563811324227 2.830648975451491 0.3374165362415569
0.8103700259703562 1.757308294092127 0.4695555337417625
0.8077838257333683 1.963618743623412 0.2392815114268662
0.8041011135272265 2.027926752233347 0.3504521522585051
-0.004202245976417905 -1.1466723413803 0.4346143008153337
-0.3585234622054762 2.420300626114731 -0.4516687458523658
-0.09960402063056649 1.195397579895909 -0.4645155042114086
0.7014741862236643 0.3898687968345783 -0.4547572077207515
0.1468660381950516 1.936070948122365 -0.4758080255569276
0.7825497200224132 -1.328673257866738 -0.1497115568111844
-0.9314381735880996 1.245298078899253 -0.07980690976134131
-0.2467925498870089 -1.186079267519247 -0.4728104678001437
-0.2239129057667095 -1.494608300480542 -0.4515911962379628
0.8262350861657827 -0.4586663412808147 0.2916968634606902
0.4973545012824641 2.193229043108666 -0.5164115831209013
-0.922997094195295 1.686004665697033 0.2393144792887812
-0.7463730876754287 2.774543555617518 0.2155020228537523
0.7636590762864282 -1.458867271331839 0.2738813456727448
-0.1049547964338242 -0.4803354030068778 -0.4621777502844522
0.5725451580097948 -1.376645503836352 0.3733657875067744
0.7594663631935947 -1.638290787308486 0.07859028677077126
-0.4114771168161671 -0.5512372957895158 0.6893349721176104
-0.0996559356975613 0.263034018178837 -0.4647271342459979
0.6769904863972241 -0.6809228321956325 0.5859862106231341
-0.9012236797417695 2.091508917284236 0.2393717972387385
-0.9045625143043202 1.897262462332761 0.4690651182764488
0.4845952837439095 -2.112338121054787 -0.09221049950161671
-0.689380788274494 1.712412832809671 -0.630091722234572
-0.828108013779832 2.55622599375341 0.631399332110882
-0.6176337598177604 0.3901177581330843 -0.4647764407500267
0.1060202451629005 2.507380059901412 -0.4499986694054483
-0.09964071548310174 1.152953494467348 -0.4646650914765799
-0.9284907200354415 0.3896539614469788 0.4438850419816172
-0.1156295102521417 1.552397601324207 -0.4629044561006309
-0.8157342661690199 1.969861991829745 0.8284280732816791
-0.1870360157749616 2.821758953322822 0.2879798306633135
0.7636845542761992 2.532069451983317 0.4084863799566198
0.7881026179795632 0.5187804617051418 0.6188188291121987
-0.8856287617685711 -1.393229659832649 0.1977403322482502
0.8245941169525113 -0.4586663412808149 0.01696143594697447
-0.8280949573015473 -1.789354545832046 0.09986514378981878
0.7930075435257609 -1.263438596326521 0.137738467326702
-0.01117810535043481 -2.115527598712045 -0.3423149899180309
-0.7651160149207383 2.058952394433045 0.957165581583879
0.6547738580159632 1.195792698528181 1.032096176825353
0.1460465578003536 2.070083770655387 -0.4657093626727288
0.5126503010035021 -0.753645784724608 -0.4711457591320175
0.07477623832914919 -1.991195347814837 -0.4349294539134874
0.1840758150154446 2.847516873678553 -0.2895098259032334
-0.5343392052497739 1.663077948365193 -0.4754744976090966
0.1767521864882375 -1.82342081420443 -0.4456877617221523
-0.09540642744953162 -1.496690216636245 0.3422557195990937
-0.7579840835695783 -1.461932928894398 -0.4468273845788104
0.09311202211401766 1.360351561087234 1.044914221607551
0.3034197942654382 1.284909630438886 1.046367831610814
-0.925067273705325 0.1491794838186223 -0.2360355166242903
-0.2002524627212857 1.058054076206617 -0.4647877817891867
0.7287055816037455 2.09595922612057 -0.6230487010226666
0.09310239945495033 -0.2214559287057769 0.8404377561603715
0.4224840104431141 1.118876704345055 -0.4647409893602379
-0.8254079993688082 -1.32126327186545 -0.5674759078148604
0.6317068494770772 2.440350376053257 0.9015461819285414
-0.09533848347460454 2.852254882791267 -0.2895098259032237
-0.475918308292439 2.50703267950975 0.9108764964928124
-0.6166146744502027 0.03160990715656936 -0.4644166563456223
-0.5277776775229837 -0.8507043654328881 0.5339021667082365
-0.824626016313843 -1.759805822038491 0.1546312971070913
-0.8026671351687738 0.9259546163801942 -0.4547828081133094
-0.1971295391153452 -0.553225835184595 0.6893349721175781
0.83114062924573 0.03867301258437165 -0.0830165182423221
-0.9342725384971756 1.334086293265914 0.3480999538781544
0.2949901034207585 2.029209363273229 1.029393812631886
-0.6294043318637008 2.12846920648656 -0.6051014964659999
-0.685925910978595 -0.8430929096035082 -0.5982300582703911
0.7939520538513897 1.622050506499054 -0.490751202711108
-0.3922682302549658 -0.9512458688286406 -0.4728510388931236
-0.7499835607368732 1.686825716623299 1.022916394470808
-0.8864214994269509 2.285193400963446 0.03209531409705688
0.7105399065557937 2.03414141410133 0.8260510672340659
-0.8264959794316378 1.763536779443714 0.8355045522049699
0.7929079473154956 2.027919941160388 -0.2065837862890578
-0.8875521621666846 2.285193400963447 0.1323593217320186
-0.9309204207071167 -0.06901481909380763 -0.08315816162251802
0.4845952837439095 -2.112338121054787 -0.09221049950161671
0.7878280079621559 2.154945357857066 0.4686514524645405
0.7132807916303335 2.771360143407663 -0.2067625848288507
-0.193344471933085 1.212064901837128 1.047163924835182
-0.827542147861582 -1.494519533868284 -0.3929447654852565
-0.8627765590393162 2.592737793940374 0.2911183951941749
0.4097353716708956 -2.101640443826939 -0.1950099604568155
0.5562045735432689 1.204165145644212 1.047163924835246
-0.8612777727263279 2.595836132098278 0.0291998101011867
-0.8730767098946638 2.4543834034324 0.03232508816262777
-0.1151699311198811 -1.071610490084671 -0.4740736390700885
-0.575467474749092 2.807124767934386 0.1923399032427495
0.7797253795904894 -1.445602482101054 0.1455728041072197
0.7772644232349262 -1.147580508149164 -0.3795185196687105
-0.3875562308299741 2.644368645792984 -0.4416366748034648
-0.8941218079271189 -1.263438596326521 0.1791988937093909
0.7274573593510274 -0.7897434144195942 -0.5437448477827249
-0.2011204076900924 -0.7967384764820671 0.5669215978359437
-0.8868061953419214 1.539675424618511 0.6400909633466804
0.4155165901461649 -0.6743343265063337 0.6294155815283281
-0.3942049634340449 -0.8958791714945027 -0.4695402502751804
-0.5209916324012839 -1.391898584700288 -0.4662638176473569
0.6468168843564993 1.75527728576326 1.021360622947949
0.4224703610378696 -0.7935158581912395 0.5669215978359939
0.5027975810377614 1.861249378144653 -0.5484139791055237
0.5397618740008121 -0.8924060450901006 -0.5887863524464787
0.7775049905601048 -0.636747346892338 -0.3792639947191364
-0.5192527704001271 -1.182724703626475 -0.4869524159341265
0.3873878058919412 2.809797230345316 0.1923399032427492
0.7581534430070381 2.285809170216306 -0.3599315351326499
-0.3516967789905048 -2.125977809391827 -0.09221049950161439
0.07405646128778605 -2.077832219682992 0.01959479429140684
0.09288497233358885 1.243966927192289 1.047009509345154
-0.8900973990264998 1.686887232932931 -0.5085264359333436
0.5505377017884643 1.875167954451753 1.033768821879162
-0.646666740721185 0.8801572829037979 1.051811415410382
0.7683485844914477 2.456327366652986 0.4439510357390112
0.6507738340023558 -0.1117383343280099 0.8608356228214594
-0.5993528548397681 1.99961872183627 -0.5479837245113264
0.5932104065151995 2.065487089306685 1.022501665444541
0.7756775506262917 -1.445602482101054 -0.09491261674386441
0.8355724185757674 1.132904728309625 0.03123601094004319
-0.2606569988488127 -2.128576922729166 -0.09221049950161121
0.8135435938686377 1.686013359437099 0.4706703989722003
0.2836899583826359 2.425825037062478 0.9591468722864105
-0.9359200347032743 1.245242822723949 0.1321340354945477
-0.247985297185917 2.332858731703888 -0.4550346711767991
-0.7570941609358212 1.309616533874101 1.030217015231315
-0.7924634301835334 1.27204019849713 0.9794272055099376
0.301082613620218 1.663438045880417 1.038212699278867
-0.5560442525892181 2.594273619968667 0.8328511517149287
-0.9141067248913259 -0.7476498678205336 -0.09534066517789633
0.6590395938424464 -0.8030863453885465 -0.5668160516083234
-0.783110225549041 1.717126823819726 0.9726743718953419
-0.1942122259924343 -0.2214559287057769 0.8404377561603715
-0.9058650651828628 -0.9200052891354312 0.2992186151125331
-0.7989421667704146 1.34451227670281 -0.4534976721231863
0.7964848452017846 -1.204175798250008 0.1626586269606378
-0.8816807565268519 2.365877592978801 0.2387181307391748
-0.09523126129757967 2.799361281464094 -0.3684399450407835
-0.3943299179480131 -1.269819727510501 0.4058241980930963
-0.3889701292411153 2.002315260087823 -0.4718289571458942
0.287019633841659 -1.299120783546075 -0.4668119502671735
0.5772313063329994 -0.9426648478260475 -0.662929103188509
-0.6573144000807012 1.204165145644212 1.047163924835246
0.7245229489769913 -1.265255503587192 -0.5990505784017521
-0.09742867504611874 -0.0949961532904135 0.8890981457069314
-0.6778188369793099 -2.028605762207728 0.02684344897064821
-0.436430987455897 -2.123358825948672 -0.1156174238905293
-0.0996559356975613 0.263034018178837 -0.4647271342459979
-0.9129386179502452 -0.8129081852953721 0.315538082069575
0.7105215826847803 2.680279236225518 -0.348410698625072
-0.6612716172394112 1.351063918766312 1.044914221607612
-0.6319908269626023 2.802857216085035 0.4102948605354259
0.3648276462964982 -1.849318926720281 0.1838424241379616
0.7656537055382995 2.530060430907245 0.03243394944366632
-0.2471563843378374 2.070083770655387 -0.4657093626727288
-0.8614185477257483 -1.489644446982845 -0.2863271936610295
0.4745313653059662 2.829460899921509 0.07615691628964748
0.1538298091505959 1.596062000066708 -0.4634011782822051
-0.3919263987854658 2.810143014182439 0.2304211082638326
-0.09434563811324227 2.830648975451491 0.3374165362415569
-0.8327476083718211 -0.06271574429619238 0.7150479543197129
-0.4659374728339304 -1.849318926720281 0.1838424241379616
-0.8880996921225098 0.778693043676391 -0.3874306309824306
-0.3885008512517892 2.865822710229316 -0.1905159926194953
0.393840182699904 0.2417592466676965 0.9976907823652748
-0.2297114950069107 2.422598914188656 -0.4516687458523612
0.2879770221446048 -1.068864761396121 -0.4740736390701054
-0.3763569343368187 -1.821139386542021 -0.4456877617221589
-0.5663222334193883 2.416914421556531 -0.4529516888395569
-0.003417550307146772 1.287619033660089 1.046367831610744
-0.8647943808136314 2.532069451983317 0.4084863799566199
-0.5747821128705675 2.848028548409751 -0.0102407569984656
-0.005775340500700747 2.823697700110166 0.2879798306633111
-0.8592632695444703 2.285809170216306 -0.3599315351326499
-0.2476384992824856 2.300795772606588 -0.4582789391241093
0.7013409383977209 1.10960214327538 -0.4547264645693768
-0.7553861286427686 -1.962065049369653 -0.1644905931817856
-0.7747395013967044 0.6786375264415977 0.9764834066476166
0.7698030050889672 -1.546182584882479 0.07082284635959289
-0.00162463671210333 -0.7451722170134154 0.5960612530914573
0.5165644309313704 0.7864194718822251 -0.4647907375298915
0.8238142366585611 -0.1789342866600272 0.3975815388322213
-0.8381968604460987 2.280444944098814 -0.4681031954015999
0.7269851307641149 -1.789354545832046 0.0998651437898188
0.7612038845629913 2.218976120103639 -0.4826585378409868
-0.6115005384977371 -1.971766046839038 0.09336522630017041
0.6568742570321462 -1.461932928894398 -0.4468273845788105
0.7299901624798901 0.9242678637122627 0.8401815257449274
-0.1091234857774987 1.46340024622194 -0.4632431404898824
-0.6234644735677749 1.355409928339026 -0.4638027372427797
-0.5394405145784195 1.593411266471345 -0.46629844731811
-0.5583344068472994 2.503943525780306 0.9108764964928156
-0.5255343878925225 -0.9498724272050958 -0.4855208462710675
-0.7114570940569767 1.192169798053962 1.044424870559626
0.3951371704039554 1.027104460541494 1.052132618633936
-0.8975781409318598 -1.204175798250008 0.1996625991303107
-0.2948859289049189 0.01834138355848387 0.9298865472208013
-0.6319908269626023 2.802857216085035 0.4102948605354259
0.1964078400411672 1.285865154566292 1.046367831610789
0.7105215826847803 2.680279236225518 -0.348410698625072
-0.2913789028823591 -1.204496946555779 0.4219296321802046
0.5543135978068935 1.733397794921251 1.036441230293068
-0.886001398790263 2.154945357857066 -0.2057516101602073
-0.1149426132192895 -1.245385951043736 -0.4705926993502678
0.8083984946424802 -0.9775374575227414 0.1998697766067425
0.4476534635599249 2.812638470614317 0.4130665653010907
0.6761244262530823 1.859417703364702 0.9684365359289111
-0.8361835564804865 1.442744337355349 0.8402562920220082
0.7845189352311388 -1.393229659832649 0.1977403322482502
0.3648276462964982 -1.849318926720281 0.1838424241379616
0.826359706332237 0.03867301258437164 0.4191147746557858
0.6054543608729978 1.130944559606032 1.045982442312596
0.4743576482116598 2.807124767934386 0.1923399032427495
0.1468898316350747 -1.428896888714472 -0.4565845293685296
0.5562889091995901 2.804747901247375 0.1505837370121242
0.3353211609184648 -2.123358825948672 -0.1156174238905293
-0.2549396356880797 1.596062000066708 -0.4634011782822051
0.2084034110440616 1.266519253065093 -0.4642299958271373
0.0991433729374913 0.522609830438889 -0.4647887673760185
0.3051463164249236 -1.084293421151048 0.4462239982705683
-0.9335946861202233 0.2657157729960948 -0.0810184296284556
0.6666726888974451 -0.8328826070516664 -0.6018231036807834
0.5669160707010205 -1.480360833968658 -0.4544432124611207
-0.1903462994585425 0.4878075419132731 1.032003821817097
0.7959888880499783 2.154945357857066 0.2392726171358754
-0.7453222455832587 1.826649603541994 1.019819635354148
0.6693194416933306 -1.367635124270838 0.3666674989687261
-0.8894707653933835 -0.7529314718412685 -0.3722119761219561
0.7765454298661901 -1.231764583931824 0.3220657491686518
0.8098398478270419 -0.9200052891354313 0.2610257142683404
-0.4884976324293733 2.809797230345316 0.1923399032427492
0.6590395938424464 -0.8030863453885465 -0.5668160516083234
0.7929635275917624 1.828299064928633 -0.3696183867308909
0.5162085277326118 1.14930778262892 -0.4646650914765947
0.5562045735432689 1.204165145644212 1.047163924835246
-0.1004676091089108 -0.8550512668989199 0.5339021667081584
-0.5841843456435153 1.146446301333783 1.048775280269337
-0.2000488864327285 1.194744372600679 -0.4645155042114117
0.7797616296385781 -1.445602482101054 0.1845918778297262
0.4186245698479466 -1.125285901210052 -0.4884906472696032
0.7105399065557937 2.03414141410133 0.8260510672340659
-0.924077057147628 1.540197793379493 -0.07627800509036065
0.7724698330529047 -0.9775374575227415 -0.532060115354933
-0.7455267868115165 2.814941385363725 -0.009027998056130374
0.7231474814723302 2.736418132923517 0.1659775811272649
-0.8115354339584733 -0.5948462642846302 0.5843823096765748
-0.004589245749506586 -1.20750185215954 0.4219296321801739
0.7867974056318822 2.285193400963447 0.2390622160308001
-0.8941218079271189 -1.263438596326521 0.1791988937093909
-0.8275884233999725 0.6535643192948228 0.8331549676317707
-0.66717825842069 -1.174243657400196 -0.6849742400253718
-0.7977292830556106 2.293301753028088 0.7979081927594693
-0.8770586661915781 2.365444081854943 -0.0749424359233633
-0.6297497766753833 2.356089815603903 -0.4674171034225277
0.7913928384660319 1.03760239108711 0.6359148694955016
0.4745313653059662 2.829460899921509 0.07615691628964748
-0.2909186892774727 0.619915229978839 1.039449473107102
-0.3121317592311508 -0.9703259910497388 0.4781570337919595
-0.0901368648167008 -2.107257526688142 -0.2880865749942073
-0.7310856940018419 2.695247035868275 0.6321004846927095
-0.6437917942125575 0.486686458515492 1.032003821817163
-0.7073547595253884 1.785983987365504 1.032540649281817
-0.7539456634337804 -0.9909038872451824 -0.6939455962159346
-0.8956757416544322 -0.8123547743819222 -0.3678189974366145
-0.8283006003739808 -1.796741726780435 0.02021050006746882
0.5165867544036316 0.9323141006387996 -0.4647986181453369
0.4891560359271026 -1.453472565475618 -0.4598106431182861
-0.6107649299342273 -0.7918383569921856 0.5669215978359967
-0.09451329278528263 -1.709871766431911 0.260385294842003
0.2053532078765257 -0.192200559824584 -0.463682356748002
-0.887216186791334 -1.328861913726991 -0.07429259797478954
0.5660945138687469 -1.231834593556853 -0.6606707636456691
-0.8732775629333964 -1.445378522969386 -0.1695014546096801
-0.523561093826533 0.2634071703111068 -0.4647271342460121
-0.3355675673944275 -0.4787173755260917 -0.4621777502844621
0.3361548840882199 -2.124457583233853 -0.06735281271623313
0.7330114508240226 -0.1726267836191976 0.6803958354827517
-0.8517393527164242 2.682856261180524 -0.08492749024005224
0.7996614194775154 -1.147580508149164 0.1824885754156097
-0.9257402837009803 0.3896539614469788 -0.2362964982187013
0.8358965187935462 0.03867301258437163 0.2251728843796101
-0.9160674683753114 1.82830344687803 0.239110806742247
0.8300811622905797 -0.3027350875679549 0.3008535224343829
0.5164235116755004 1.118054916311162 -0.4647409893602386
0.0991433729374913 0.522609830438889 -0.4647887673760185
0.4116449844612063 -0.5506769561897391 0.6893349721176195
0.7967718012118799 1.757285676735869 -0.3680511863474476
-0.6961730738692196 0.6106398876919039 1.036262908887298
0.2782884510101124 2.823393327509609 0.3374165362415708
-0.815723187656174 2.60080867184047 -0.3682650855630548
-0.7693737544295214 1.99468806883457 0.9614777225772089
0.8274326394758865 1.539856076829228 0.350400866775278
0.4908422411496919 2.499126003432162 -0.4499986694054599
-0.8898717944225996 -1.328861913726991 0.06548647241317203
-0.005775340500700747 2.823697700110166 0.2879798306633111
-0.4949500092373363 0.2417592466676965 0.9976907823652748
-0.7059991570245925 0.6522090246873779 -0.4647887673760301
0.2782884510101124 2.823393327509609 0.3374165362415708
-0.9192536545636518 -0.7474768807411014 0.2746841806425254
0.6547738580159632 1.195792698528181 1.032096176825353
-0.9214401635037842 1.617795297149545 -0.07489347980714073
-0.2515331727130472 -0.8525553926979332 -0.4674214288296086
-0.09769216428155404 1.361135618212257 1.044914221607534
-0.7961963326458711 -0.3095011433472586 -0.452969153861431
-0.8329528731179101 1.967735452514267 -0.6591640332183524
-0.514060347653438 -2.121729615043324 -0.06735281271623346
0.3990528912096386 -0.6457475423193256 -0.461959881811273
0.8182032472271277 1.440282886482128 -0.2272140183908764
-0.3516967789905048 -2.125977809391827 -0.09221049950161439
0.7996614194775154 -1.147580508149164 0.1824885754156097
0.3433046457180439 -2.071065131618272 0.01959479429140882
-0.6763679669950171 -1.323411953557009 0.3882213588442212
-0.8901125924050541 2.091508576730589 -0.2061801217850145
-0.8857775927575272 1.24776200552123 -0.3866228028915775
0.770897792145859 2.219019965125116 -0.3563183975160098
0.08897262253854472 -1.273362694108906 0.4058241980930591
0.2888099225756795 1.934316900641965 -0.4758080255569335
-0.9257193523800982 1.333466615666927 0.4674224607856923
-0.6176686766007372 0.6532850329922423 -0.4647887673760301
0.2110219326937081 -0.9703259910497389 0.4781570337919595
-0.5720323701943788 -1.487379432748534 0.3422557195991373
-0.000375575242876118 -0.9140836050811469 0.5031644505722659
-0.2467985068064048 -1.244112164916949 -0.4705926993502746
0.7933340141430678 1.170891942566216 0.635426893124756
0.6703916733996899 -1.067276249417716 0.4382046832983339
-0.09810583580986756 -0.3818279501041555 0.7706032659349275
-0.6608862073906607 2.491087385180351 -0.4499986694054599
-0.09642059309759156 0.4879021830929582 1.032003821817079
-0.2928361787771117 1.960395655039873 1.032034395969225
-0.001438770613622581 0.522731969661218 -0.4647887673760154
0.08737919732566714 2.231804238563237 1.007991955247811
0.6363896603259598 0.7153933864842549 1.029825832304486
-0.8970987145874101 2.154945357857066 0.2392726171358754
-0.685925910978595 -0.8430929096035082 -0.5982300582703911
-0.1734403639230761 -2.120664687829066 -0.03210427575050411
0.5686649644635976 -0.5446033867625545 0.6893349721176216
0.6423453246879779 2.776138438701589 0.262878048123301
0.5845894977215638 -1.953853889218321 0.09324999974820747
-0.097092567864208 1.150352557867661 1.048775280269267
0.7774090286440054 -1.439272812225326 0.2302316776376836
-0.8901078748155809 -1.328861913726991 0.1222441798906503
-0.5237300329291427 0.9329323768001645 -0.4647986181453363
-0.8393237257662091 1.133972303099909 0.8402372287980224
-0.5686435720928472 2.640556423511015 -0.4416116154137535
-0.6891506696232859 2.471312027884628 0.909136404874912
-0.7745828924343345 0.2970841643048743 0.935755547017634
-0.5298879012971099 -0.9095268987660236 0.5031644505723487
0.5707104430540733 2.31825847408402 -0.5026777942614873
-0.8361835564804865 1.442744337355349 0.8402562920220082
-0.7766237180119578 0.8083924722943005 0.981159747029609
0.2864464042925418 2.644368645792984 -0.4416366748034648
-0.8598787457746652 1.631096730522882 -0.5642888060263593
-0.3890868486820474 -1.068864761396121 -0.4740736390701053
-0.1917109037580801 2.584979400111268 -0.4485403893576077
0.7550515333112694 2.154945357857066 0.6300953072972748
-0.1918305607370723 -1.145476489439035 0.4346143008153449
-0.9008798626865942 1.963642583784651 0.4695712913558857
-0.9036576879042202 2.027919941160388 0.03179955342330149
0.3798269341363251 2.790720158113627 -0.3684399450408022
-0.8833710684295254 2.285106698738675 -0.0734234176233399
0.6579342743309751 -0.9328002117372292 -0.6694555602291872
0.466614487298095 -1.574149592761485 0.3117789724147226
-0.759230086613399 -1.976360150712345 -0.05019325243616559
-0.8933343345545881 -0.6264892064152058 0.411971341081015
-0.4972781126035683 0.1288972475219298 0.9674320624741564
0.8345670073309781 -0.06901481909380763 0.2207119091311081
-0.9222852237963159 -0.6264892064152058 0.1109906276877123
0.8203303369663524 1.617795297149545 -0.07489347980714071
-0.2913012209491993 0.7515474324919641 1.046038520262832
0.8374333270127115 0.5187804617051417 0.3388535637938375
0.5778249019046398 -1.191523485301433 0.4219296321802336
0.7013409383977209 1.10960214327538 -0.4547264645693768
-0.2504687308138368 -0.8972945873301436 -0.4695402502751712
0.714613361118742 2.60080867184047 -0.3682650855630548
0.5106599305016262 -0.8491783427946635 -0.511182403531306
-0.6671122403412211 -1.477779020153134 0.3422557195991373
0.6148600085339129 1.265685246803437 1.043585275413783
0.2474459130375872 -1.492524716744105 -0.4515911962379695
-0.9169035638910326 -0.8129081852953721 0.267681752145359
0.01422217367514659 2.334411187827314 -0.4550346711767958
-0.2488644296125337 1.865392217556974 -0.4758402810957801
-0.8588587743488203 -1.631676678954269 0.1674314399169758
0.6568742570321462 -1.461932928894398 -0.4468273845788105
0.4762430236442696 0.3608181167526792 1.018985122225103
-0.357578724901371 -2.072552792439163 0.01959479429140838
-0.006399512223444369 2.514661962579397 0.9108764964927392
-0.588092180678266 -0.09268421629413715 0.8890981457069865
0.7893071679255775 1.897226922052411 -0.3699475853773717
-0.5761973425339744 -1.587233440886116 -0.4492597613869526
-0.8836595465598454 -1.328673257866738 -0.1497115568111845
0.7253861528942055 1.763536779443714 0.8355045522049698
-0.9193130737645597 1.440282886482128 -0.2272140183908763
0.7167280354281436 2.733604115032998 0.3158870311595077
-0.4998055535800489 0.01891835688678008 0.9298865472208273
0.7698030050889672 -1.546182584882479 0.07082284635959289
-0.09742867504611874 -0.0949961532904135 0.8890981457069314
0.6011700916981503 1.012253119142442 1.049108000072068
-0.3078056996399997 0.2632342646429433 -0.4647271342460055
0.8218872676578631 1.686004665697033 0.2393144792887813
-0.09668592481002948 0.2413088819589403 0.9976907823652059
0.3868159978105274 2.850745828137365 -0.01024075699846551
-0.3713394956536778 -0.6468040418775413 -0.4616253627747204
-0.911796489214648 1.686167650889326 -0.209159545881609
0.7296511653482303 -1.480214075287676 0.3082153319154199
-0.288724590848209 2.812688051837965 0.2304211082638306
-0.8748723998592238 2.366841442357159 0.4596448265719396
0.8106767566827152 -0.8129081852953721 -0.09536326883740028
0.7587689192372332 1.631096730522882 -0.5642888060263593
-0.9141067248913259 -0.7476498678205336 -0.09534066517789633
-0.5825374487442154 -2.092324727256704 -0.1950099604568155
0.5277415153623092 2.342751625979728 0.9807007747444766
0.8372374345391401 0.647296017508129 0.1321228311935816
0.7577489478113881 -1.631676678954269 0.1674314399169758
0.497398957027592 2.065374600303745 -0.5382830606824721
-0.1942221898539617 1.286893017722681 1.046367831610762
0.7656537055382995 2.530060430907245 0.03243394944366632
0.6462649756332338 -1.105941360179488 -0.7068891839348976
0.4383306880409872 1.593411266471344 -0.46629844731811
0.413641169180884 2.359448797851082 -0.4544957317107256
-0.9095948896817127 -0.8640675643817835 -0.09524796207647912
-0.6972963521820651 0.3557485709827565 1.014726016531865
0.2908165722480334 2.810143014182438 0.2123263351396457
0.1922966511494317 -1.143783452017143 0.4346143008153609
0.7922784615162075 -1.263438596326521 0.01547850517401066
-0.8223708361467703 2.73057160453971 0.2710281607855198
-0.8928262037560057 2.217992004791654 0.3496445178418815
-0.8833164562565684 2.027919941160388 -0.3671326548096704
-0.7242868601926109 2.637567973363499 0.7368786584586367
-0.646666740721185 0.8801572829037979 1.051811415410382
-0.7781003129346563 -0.6809228321956324 0.5859862106231341
-0.9080005106259423 1.897226922052411 -0.07353817874341168
-0.01049854497553643 -2.132244958588943 -0.1156174238905154
0.7869313857515443 0.3897098099661117 -0.3873885376706188
0.1493589042763529 -0.8972945873301437 -0.4695402502751712
-0.7640590328987462 -0.7832394170274526 -0.5305896720429473
-0.642037372618114 2.718146658904169 0.6319975663746241
-0.306721761358547 -1.028303818381728 0.4596155942303647
-0.2909186892774727 0.619915229978839 1.039449473107102
0.01410838897039737 2.302322895090942 -0.4582789391241058
-0.7570941609358212 1.309616533874101 1.030217015231315
0.1468898316350747 -1.428896888714472 -0.4565845293685296
0.1504172474748753 1.722783258819967 -0.4705008113805906
0.5526527884085996 1.802802028282142 1.03510371893721
-0.3025153737495868 -0.5521953020174569 0.6893349721175948
0.547923359563018 2.632245418979794 -0.4415113778548965
0.7775049905601048 -0.636747346892338 -0.3792639947191364
0.7863260610788803 1.447881442930495 -0.3801910217788034
-0.2989048799519051 -1.085806948869342 0.4462239982705529
-0.1942122259924343 -0.2214559287057769 0.8404377561603715
-0.8907152229923377 -1.257103793847582 0.263492680763166
-0.4018904086082952 1.594688293871081 -0.46340117828221
0.2903373575941102 1.863717232816961 -0.4758402810957859
0.6068575014103537 0.01886706803650645 0.9248889238150118
0.8114053797818055 1.897231667179469 0.2391681430069488
-0.8432334490823364 -0.4523439146989921 0.5720222716168677
0.6318924315658777 2.690185865007765 -0.4073399030916258
0.8257799127080274 -0.4586663412808149 0.1148315065285155
0.7330114508240226 -0.1726267836191976 0.6803958354827517
0.7014741862236643 0.3898687968345783 -0.4547572077207515
-0.8773297833694054 -0.4647754437740493 -0.3822975283608578
-0.8812004248249865 -1.091443423123854 -0.3817503974015279
-0.922808302020155 -0.3027350875679549 0.3833187277522264
0.4081893585896222 -2.093722370488969 -0.2427437911926361
-0.003152775237198506 -1.088585052055714 0.4462239982705248
0.8297044043143707 -0.3027350875679549 0.1173876145965643
-0.7374994868633921 0.7153933864842549 1.029825832304486
-0.8713480391889686 -1.546182584882479 0.1488399206326682
-0.9228262978074111 -0.6264892064152057 0.2813902516528351
-0.6408298534644896 1.787078786258509 -0.6159654044708637
0.7762199568319732 -0.4647754437740494 -0.3822975283608578
0.5000189044436673 2.327422527978034 -0.4708051228884081
-0.9287766373178286 0.7774198502063598 0.460212314145283
0.616967614995739 2.355979294897824 0.9517900532159431
0.7551366154599803 -1.390791000836359 -0.383840948421937
-0.8678953792670368 2.530060430907245 0.132451987341476
0.7508427771721793 2.217992004791654 0.6272074755052806
0.159762422014781 -2.128576922729166 -0.06735281271622939
-0.7059934363325546 1.454262563906046 -0.4654232387274311
-0.5697667289179225 2.861622916250132 -0.1908122062258491
-0.09028547626276141 -2.105209699329847 -0.2427437911925992
-0.870115013333773 -1.546182584882479 0.02101780365596569
0.1462290906902274 2.254769499115291 -0.4620034639060163
0.2466829643405977 -2.099964570770746 -0.2880865749942417
-0.1176137249444793 1.597032297119523 -0.4634011782822016
-0.6571959636285295 2.796787105485367 0.2123263351396471
0.7856963688044891 1.539675424618511 0.6400909633466805
-0.8634761878746035 2.529973728682474 -0.07637626952641011
-0.5862093671065223 1.740499365911779 1.036441230293068
0.3990528912096386 -0.6457475423193256 -0.461959881811273
-0.1920880381452716 1.889407283606371 1.033768821879095
0.8170125818972908 1.757285676735869 0.03155223232157754
0.5526480720562198 2.851735759791837 -0.09563735790650568
0.08573683137973054 2.721232616339706 -0.4176353369952683
-0.1934187748585248 -0.09463059746955801 0.8890981457069431
0.4989227792320719 2.29544827916442 -0.4858134781947326
-0.7553861286427686 -1.962065049369653 -0.1644905931817856
-0.1150047949097962 -1.129698665570002 -0.4734471250922906
-0.1873332210662977 2.649292795308238 -0.4416366748034563
0.5961865256446328 0.3557485709827565 1.014726016531865
0.2930951368966023 -0.8958791714945026 -0.4695402502751805
-0.1819758488108215 -1.855470795679887 0.1838424241379439
0.543249208936229 2.780625225067085 -0.368109673904297
0.3873668948845549 2.808654416989935 0.2304211082638337
0.8062818111743186 1.963615070168817 0.03173563311804192
-0.9369328396864504 0.2657157729960948 0.02852776856774508
0.2879770221446048 -1.068864761396121 -0.4740736390701054
-0.357578724901371 -2.072552792439163 0.01959479429140838
-0.099671055923913 0.6546161402498201 -0.4647887673760154
0.8238142366585611 -0.1789342866600272 0.3975815388322213
-0.8504000281259201 2.596557271595869 -0.2260387347205372
0.5285856940861122 2.063516891670962 -0.6253805329117861
0.635873423958109 2.8278140831059 -0.1957709258859161
-0.8901126785840517 -1.328861913726991 0.2062818660385575
-0.1891532472746761 2.823447652501631 0.1505837370121204
0.8327506399844196 0.647296017508129 -0.07999961998058573
0.6690455021986668 1.606535584439954 -0.5496261336720201
-0.552952321552049 2.729992112231162 0.6325618272845159
0.2066958731025571 0.2632342646429433 -0.4647271342460055
0.5882709617370618 1.712412832809671 -0.6300917222345721
0.7992435603316597 -1.147580508149164 0.0687835583676055
-0.8685044321047412 -1.546182584882479 -0.04589025679165663
-0.749920120558139 2.108629119971687 -0.6637526941689372
-0.9088936522708002 1.963618743623412 0.2392815114268661
0.7218720198836516 2.762547385230936 -0.0008734859494844358
0.6570672961053835 2.386117662888799 -0.4441439838918209
0.28938065282148 -1.010173451186268 -0.4745151636643171
0.1857548642096107 -1.437034759640298 0.3600712727149527
0.1767521864882375 -1.82342081420443 -0.4456877617221523
0.773501019690351 2.4543834034324 0.3415166600635437
0.2981395133338787 -0.7961189652126716 -0.4652277416949388
0.01599980208475409 -0.7983435092427214 -0.4652277416949237
-0.885308075052374 -1.204175798250008 -0.2381728959102945
-0.4193873123057483 1.056564641525656 -0.4647877817891953
-0.4021924401576502 1.663438045880417 1.038212699278867
-0.1025642413797485 1.360017380280973 -0.4638027372427648
-0.2758541092307965 2.786440996325108 0.5186875960130271
-0.1827877764551532 -1.825874959914517 -0.4456877617221453
0.4224703610378696 -0.7935158581912395 0.5669215978359939
0.4332293787123417 1.663077948365193 -0.4754744976090966
0.6048893304871603 0.5214325739226753 -0.4647887673760301
-0.2876624059240847 2.2297193774961 1.007991955247833
0.7274573593510274 -0.7897434144195942 -0.5437448477827249
0.5162085277326118 1.14930778262892 -0.4646650914765947
-0.8700226698840965 -1.0348389487221 -0.5377352821105054
-0.40002615306121 1.148047584252108 1.048775280269323
-0.6659932810455029 -2.073474454031806 -0.1442694171861469
-0.9013443343252344 1.897226922052411 -0.2073407267204639
0.4140694951397216 -1.532514807548757 -0.4503853752909167
0.5727032040077411 -1.001209144191412 -0.6866789358895353
0.8212780527836233 -0.4595312766779748 -0.08750577670591109
-0.7044892137157862 1.35168546772509 -0.4638027372427797
-0.004117767406675485 1.890609359127096 1.033768821879077
0.8188969687877926 -0.4586663412808147 0.3633944715995765
-0.6576495272903939 -0.09030036233230879 0.8890981457069866
-0.2888147883667466 2.836230314554198 0.0761569162896464
-0.6803668661184834 -1.13131088243826 0.4346143008153867
0.7891122367443807 -0.06901481909380763 0.5459855530830645
0.7269851307641149 -1.789354545832046 0.0998651437898188
-0.922808302020155 -0.3027350875679549 0.3833187277522264
-0.4193891275567782 0.6537717598543656 -0.4647887673760272
0.7900668225695536 0.9187168526589091 0.6339761735348912
-0.6515535805797194 -0.7930039029769336 -0.5089794783924286
-0.4188857307423213 1.192959889676426 -0.4645155042114202
-0.6015755624837138 -1.00789945187321 -0.5452305837487718
-0.9296032755038904 1.335066535575959 -0.07926796084137787
0.09216377469972151 1.666240260399966 1.03821269927883
0.3982714789173458 1.812350477922497 1.035103718937207
0.4709225436569465 -1.487379432748534 0.3422557195991373
0.7013409383977209 1.10960214327538 -0.4547264645693768
0.7901822410175285 -0.9136695048191867 0.3459632101582124
0.4681765964232942 2.223963406239455 1.007991955247868
-0.7937676100845399 -0.63878061551807 -0.455203509827255
0.6734730658969022 0.2970841643048743 0.9357555470176339
-0.6474392120176495 0.2425940053675325 0.9976907823652779
0.08592394179220081 2.361408642754183 0.9807007747444073
-0.6935800627310675 -0.9010809655802227 0.5031644505723523
-0.8901078748155809 -1.328861913726991 0.1222441798906503
0.6049215810520828 0.9301855799057276 -0.464798618145337
0.7014741862236643 0.3898687968345783 -0.4547572077207515
0.1014722193183043 -0.3197734756036094 -0.4630734418401135
-0.2504687308138368 -0.8972945873301436 -0.4695402502751712
-0.5995990991390235 -0.5493501631338407 0.6893349721176216
-0.919153788028788 -0.7474768807411014 0.2042075925717626
-0.9356768338684103 -0.06901481909380763 0.2207119091311081
0.1892916629630763 -1.27152660044199 0.4058241980930785
-0.8709128316263989 -1.546182584882479 0.07082284635959289
-0.5081625874245811 -0.3791629157236516 0.7706032659349786
0.2723691549541781 2.783923283416887 0.5186875960130362
-0.6388522200768974 2.149832833611583 1.018563313110123
-0.6176965809410638 0.9323141006387996 -0.4647986181453369
-0.8242053980787168 2.748300806220621 0.08848465872653084
-0.7282498193089775 2.746335375765006 0.5123865110994319
-0.7585343033215073 -1.975579150053622 -0.07695554093160587
-0.9370119708881761 1.102308018516508 0.03123040443473724
-0.1861546439430027 -1.58221326354585 0.3118371493679656
0.3034197942654382 1.284909630438886 1.046367831610814
0.4223046459938067 1.15016381369832 -0.464665091476594
0.5657049275526614 -1.340307207802321 -0.5938389386674357
0.7881026179795632 0.5187804617051418 0.6188188291121987
0.7132807916303335 2.771360143407663 -0.2067625848288507
0.6423453246879779 2.776138438701589 0.262878048123301
-0.2855416146083267 -1.493133760535905 0.3422557195991162
-0.005771343062931053 2.852254882791267 -0.2895098259032237
-0.9228907734362143 -0.06901481909380763 -0.2356909929913726
-0.7023774835677669 -0.1885566399687641 -0.4636823567480092
-0.3793982775475447 2.823393327509609 0.3374165362415708
0.7213954196796519 -1.550954483918585 -0.3966874408466523
-0.9338604665218511 0.5187804617051417 -0.07999961998058575
0.5072955456813646 -0.8937937551323104 -0.523748777129038
-0.6649670969982108 -0.3742232288624636 0.770603265934981
0.8375416726569066 0.647296017508129 0.2371761353822294
0.01619386443727597 1.625894270465708 -0.4649564265221787
-0.5807506372781381 -2.084436521310924 -0.2427437911926361
-0.8116314092222124 2.680279236225518 -0.3484106986250719
-0.8847875682024844 1.757285676735869 -0.5237308250848622
-0.8387610309740196 -1.081627571414548 0.4032246926528738
0.8374893351653087 0.9199398980557971 0.3455271341583098
0.7727147324233807 -1.490576345499877 -0.03287396655265665
0.5532581850478805 0.02122632092436638 0.9298865472208298
0.8264169666358343 1.243540670192654 0.4660284960545293
0.7841982485149419 -1.204175798250008 -0.2381728959102945
0.810995210663427 -0.9200052891354313 0.1626624012962728
0.7922784615162075 -1.263438596326521 0.01547850517401066
0.813441826896867 -0.4629910182666149 -0.2344898795430235
-0.2488920610445722 1.551462543269074 -0.4629044561006344
0.8233981283138854 1.617630972366673 0.03144328589494952
-0.9095083211799128 -0.9775374575227414 0.1998697766067425
-0.004775802988304205 -1.274659591712902 0.4058241980930455
0.5327050404125256 -1.841315069988973 0.1815174880681021
0.07094569431304744 -2.111205825365435 -0.1950099604567931
0.8116510065038559 -0.8640675643817835 0.004675850438829664
0.01422217367514659 2.334411187827314 -0.4550346711767958
0.2062968337683857 0.03068469562971819 -0.4644166563456151
-0.3489087780663122 -2.097922776946903 -0.2427437911926286
-0.001660780306163217 -1.030972039949949 0.4596155942303309
-0.1724116933868602 -2.12366016490065 -0.148785727834063
0.09914484609233071 0.7880399667015648 -0.4647907375298799
-0.875316905780817 -1.00315633948141 0.3649029273332558
0.6384446637363899 0.8453291614729211 1.035098160422863
-0.8507750954432704 2.663972103780349 0.3526643606923265
0.8315644020844915 1.174264697478453 -0.07994195722130491
0.281026961258241 2.50833731036887 0.9108764964928
0.1876147643107664 2.812688051837965 0.2123263351396439
-0.3499142597826442 -2.105854360647219 -0.1950099604568097
-0.09692759661116138 0.1280443330867509 0.9674320624740966
0.2782884510101124 2.823393327509609 0.3374165362415708
0.7269851307641149 -1.789354545832046 0.0998651437898188
0.7551366154599803 -1.390791000836359 -0.383840948421937
0.2857441533306036 2.844935577146156 -0.2895098259032387
0.8205288208090015 1.336613708484466 -0.23320507712371
0.5610473158061362 -2.054089481030705 -0.2393951672606372
-0.8993524903529737 -0.9712011695204497 0.3176128913129966
-0.4673614964363967 2.733314173112325 0.6327028925119873
0.7442585048866036 -0.8681222860520799 -0.602143829303452
0.3164439125730232 -0.7418923868172036 0.5960612530915032
-0.8895900698391028 1.436929143162616 0.6387955692627845
-0.6789347284420719 -1.191523485301433 0.4219296321802336
-0.9256363948841085 1.617630972366673 0.1321816052617811
0.1606840686111885 -2.117880784021496 -0.03210427575050531
-0.7057973808917213 0.2639158741234888 -0.4647271342460127
0.4883834365514457 -0.6451295937900274 -0.4632980923005006
-0.2479996581725586 -1.428896888714472 -0.4565845293685295
0.08892707750599062 2.100807245509963 1.025235957865394
-0.8748723998592238 2.366841442357159 0.4596448265719396
0.7861379737083269 -1.322528366906085 0.2521630988878333
-0.8265470443544299 -1.151494352061458 -0.6459212013402862
-0.8021658142484032 1.140502791508594 -0.4546522593297196
-0.6066725831446072 -0.7396138635262026 0.596061253091515
