0.7873112384160527 3.056360174392069 1.030433424952527
-0.8445140037083101 -0.6173215177531667 0.8813202689532593
0.4245539031798804 2.946428210804561 1.05534774404466
-0.8483366504532537 2.657466490028756 0.3260558240724908
-0.6750797234105024 -0.2982945900446062 0.9227622005269958
-0.8380057030563411 2.782027418161137 1.024053671166104
0.3304580692624282 2.078528546205785 1.23732441061531
1.087521890679332 1.886082064875735 0.9124806990417157
0.9779853731104046 -0.9352810637206103 0.3078282563382041
0.002629892541155917 3.022052961030123 1.059809387787371
0.1413457922734359 2.957079918724213 1.064382996366862
0.7106201816436288 2.775568528478292 1.051438410932776
-0.7532150426736297 -0.6825026784436964 0.1113021128043566
-0.8512341140468168 -0.4589587215520172 0.9119517012777442
-0.8258131517481105 0.6264956179764808 0.8840041963224261
0.1295065664801503 2.931809933791389 1.233255884500838
-0.3022500159254948 2.770405655234813 1.255996088258601
0.9435595963218866 0.3372108565944251 0.8962405567629295
0.8673724658803059 0.4663896507193748 0.929979931127768
-0.1912839311356046 2.346798284904649 1.163770371720166
0.6094605559150572 2.823331429370893 1.199533796413928
-0.3970090399124341 1.897015037702423 1.222682641530656
-0.9229166497969441 1.17344505744565 0.5677686653913963
0.9903178277947921 2.962304684119235 0.7763815821387852
0.7910294317006921 0.6733408954771718 1.02829734848544
0.7397083794033165 1.485502274350818 0.2565226507493481
0.2899905713227891 -1.401456223115969 0.5072981479505019
0.3717723452273204 -1.36743029318571 0.4575438424086143
-0.7497611186377337 -0.7971934904669586 0.2017802450454956
0.2337729405472565 2.414901686243296 1.1489433953304
0.5777222201167265 2.849732745346165 1.186120068068294
0.8123906777140116 3.127597110283845 1.307802548381054
0.3359725427197504 3.147311993344659 1.286886630226315
1.046741496201602 2.342698331384632 0.5361509770629752
0.7513812751682216 3.108147067491668 1.274612099952982
-0.008294501590620718 2.72061070216537 0.2469265078270832
-0.7207070453823321 -1.168801248021452 0.3044769720606468
0.9945177071548791 -0.8694002871458226 0.3089149921668207
-0.3606987800532643 -1.33357387878882 0.5715024740339311
-0.7810109706197607 -0.2832746363030913 0.9512012646121767
0.1253959976841059 2.354320016321498 1.174948453768943
0.5585177678191361 -0.2355632495556159 0.8947940599784647
0.7043468926031837 2.733704231239829 1.216989946461059
-0.8130684289182208 1.88305076644117 0.2417155191359944
-0.2107296712868331 3.124908688355369 0.6388157430266511
0.4254010890169453 2.751422258474265 1.221126787323454
-0.198377477424832 1.999335744242103 0.2460956165546024
-0.8121892378863257 2.732396537646124 1.227396428183051
-0.9163740909710858 -0.4106994294856358 0.7081270985778196
-0.8382368911180375 3.075605221191827 1.280302404969646
1.050438190552439 2.156014952961944 0.4467593649931488
1.05633648168085 0.1659902766408848 0.4149499883633756
-0.01736117912766022 -0.7988365404405369 0.2440848124154977
-0.7603362423151812 2.467766282914834 0.1159866824304703
0.7000910225679458 3.126637562668258 1.317475388712988
-0.8842796049309358 2.741522549640973 0.6797862786594098
0.01039733297355179 -0.2497471735651657 0.9114614643515218
0.7393218111462485 -0.2013454783719679 0.2448505184446695
0.4327401121315996 3.127267785835617 1.020969292336706
-0.1418474360480224 -1.38234041490621 0.5515808347217648
-0.2411227056542598 1.522369057193418 0.2477446143095102
0.7453778796733243 2.818630590906548 1.205110398633076
1.053032783194326 2.402165765560967 0.6051840491745529
0.265559161027066 0.1465164723393584 0.2427841614642698
-0.8351131690388161 0.3198174929544416 0.891386630533095
-0.06168268418205112 -1.352113547239124 0.2990269215208124
0.9493751534194024 2.016585142361491 1.037726941534596
-0.784018127309286 -0.1778285750148017 0.9482599619313172
0.2595319668795587 1.056588706824702 0.2415269698930435
-0.7775010476348317 -0.1933437584304051 0.2339767762277949
-0.1197030409514598 1.564029048283612 0.241727249163663
0.9999482710010398 2.36358016183325 0.9946849764666547
0.008415604462852694 1.182744658531582 0.2367855474145851
-0.3957488666967717 2.86060113306337 1.062029208079969
0.608999195718177 -0.1169004076777532 0.253863117658658
1.031432850345527 2.658347416157313 0.535680961952395
-0.1831408654534029 1.803849313691171 1.302796179117033
-0.612181497588667 1.142582522931982 1.129898553854618
0.996028913210671 1.93177824964507 0.192145452226883
-0.9431703085109884 1.610167548543078 0.9139063191390739
-0.8742430421318599 0.402854555815094 0.8783945947561789
-0.09886338595757677 3.153059503229815 1.316118684762613
-0.5936922885219245 -0.3799624934980517 0.1846262517600923
-0.7935244509034418 1.600128932043859 1.040529614323282
-0.6088151169389013 0.3614343176375808 0.9948402516767996
-0.6142866799383131 2.767503723078387 1.255734739477349
0.1293524479625443 3.162775639806713 0.7797034362406219
-0.524211257483765 3.13006305484702 0.9096805969579327
0.01520989994094284 3.133540242390313 1.281132264707675
0.5887613220010595 3.147570134816735 1.296325317953479
0.4196536428861356 3.158796373437752 0.9701632710882507
-0.5107668761418392 2.73094947745114 1.23248173960337
-0.3957488666967717 2.86060113306337 1.062029208079969
0.5402318592113834 1.897015037702424 1.222682641530655
0.4331617846440093 2.758035481039466 1.251061773887737
0.2330530792995474 1.024478883714194 1.34731476779433
0.8383391309446696 2.177922658558664 1.042482590237932
-0.8402309510175791 2.969400217145539 1.261236105324906
-0.9114955794351798 2.520451759043479 0.7160771190890556
-0.6331575261276637 2.634889243485835 0.2477620939197675
-0.6147951073932068 1.021469408960891 1.112431546467406
-0.9065342496721189 -0.2567398371482457 0.5822190838571466
0.008263890279636938 1.32059306584033 0.2367797117673051
-0.308375922558671 -0.8848776754395847 0.7509996641275257
0.3334491284724985 2.440151349905939 0.2469953434271164
-0.4464100073462988 3.143927528904198 1.311911419880765
1.05833020377874 -0.5697219313776041 0.7395156766030688
-0.8930538138376345 2.287818670877025 0.9508234826861937
0.9699681265466857 2.942707963754519 1.012860970054277
-0.9183532370098225 0.6947032228894612 0.3910304439217692
0.7907775105728487 -1.263269849648796 0.5026135526285517
1.051963133537169 -0.2567398371482457 0.7428632769248849
-0.1062817311786786 2.925635791005236 0.2584955365176435
-0.8602919832947902 2.241414967358016 0.9978258783238436
0.1353375803461112 0.6886851500748646 0.2368326460621947
0.8536009540266927 0.6707578289099061 0.9591633196170848
1.030513058074839 2.220475571902241 0.3240078682652542
0.01031439629575824 2.776331249114278 1.069151835126711
1.079494552310651 0.5857196907901612 0.7425789566632085
1.087521890679332 1.886082064875735 0.9124806990417157
-0.579538998351827 3.09619644676621 1.017939570734702
0.7805301658546342 2.534248142765655 0.1755679371643696
0.8924822445191532 2.227008042623636 0.05641375514929486
0.8826883477110932 2.877341807952866 1.042185873919461
-0.5107172594077455 2.753619410024101 1.210695486328327
0.6610801691051836 2.78035987288704 1.05285701667965
-0.542718905467629 0.7824914265806232 1.147355023114186
1.061576056308772 0.6947032228894612 0.3910304439217692
-0.6656337696585346 -0.9512393709709685 0.2667002245429632
0.8358344838491401 1.626286425918816 1.098935156888423
-0.4662377366161079 2.823331429370893 1.199533796413928
0.7031426566002157 2.753374344946502 1.251953951176463
0.132133670904745 -0.6983476372814829 0.830116565371436
0.7034078814999731 2.808172940317604 1.056011105005738
-0.9086723984121724 2.342699923795875 0.710335640816911
-0.9048810800103198 2.161286321937358 0.963246547840571
0.3356170630067065 -0.6007626471093985 0.2277032272201099
0.4292075972129995 -1.367595511062736 0.5573591302328939
-0.2882683024631661 2.074772770582381 1.222748331912284
-0.8987066661762255 -0.1037174635151692 0.4187385568758385
0.9454236408766298 -0.9917621527234064 0.7626019713548181
-0.363497534674063 2.117650495423028 0.2454086701357615
0.139823017533345 0.5617326707123563 1.204797570843808
0.02712070600686275 -1.379447526310376 0.4488528604994943
0.8866167531690234 2.806722907485523 1.042109710811749
0.672275902433838 3.11268201545989 1.323000264126203
-0.6741136107904004 2.37125882218199 1.036260085710229
0.8599480353901853 3.088444404800337 0.6990279581760637
0.3384982591814638 3.16163388343327 0.9439723716440898
-0.6727598967090691 2.721143489014359 1.224840434838477
-0.6228670650797367 1.786815075915471 1.13000763881522
0.9519074497573927 2.733396970774803 1.232505713057455
0.3710873037122178 2.852210433073379 1.273999847709542
-0.8935901490317261 2.585713714928424 0.9544745716903329
0.4100609423219706 3.058605205556993 1.044272709659849
0.6539718178050051 2.73813443899148 1.217999152536511
-0.7648839870145715 0.3531304933764308 0.9028588467447776
-0.6082022288867806 1.59314213282199 1.148883607866504
-0.4182745491511244 -0.3436938052963832 0.885683541324916
-0.1452204370237756 -1.354573487234567 0.4263083656416055
-0.9229166497969441 1.17344505744565 0.5677686653913963
-0.4251613950560094 2.974147241285726 1.084259681298152
-0.8006530345254651 0.4399284505138571 0.8967970926884261
-0.1209087854403207 2.905461693216354 1.285505222927996
-0.9284007740041241 0.8106089346184139 0.6673083327016314
0.77156119822789 3.033645170974923 0.4498875216487681
-0.8948527720396737 1.713333504622614 1.011084676583741
0.7996846061343286 1.989393581876948 0.1718943523783435
0.9098614414546307 2.668238160797853 0.2699350583799941
-0.9140955079981821 2.461491187032428 0.7069402113467082
-0.1165595443898348 1.182097880961765 0.2415255259333954
0.6218880688379767 1.488550884986621 0.2557924596729448
1.056756386130936 2.094864277722369 0.9680758134673765
0.1295065664801503 2.931809933791389 1.233255884500838
1.005248017452199 1.439470589118858 0.9555212888820062
0.5161399450989807 -1.361263130628162 0.5513719119284226
-0.7636808946554817 2.52129419721062 0.146327117038121
0.9031625486390812 -1.171989703532871 0.5192968380395023
0.7875511050757604 -1.239517429755034 0.4528264992402006
-0.5278607543761731 -1.146905669381042 0.6720491606888759
-0.9062682899386796 2.520451759043478 0.5359164589835942
0.7257143192269345 -0.5401767367721855 0.8465650473664744
-0.5312208601235176 -0.1748599910398314 0.8926603923995861
-0.4842997821254526 0.153100437769376 0.2569766359556994
-0.8508496044104504 -0.5118946642305097 0.9045150627280288
0.7424136119940018 0.4768178198853046 0.2567525902819954
0.9537189708309164 2.958515136488021 1.024597673644513
0.01195164463588425 3.083154545071828 1.267733395689061
-0.5833839735889062 2.767725418966981 0.2669743840227782
-0.4473883044673905 3.136792531252871 1.284401636748305
0.3678810353918975 3.127427610263891 1.326818862674268
-0.8402309510175791 2.969400217145539 1.261236105324906
-0.6259876820453866 -0.01649472671734673 0.896833356393968
0.2044686524681952 -1.404191410414412 0.5234374421287312
-0.8497346727830524 2.091136637683887 0.1177450393738261
-0.875361237665483 0.1651464598062709 0.3117895312391439
-0.2859847779140503 -1.367595511062736 0.557359130232894
-0.5749019644085678 -1.153707347753639 0.6893504121782152
0.6987740967581161 3.120253715737335 1.320489513304629
-0.5885504540881025 2.431012861220355 0.1982153888175109
0.2295104052847443 3.170692780796837 0.9702194410794565
-0.9125196568275213 2.220480009495978 0.7296543723507136
0.7303706428700457 3.060449754216585 1.034591997827678
0.8351426716136603 1.017426692187486 1.024390653316999
-0.8267453072477364 2.942707963754519 1.012860970054277
-0.4133876599888995 3.144256679607503 0.9390686283294791
-0.6104363036708338 2.792796317120033 1.261029217089697
-0.6142606816829399 3.123299838844082 0.9704727633654043
-0.7808604394133032 2.907051968796333 1.037711730162565
0.8907953581147197 2.821658253136579 0.2749132618299127
-0.8696232589335077 -0.9970806164559188 0.599647540056271
-0.608111069010051 1.562434266776245 1.150251017232936
-0.3102225180723218 2.588608730601248 1.074686884346283
1.080042493731747 1.504640912277832 0.8265100123755823
0.8241358844178044 -0.806419147872867 0.2069789182674413
-0.5925155295439949 -1.271898109367884 0.6206289095681797
0.4285722171314974 3.145640723011588 1.286481300843866
0.7560099889781142 2.959363564590261 1.227270873444172
0.9411001273295285 2.794605287995601 1.252493783202424
0.9813900161294294 2.157631610809248 0.1026834643441441
-0.4256463755405806 3.071614483466797 0.5181145405114968
0.7009710554560088 3.137776156209671 1.294067404358049
0.8672683833087961 -0.1580203271364404 0.9411276614357964
0.8597314434013011 3.095697654009368 0.7429674855366638
1.053240122600408 0.2841751543083153 0.8647878191843311
-0.2923102088885343 2.342193903138848 1.152025295137128
-0.3302717412209996 2.978053797956367 1.05502144735594
-0.8446775337514799 -0.1938037735499988 0.9209588478110498
0.5419342983011161 1.995384873239158 1.201417236880901
-0.3283268356004405 -0.6851325359069072 0.8195728302852433
1.052206699432921 -0.6226492612154493 0.5807574067567083
-0.8372208747824623 -0.8000921052994434 0.828124164506106
-0.920449210563921 0.03516697181603147 0.7391305352091084
0.6711428118057226 3.132104640483282 0.9862800838793976
1.056949342107537 2.461491187032429 0.7913603631015849
-0.2268753315354556 -0.1947394296540708 0.9046131395085502
-0.8425531564870866 2.78522611110147 1.226606094266128
-0.5104758450458597 2.766017818283037 1.208352758223241
-0.1418379055452277 0.01537465278346807 0.2434406292021377
-0.09951375403295487 2.717686564557618 1.067665010827097
-0.7809897081877478 -0.6013382873663188 0.9052777077884184
-0.9011740712120129 2.461491187032429 0.4403911489482719
-0.5003399322154949 3.051875595777456 1.222504965720983
-0.223878793967604 3.161488117992077 0.9906624720026882
0.3538590821799769 3.14953482882812 0.742164118134869
0.3349971540771873 2.499318844244158 0.2485104991777515
-0.612181497588667 1.142582522931982 1.129898553854618
0.978810553052992 2.772634995665283 1.209463235053054
0.6537635573880276 2.832592819141011 1.072233795827215
-0.008294501590620718 2.72061070216537 0.2469265078270832
-0.2680500587705292 1.714111924545657 0.2487859348489375
-0.7603362423151812 2.467766282914834 0.1159866824304703
-0.2846311363184284 0.3547710179487702 1.093764978073994
0.2334112915756936 2.749260339899291 1.241345214434798
-0.5116034389788223 1.709860656953143 0.2564932750473238
-0.2821782697179959 2.751422258474265 1.221126787323454
0.9302843463943257 0.03066184157085159 0.2655167560072593
0.9537189708309164 2.958515136488021 1.024597673644513
0.5065032606752169 -0.79811749004318 0.2449972834506056
0.1260811294745532 3.160854928389867 1.304585692445987
0.9588820122517926 2.745866160301119 1.238467670423861
0.9621936248283496 -0.9290184191099522 0.7852359194581289
-0.8961750462604016 -0.8051736150764115 0.4704922014571377
0.9497906819149482 2.901812344716081 1.033231418482984
1.042988425701396 2.220475571902241 0.4445949190231399
-0.2832780640308671 2.750487586258084 1.245781620056194
0.5782266684537226 3.143563043046812 0.9564482690788919
1.070853244301556 0.1666735403038192 0.7424886215413197
-0.2423597316098012 0.669422414702459 1.236734208969342
-0.9124032574197598 2.22050893292248 0.814498275460003
0.1307514565786613 2.722037701480144 1.071265225851364
0.479836065995336 -0.457856484000008 0.8718531893451099
-0.3665987449030949 0.1502455971422048 0.2540639630274427
0.7283927968228618 -0.1732856563495554 0.8955789397898792
0.00807183424503137 1.436882929845253 0.2367877361598765
-0.9129202305598501 -0.3568959407660654 0.644314017771836
-0.8421465032488591 2.823848894506005 1.231140875846662
-0.9284007740041241 0.8106089346184139 0.6673083327016314
0.2549435818370537 -0.5201633504930812 0.8707086227031653
-0.4175386735078019 -0.5057635262973376 0.8590678150388098
-0.7940184719835072 2.845526175505567 1.218143252080029
-0.6440884191171032 3.056360174392069 1.030433424952527
0.3527696966038746 -0.8905137437734148 0.7537430061481114
-0.5726924399553873 3.126987336156828 0.986686173445532
-0.1003175061153262 3.158805209095331 0.8212446192042677
0.7765658442853555 -0.4954872867460341 0.8718101560756968
-0.1899244747599289 2.747939272009159 1.24103226242806
0.9771593749276425 2.742016835862117 0.3235651360978103
-0.7599397293401319 -1.171989703532871 0.5192968380395022
0.615690444060639 2.784894825068083 1.05366742795853
0.4050250241327665 0.5634506189519536 1.19291805155456
-0.3248015751665601 3.04233338135087 0.3781284333259418
-0.8254878325135489 2.79356612948987 1.24429702265453
-0.5068243294205388 2.758084686382712 1.25307478674471
0.9396735326369182 3.113539026444926 1.283804280532897
-0.7268466579462849 3.121002759218313 1.310746776384698
-0.08983026000067751 1.024478883714194 1.34731476779433
-0.2367325162914337 3.131730584166292 1.022314755696519
0.5106014573933952 3.151565977557995 1.30812998936858
0.9621606211834383 1.455098011740086 0.9893360725376532
0.9351798873136591 3.053060328794118 1.263585704331946
-0.4069388980393379 2.581487751551343 1.067135226033561
-0.5155847373634257 1.989448080352521 1.145480978733142
-0.0170871283856205 1.8818540420203 0.2433858024844636
-0.8281375713172355 3.098155458081973 1.284390535258959
-0.1075908320101614 3.090815127205179 1.044299097155916
0.5913844914802355 2.742261355851865 1.243830122090266
0.2187466361466085 -1.312432328477731 0.2731096410766914
0.1276998703050327 3.173091985248403 0.9514470027706576
0.9633166933035748 3.065213430159813 1.304121025732856
0.9126249212515244 1.863381361992822 1.069669000177212
-0.4483120260629036 2.750089686307901 1.249178034158597
-0.9326504743874131 1.611005161844325 0.4282891593535456
1.049757068971069 -0.2567398371482457 0.5822190838571467
0.2634878335223795 3.113003200659866 1.326852409411486
-0.7301682213126438 2.721797647470308 1.224235509604246
-0.01738575447552691 -0.3285415296462208 0.2319417766828324
-0.9337491176910229 1.887572743566419 0.4401418777908771
0.7692105013443358 -0.01649472671734674 0.8968333563939681
1.051275480966513 -0.2567398371482457 0.6434328616539415
1.018862542200411 2.812294922875067 0.6090171187507967
0.8213923473687055 2.73480036752571 1.245083985480766
-0.09929318716868672 3.110647176858032 1.273783983087694
-0.6112854434597134 1.633334163870373 1.145768672814183
1.054305454757246 2.520451759043479 0.6655786394077987
-0.7207070453823321 -1.168801248021452 0.3044769720606468
0.7378136465208467 2.562366931491397 1.047711169284373
0.8460648819783243 -1.057955304431349 0.7514351295397763
1.034906823749844 -0.517223110186379 0.3158070037829321
-0.3843454838170541 -0.8774928291767694 0.7487368038018357
-0.09793782909736341 2.761080836901214 1.251783197998704
-0.8085354869278503 3.112940138846018 1.290433960197439
0.4515154489281025 0.9001101132583564 1.296107176962545
-0.6656342255774919 0.2515485236030755 0.9235091769354802
-0.3957488666967717 2.86060113306337 1.062029208079969
0.4479533177702649 2.527939932111719 1.092728633220276
1.0224566541015 2.741117134522508 0.5334367250060925
0.960400183239834 -0.2323680859950559 0.1820699526619896
1.094075683096872 1.790685627067337 0.8086414166655955
0.1241075486651949 1.273999884879271 1.376353067059204
-0.6433514224918002 2.980299342702226 0.3250305069147406
0.7419496169851741 1.514518267011819 0.2565764594062147
0.2475246838891144 2.843729138569966 1.215123430609167
-0.9128168077551706 2.023231060765633 0.3262415096058329
0.9612647703225679 1.799539990975402 0.2628846715321921
0.5711247868519659 3.082410930805361 1.321925661301613
0.8953195439918045 -0.05921785918402295 0.927645803163726
0.1369606488524567 3.13238559687443 1.327410362531707
0.2431890061501512 3.094144941196333 0.5123014835505751
0.4488111777232176 3.136908057883983 1.324588533637515
1.052206699432921 -0.6226492612154493 0.5807574067567083
0.1351509850537591 1.436882929845253 0.2367877361598765
-0.2832250554685856 1.80096241908665 1.286294979671866
0.5161399450989807 -1.361263130628162 0.5513719119284226
-0.1181130498435343 0.2609767404847551 0.2423378772611906
-0.4401556935382902 2.999919747616101 0.3241787642981955
0.7159152592543365 3.126987336156827 0.9866861734455321
-0.9035186769026531 2.342698331384632 0.5361509770629751
0.5824074083788151 -0.9159668257412208 0.2617818380608696
-0.6183717381661784 2.120810186388808 1.075088963778491
0.2660375881221948 1.631895655483584 0.2420375825983352
-0.755167477786175 -1.162560061401182 0.4561952106157305
0.4555436834992607 -1.355091706831387 0.4591252997680531
0.2328598062858651 3.159459228277385 1.299076677975592
-0.4825909094583802 3.041541399351933 1.18441596360829
0.7781941894523519 -1.234332942651466 0.3494493157661592
0.01949277519054097 1.808557979176158 1.317319909232757
0.6437553049147922 2.391227137242955 1.076992088063606
0.8344578134878817 1.137941872903937 1.043400995947273
-0.1986981586173835 2.797479854939552 1.21122198790383
0.1268139337606337 2.754613558678268 1.246759034887246
0.01997339956867099 1.523027472455316 1.366713714360424
-0.5612094317675497 2.740626382412237 1.246916455900554
-0.4191366727129756 3.141376554690829 0.9086742469693536
0.8307489378318607 2.771186134802214 1.046028122592055
1.006499848148453 2.482333541572015 0.9983598575896335
-0.1287727372359665 -0.9882364850296834 0.2520834635426134
0.5871725960326887 2.904827126194586 0.2721995371309605
1.0224566541015 2.741117134522508 0.5334367250060925
0.5123794943413531 2.742840409732339 1.239824376600594
-0.3603407195895911 0.4730834081159808 0.2531038240304393
-0.8410728600066721 3.003539197001566 1.256993816695012
0.4753705922587628 -0.1913042743249847 0.9001196447343198
0.8894143387492188 2.289395586840974 0.05917157273452961
-0.5862826846028357 -0.2212483095300834 0.8936056804496753
-0.5065343672247019 -0.5469971566259433 0.2179872876912563
-0.9375218659135757 0.4823751820543672 0.7491034016474938
1.030148438243526 -0.6226492612154493 0.8138745557614864
-0.2220965603473562 -1.382416875638159 0.549809948040457
-0.8454604518102298 2.683882674911111 1.019477925246421
-0.5353714679807042 -0.3299767994045054 0.8815564052123732
0.005463244710372125 3.062568802205236 1.318879722248472
0.5721111599402582 2.956346799835864 1.296380318891983
-0.932800438081179 0.2788710868954117 0.7478649088169106
-0.2424455937898997 1.562080299560423 0.2478527816174037
0.9285783636838483 3.060796302525644 0.9478307467808207
0.7734194932347406 -0.4831532098777528 0.1086747745497484
-0.514590938254653 2.063465207092322 1.131634439822407
0.5237444181176015 3.140250658370282 1.0019451809313
-0.7898442421894449 1.174883912497136 0.2629558209776319
0.5971366726308939 2.705917108161871 0.261356534152802
-0.5417644783842215 -1.297847204382896 0.4623824019084054
0.3588988730362975 2.953471889045541 1.056921121265182
-0.5749019644085678 -1.153707347753639 0.6893504121782152
1.035479357049874 -0.4642871912853333 0.3166903599568695
0.985270035368062 2.831112344658081 1.216433032686743
-0.6087371308036806 2.984340971199925 1.05794166919237
1.072295959420307 2.089615263039247 0.7923963107782461
-0.879233834802551 2.741117134522508 0.5334367250060925
0.8759090528527603 2.416621107824563 1.028213350563379
0.6107269510361596 -1.334074714121383 0.4795211633414656
-0.2930714945013572 2.79560980755108 1.210597969591396
-0.9267518352048688 0.2788710868954117 0.8307495187443785
0.2830424098253637 0.4589155406299635 1.152709768188444
-0.5075719056967106 3.139501607242188 1.289345720690584
1.050930310635571 -0.3568959407660654 0.516487354562658
0.3331472940588782 2.74607045654763 1.230990207445162
0.8351426716136603 1.017426692187486 1.024390653316999
-0.7268301605261344 3.127873462723501 1.296757286479694
-0.4729033243375097 -0.9210481243608977 0.7198933891952942
-0.09018847227674437 2.747293869476431 1.236368962429035
0.0186782680263575 2.009309999567891 1.2683793939381
0.81980157489421 0.1192601784780067 0.8982346759790355
-0.9216622836437947 0.9318354518777144 0.7610260587020078
1.046173058369754 -0.2567398371482457 0.5182003121552758
-0.4386888604841002 -1.27596092077632 0.2870452555533645
1.064264654196856 1.419648547256041 0.878742418968143
0.9793277217946846 -1.077669310021325 0.578500535317758
0.1515173208894112 2.72061070216537 0.2469265078270832
1.064749679270553 1.307019653776724 0.5190256124855025
-0.202009525113323 3.150349061474719 1.317947706562633
0.1368581537694997 -0.03902326196066118 0.9452858132977823
0.6467900293676141 2.184194501087625 0.2337967677860986
-0.1003257158156894 3.156121242615775 0.7427461151476907
1.046114964410179 2.583297809561295 0.6729228595141723
1.057150380335163 0.810608934618414 0.3856100327397734
1.010919732089758 2.87552427139907 0.7451764314375646
0.9749494387018107 -1.078053610332742 0.6082767889678418
1.038529480028875 -0.8722935433090067 0.5552563380962741
0.4355330281874836 2.342193903138848 1.152025295137128
-0.4737364315080657 1.179104339092803 0.2557571319824883
0.2464364087165877 2.880441808567501 1.2201894725309
-0.530598540499961 3.100244505857321 1.019081881098552
0.5735928034193091 2.807729950754908 1.264565717977407
1.062814940566936 2.156014952961944 0.688369629156079
1.051930695834785 2.282574822758458 0.7586416693171809
0.124609474028841 2.21935562124244 1.214957275920231
-0.9509775905511961 1.790903996850926 0.7603681054461431
-0.8718245947027982 2.812213839851375 0.5314639065243465
-0.8494378673510793 2.617162701563768 1.013435651074798
0.3331472940588782 2.745972801586298 1.236056010422297
-0.2278644844132685 2.852210433073379 1.273999847709542
-0.8425531564870866 2.78522611110147 1.226606094266128
-0.3174541668641602 3.098199687310925 0.5777518907965966
-0.6747779079221473 2.815687505658786 1.20953484692453
-0.8125162666768862 -1.078229363144025 0.6667222922056464
0.7391905311440654 0.2704527616633915 0.2572731802271724
-0.6773762143574114 2.771122144929264 1.205514786141911
0.8270827150551203 2.764860771637105 1.254543996372887
0.5386228079577846 -1.351836420022229 0.4795211633414656
-0.361786367112789 -0.6556396173445556 0.2316969697257237
-0.8984392975253488 1.697082212736971 0.3171920602595822
-0.7745400870685375 3.099042900320335 1.315512687510766
0.745971750676694 -0.7982658544872132 0.7859738344160953
0.007541883857758357 2.829748557088071 1.067692826711474
0.3376920512809307 -0.2570300378789555 0.2360674369258504
0.3431866702915332 1.95987256049496 0.2454865834142644
-0.579538998351827 3.09619644676621 1.017939570734702
0.6585654076421879 2.810962877028426 1.058669931741222
0.8010220202912031 -1.176763188371659 0.2782436496108448
0.4100609423219706 3.058605205556993 1.044272709659849
0.5237444181176015 3.140250658370282 1.0019451809313
0.5330885219780915 1.515153073923967 1.290582868421852
0.139823017533345 0.5617326707123563 1.204797570843808
-0.5094163796846862 1.889315530711874 0.2516465324331708
0.7575094992372623 2.767503723078387 1.255734739477349
-0.2821782697179959 2.751422258474265 1.221126787323454
-0.7156144376408591 -1.085799937777789 0.2738809350306266
-0.5773473222995952 -0.5957621653118318 0.8326627766851752
0.9559090788363858 1.095637516684446 0.9175540564860518
0.01081922636646788 -0.6351884296808187 0.8477518672320533
0.7510779782094446 2.793742071440775 1.205626208841407
1.046628449826479 1.799139459415254 0.3198138509023014
0.1353289480041065 0.2595481792058513 0.2376063106307891
-0.3897197642705138 -1.318696565471256 0.5835522626286798
0.2605157100090081 0.8084943174025416 0.241536004289144
-0.7727278488740471 2.34000273999837 1.018475552015786
0.6067423776153571 -1.347121586162339 0.5217412894063357
-0.9323707259368773 2.022972184997545 0.5447267776193623
-0.8425531564870866 2.78522611110147 1.226606094266128
-0.7847537641560726 2.21353355069034 1.020881163435002
1.089814542912422 1.886187038307948 0.8509509289252195
-0.882244682337252 -0.7392544265620873 0.7748286034616618
0.8973133582991247 2.750348643156803 0.2743010579573322
0.664869994094341 -0.9157843183286757 0.7226543504298033
0.5129465843495605 2.754577340805992 1.216410310266727
-0.8971615972513546 -0.6226492612154492 0.4169634634357357
0.6469845705862519 3.125109012636496 1.321678243769958
-0.4400512772012608 3.020972430439475 1.17916483522117
-0.1924019912455717 -0.6552606361271883 0.2306237219454539
0.9537189708309164 2.958515136488021 1.024597673644513
0.9446135807717461 3.02285962278778 0.9965324634859836
0.1413457922734359 2.957079918724213 1.064382996366862
0.4717145084343049 3.008795492643613 0.3217086395313652
0.1353289480041065 0.2595481792058513 0.2376063106307891
-0.09018847227674437 2.749816351093794 1.226386917304658
0.5700760737957142 3.108511799044138 0.6399005366761015
-0.6990384734298342 0.2732861833860333 0.2572731802271723
-0.7857594640374737 -0.1067721564505848 0.2619036414064013
-0.388897652854645 1.642079557376687 1.274256214987819
-0.8772949842938771 -0.9340454505050293 0.455796800920452
0.6674340767827142 3.13006305484702 0.9096805969579327
-0.1826414973280091 1.406822453937802 1.35781626763822
-0.9295987372783729 1.419704101461801 0.6719876509528245
0.7424136119940018 0.4768178198853046 0.2567525902819954
-0.09966209360474641 -0.8957301197843766 0.7567402333154172
0.6465683321077618 2.832413749742727 1.181909203092351
0.8962264299133125 -0.5767632710930751 0.07052474221600455
0.1332578143683536 -1.057228475495087 0.2482863367989204
0.7500995745223917 1.887979799635669 0.2499184584239631
0.37293476581807 -1.047165783327708 0.2588842864010518
-0.8395244746461069 2.847606986017268 1.017921958318611
-0.2372911028769616 0.9327255423484546 0.2476551836412334
-0.06111216163710385 -1.391802235721519 0.4720956701346109
0.5219606137795305 3.150182592686074 0.9761588719332588
0.8970872509059359 2.589258733391694 0.2084646231241479
-0.6624538144376694 1.883728766390885 0.2450602068925197
0.9864962340572269 2.967391445029779 0.9314371354411212
0.9418362716484154 3.049782431284444 0.7540101677827394
-0.1663153246809122 2.716646679088168 0.2512547692514805
-0.8013952982037254 2.080501190466479 1.029782079409428
-0.863277028849504 2.482333541572016 0.9983598575896335
0.9117773605749774 1.765560866268126 1.075232733585215
0.7292653330912371 0.5674836726565826 1.070538163374046
0.6952485698835654 2.796736161264128 1.204851756009475
-0.4763002926303905 -0.2296381343266647 0.8925777041910901
0.8165798019555861 -0.6366423951581525 0.09257392708105744
0.9783359883377656 0.3198174929544417 0.891386630533095
-0.09032922716962483 3.156539547413285 1.293368585870804
0.8970872509059359 2.589258733391694 0.2084646231241479
-0.7585930967547949 3.007204498667802 1.029902125334034
0.6504766823393124 -1.325073303191756 0.575075329996534
0.3366590623171893 2.596023666883329 0.2500846105124837
1.035975954658034 -0.8722935433090067 0.6675490273481646
-0.7165086241023518 3.095697654009368 0.7429674855366638
-0.6875261185329111 2.771186134802214 1.046028122592055
-0.6815376012253622 3.111475058422853 0.9825780681827586
-0.8908214034997373 -0.4106994294856358 0.3181486472738243
1.084421713997948 1.544131336762972 0.7698882401935491
0.7699768138053802 3.11274093631709 0.776971458531324
1.070798863635974 0.4823751820543671 0.8252775996741222
0.5722643842834352 -1.263340173050385 0.6088700051466142
0.3176962468204351 3.136650203228414 1.024377499339997
-0.09160151936177113 3.168111858811582 0.9480445475835011
-0.9081555777553334 -0.6780712169174202 0.6939766688501703
-0.3691566750424039 2.742840409732339 1.239824376600594
0.9837180721053902 2.948884801610886 1.239929101163362
-0.1073948763127309 2.818750024800457 1.064438946127218
-0.894736878087933 1.312873040596734 0.8842429110432364
0.6828008194723485 2.952228422224536 1.122051146569531
0.2016443697276493 -1.385940491831833 0.5481191040534984
-0.3898657026791422 1.515153073923967 1.290582868421852
-0.7461915194502695 2.289395586840974 0.05917157273452961
0.7059785736561034 2.958370221493449 1.20471330567441
0.8954121213292832 2.163609554557422 1.031797286708933
0.3538456053417813 3.151086819407564 0.7778133868565573
1.041793247184325 2.466701775667326 0.9510245006294782
0.02698526433409257 -1.403753623025299 0.4849929256881952
-0.9096314829236998 2.520451759043479 0.8719801354647991
-0.8354801024675934 -0.3584572527150649 0.1208179165385485
-0.7395291752626938 3.01280767056672 1.25344997447121
1.060617702965533 -0.517223110186379 0.6679561542633679
-0.7826548230946879 2.875204873952268 1.037559598612246
-0.09018847227674437 2.747293869476431 1.236368962429035
-0.8248662301251806 2.861209285218577 1.256293643302487
0.6539873121230841 2.744654456548048 1.214082137816068
-0.5620608458821108 2.839492745867941 0.2680082480377195
1.053421229957907 -0.5697219313776041 0.7704264243719776
0.4611856410260983 3.142391185029938 0.7416719211252296
0.3551770191863238 3.070656616432471 0.4459832140470598
-0.9190855895509451 1.960448385785494 0.3267441170246845
-0.6314540056040841 -0.374252199071939 0.1284875536938098
-0.09018847227674437 2.747391524437763 1.231303159451901
-0.6614440013721965 0.5693263851300873 0.9991185294146758
0.9248456945582115 1.468709418011856 1.017277783606415
1.079052194378145 0.3816666358732728 0.6388140599732141
-0.8328429446810072 2.746701719574733 1.215404104968229
0.9586646492787461 2.761179729990502 1.208091125888635
0.921217477452983 2.752475826985679 1.20742522070811
-0.8000977577990172 0.5842993673402892 0.2628637043051227
0.9258776423936371 2.875204873952269 1.037559598612246
0.7647507887015801 2.056421018422932 1.087076333239789
0.4314372000753441 2.00004792985508 1.239905598670263
-0.09690871799136323 2.989254592555251 1.241538539354548
-0.2782651700886785 3.14994440432824 1.004229021331868
0.3841839981863282 0.5778579177615114 0.2477803062795673
-0.5076155728931917 3.141193774751064 1.30572389623434
-0.8593644361226502 2.423021746911759 0.9961627158818849
-0.2539130406827334 2.761103400299529 1.059406840310526
1.018584056964432 0.1651464598062709 0.3117895312391438
-0.2112416638761536 2.882293693730929 1.059144094547844
-0.48533930301134 -0.9690539828150658 0.2659868184544619
-0.09121304834044078 2.769987627087246 1.214552517787411
-0.5276909845185347 2.994733882624397 1.130541312913184
0.8273445207864254 2.938179082101999 1.291326292108344
-0.9033544935643444 2.583297809561295 0.7735376594956307
-0.737906844147301 -1.180363126521045 0.6216318138552056
-0.7639707087079568 -0.8510027120529846 0.8322054061422011
-0.3651798976540018 -0.2586969641427473 0.2365712096613417
0.5410384913307187 2.336101991148321 1.123360177139399
0.8159827160080184 2.721143489014359 1.224840434838477
0.9887777614106384 2.945600256170502 0.5971216325406856
0.3672339573684931 -1.341391912896465 0.3421309432345593
-0.9086809374095841 -0.5697219313776041 0.5154260392402907
0.6710640517514233 3.123599027240438 1.001222941454771
0.9369057452687479 3.030716882697336 1.00350972558377
-0.7045557298472566 3.104353720621655 0.9273415360188455
-0.3366559927814568 -0.403679932023525 0.8808392975971762
-0.8751193180765504 -0.4106994294856359 0.1992735757436538
0.8128435720215432 -0.02595521902284934 0.9048051056494364
-0.9119441998030463 -0.4642871912853332 0.5203870796156854
-0.7940464884664333 2.147144407277134 1.024429476778093
1.076062897441066 0.2788710868954118 0.6967177738254529
1.07119116032443 1.418387993859254 0.8393461211347033
0.5129465843495605 2.754577340805992 1.216410310266727
0.8968401573780656 -0.524009052552318 0.0601333956007677
0.9970876133683981 -0.2157307770922079 0.2355761282875626
0.815469405298801 2.979733898747523 1.045253535224095
-0.875361237665483 0.1651464598062709 0.3117895312391439
-0.6841217014874762 2.938179082101999 1.291326292108345
0.615690444060639 2.784894825068083 1.05366742795853
-0.09025497642902916 2.754495543607512 1.221854378971338
-0.8261640452072614 -1.07557336970807 0.4413416059752374
-0.6121737706164186 1.99470142157654 0.2127178757105397
-0.7268466579462849 3.121002759218313 1.310746776384698
0.008099503427976041 3.095497025397946 1.04863531121834
1.093848774993168 1.790976786778789 0.7038751902376131
0.8284396978004951 2.827239510991833 1.267374302458405
-0.426853254496765 3.108511799044138 0.6399005366761015
-0.2069458768332773 2.593995059306566 1.080331493865222
-0.5125578585801441 2.12823916574843 1.118239975645129
0.6372783132644229 0.1105124700951655 0.9542982775728566
-0.5114081460197673 3.019821073769192 1.139329637277503
0.9497906819149482 2.901812344716081 1.033231418482984
-0.08144374197062547 1.609480540131613 1.350320884347584
0.2481954112443633 3.021710080371403 0.3121426779927999
0.6469845705862519 3.125109012636496 1.321678243769958
-0.5773473222995952 -0.5957621653118318 0.8326627766851752
-0.7853555443848992 3.060796302525644 0.9478307467808207
-0.5726924399553873 3.126987336156828 0.986686173445532
1.064885102942744 0.9318354518777146 0.7610260587020078
-0.8085417990093631 3.106008906239462 1.304529244901609
1.079591492547788 0.5857196907901612 0.6883044262636029
0.7669435398112011 -0.6038996137809711 0.8465485016407499
0.8422612927287834 0.2732861833860333 0.2572731802271723
0.8773598888494366 2.294464270890988 1.026229555418947
-0.6747928707172464 2.743128002595903 1.208485920155106
-0.933186561691022 1.477075636557532 0.6893947655021372
-0.5399854155513009 -1.280348352947352 0.4343895223757829
0.2608059691268627 1.435664851323559 0.2415276922465439
0.001345393078633139 0.1006889611598675 0.9890520085635342
-0.4485478449687524 2.76297627092559 1.254235608054816
0.8272077446109489 -0.8932638265993658 0.799830827440781
0.9369057452687479 3.030716882697336 1.00350972558377
0.5096803794846068 -0.2364522581836605 0.2402534681717427
0.8399318380895975 -1.177009400231513 0.6799881238589842
-0.620333082363268 1.929567276933928 0.2364304166101951
-0.2044872007293993 2.880453133272207 1.216562614439854
0.6539718178050051 2.73813443899148 1.217999152536511
-0.8763524750689937 2.461675253924295 0.2203770079434822
0.3805081279803897 1.18126167386024 0.2476537590129969
-0.9182992615165639 0.2788710868954117 0.4149814960276755
0.9351798873136591 3.053060328794118 1.263585704331946
0.01153005780719574 -0.7666521729126825 0.8087412882969465
-0.5610684511321723 2.729055036412872 1.221495310906029
-0.9094800140337981 2.402168946907679 0.8649399713399015
1.047010599713402 -0.8054166130655198 0.6148097609000225
1.028903788668066 -0.934339191433001 0.5831836377841335
1.094200409850145 1.790903996850926 0.760368105446143
0.2334905440566147 3.158265007250598 1.309558620903598
0.2188767813527661 -1.183553103442134 0.6365307019068559
1.053321151560845 1.17344505744565 0.4032945352284006
0.9778658518151052 3.008056722936246 1.253577800812783
-0.8377451394958964 2.789078257151026 1.235083535296584
0.6504766823393124 -1.325073303191756 0.575075329996534
0.01153005780719574 -0.7666521729126825 0.8087412882969465
-0.01575042218269011 2.317958178327033 0.2422043469650351
0.1276998703050327 3.173091985248403 0.9514470027706576
-0.3807099728269924 3.134386699333399 1.323989904498152
1.043494993865627 -0.8054166130655198 0.5239983224048946
-0.768554541276028 1.765560866268126 1.075232733585215
0.1278323870255383 0.9001647979166079 1.327665430014896
0.9847840749748202 -0.2514133506232841 0.9251571988855731
0.9760657639799565 2.744305075280435 1.220263208468374
0.5123794943413532 2.743396420926842 1.224866079470454
-0.9140955079981821 2.461491187032428 0.7069402113467082
0.7981348323457883 3.116500811140544 0.9639208989857638
0.3312920604853101 1.147493961992744 1.35443889614507
0.5885374762639176 3.147805629042273 1.301682098831004
0.1159720723804245 -1.360814237560487 0.419739466886714
-0.01906233538840837 1.999580908132969 0.2458488033709376
-0.7134887020447007 3.10063951628306 0.8837837005087746
-0.5107489985060558 2.738134438991479 1.217999152536511
0.8613179744638134 3.020227927838277 0.4471587084524584
-0.5353062331253436 -1.265572296277485 0.3778624815560297
1.006251819055146 2.881275430413753 0.9494131890481219
-0.1056489097306333 2.975825552786228 0.2760865295738045
0.8655434935690345 2.972930181535998 0.3293920050741816
0.6509906519373687 3.138765509214048 1.310635027039993
0.8180155543619706 2.851750936185401 1.215498853990357
-0.4568582780558445 -1.294178845264588 0.344545770204188
1.070012433827261 0.810608934618414 0.5432426987851268
0.616959250807015 1.179104339092803 0.2557571319824883
-0.806567862615999 2.901812344716081 1.033231418482984
-0.9086673768123964 -0.3568959407660654 0.7808708676109966
-0.8829664831208283 2.741522549640973 0.6096142222169922
-0.9160181684716349 -0.4642871912853333 0.5968144371808255
-0.7167252160912361 3.088444404800337 0.6990279581760637
1.036386623798894 2.658752831275779 0.6780205097681918
0.6214615442121096 0.2673950308834827 0.2565442269338067
-0.9517788431752688 1.693832281413487 0.8137399323563653
-0.5057053592833886 1.637987224910698 1.208731862934734
-0.2832780640308671 2.750487586258084 1.245781620056194
1.000596578693884 1.327341357517003 0.9250853730170274
0.7113343646704753 -0.7234972003635366 0.7953551815175707
-0.8430534374555632 1.649999560378979 1.027491751205459
-0.8687934918456383 2.541285032137572 0.9989595524957672
-0.1184989761370949 3.12978659317321 1.327115571194483
-0.8628026122929825 2.811889507756602 0.4245816113886108
0.8636969096001925 1.879348528845667 0.2408972476765045
-0.9345602413541574 0.3816666358732728 0.5806409410638915
-0.6819490525150993 2.843349737819049 1.047674019878558
-0.9140955079981821 2.461491187032428 0.7069402113467082
-0.2882143807763948 2.00004792985508 1.239905598670263
-0.5263282809812706 3.038703131956626 1.221718635115019
-0.7013946670717096 2.111114925167123 1.051313974883631
0.7571987191883165 2.730047677927393 1.216207324030553
-0.2467683542949153 0.1482629946707423 0.2488955442105146
-0.7868616716643766 0.7529480024747253 0.9068037846422065
0.8895712970789532 2.666093225239489 1.039682432878187
-0.6105033766722668 3.127267084593881 1.312919436501863
0.9557390859758352 -1.078229363144025 0.6667222922056464
0.6087906706700539 -1.29696360539638 0.3116297669734152
-0.48533930301134 -0.9690539828150658 0.2659868184544619
1.039911058450899 0.7004209977442237 0.8360749908293208
0.6230616518081736 3.137571342594014 0.9861289422441339
1.025467501636202 -0.7392544265620874 0.7748286034616618
-0.6872890022686574 3.109999978786693 0.9771450167425193
-0.590501427693936 1.177603103636664 0.2564873812258506
-0.4165656918284453 0.9000405698903014 1.253136371236579
-0.5947334160745758 -0.7917552912077969 0.2201226085154314
-0.8321217350279616 3.079193753959921 1.274139370359232
0.8610361376700398 -0.215620359747102 0.944246969545637
1.089036782912116 1.886338844291566 0.6324239194036714
0.2638877428246826 2.964995051391005 1.29842903092198
1.078641276157598 0.4823751820543672 0.7919089415448366
0.9358166179416387 0.1631333391753421 0.2647070924886111
-0.2174345643576583 -1.366557684030282 0.561773277101626
-0.2754491964615002 3.159049952170263 0.9783746461461269
0.4253751509722706 3.153475133541031 1.292633403757117
1.010539436988382 2.874243100940869 0.6786446744466976
0.4044138155721683 -1.301874777878698 0.2836401039381779
0.3812496963990729 1.318399557842011 0.24764806050011
0.2619861320285029 0.3668228263620448 0.2420243286435269
-0.2956845161665505 1.023681458082674 1.321552141352151
0.2295104052847443 3.170692780796837 0.9702194410794565
-0.7474177233371024 2.961143626557546 1.293055094407518
-0.6839334240309248 2.944115783547235 1.047220911363956
0.1380262696063423 2.854885078856471 1.274633453121787
-0.7054969262023142 1.550586821078592 0.2566825109775731
1.048202295646354 -0.3045835592385657 0.5184408457401121
1.036531707897257 2.658752831275779 0.825295975409708
-0.6620256067775987 1.951511931123974 0.1945078299835387
0.6423051577385963 2.375251636941741 0.2361347381515937
-0.7964507133379688 3.113539026444926 1.283804280532897
1.03466607967097 -0.7383722815175375 0.403800438021454
0.8941292454228617 0.7688465688577053 0.9319451365308205
-0.6945631736167185 1.311024007002533 0.2564817941750391
-0.6691678584150623 3.127597110283845 1.307802548381054
0.9670263008227366 2.196399473156361 1.014468014102493
-0.5849156937382642 2.370406343415525 0.1911172828258327
0.8847534976938468 1.48199881943025 1.047689480211373
-0.9372094773737492 0.4823751820543671 0.6353293858970504
0.01379228443825518 2.990151449301219 1.24585815436002
0.8209632508950242 -0.4586151993663153 0.9005879329143444
0.3419209779163328 2.797479854939553 1.21122198790383
0.5363853638791694 -1.318637910884374 0.4316475301793732
1.040384416550304 -0.6226492612154493 0.4169634634357357
0.9850742709102827 2.938228111758175 1.245815195918681
-0.4662377366161079 2.823331429370893 1.199533796413928
0.6327382313995058 1.624758985176573 0.2561602651683791
-0.08157076267432084 1.579785400654206 1.354478646000699
-0.08600157953713106 2.006805109232624 1.262546710143125
-0.8301754646641359 -0.8669708354950012 0.8064862972193799
-0.1003826175170985 3.131423158166518 0.6379953601623635
1.061053552574767 1.051553120202606 0.4841488924932891
0.1426189270727562 0.4579329468395436 1.15740509174563
0.381711970905555 0.8087463941333506 0.2476640970868315
0.9760657639799565 2.744305075280435 1.220263208468374
-0.8167508399249894 2.926001982040253 1.027624586946791
-0.1871221200529859 2.003566581515159 1.255005738040958
0.007663574532976059 0.5762146149924902 0.2369151400338546
-0.4323606601441732 3.144598023559638 0.9675673842022238
0.5833785128372395 2.9999197476161 0.3241787642981955
0.6790855941383108 3.043772377492457 0.4507275374983866
-0.6233399056590367 1.982843591554471 1.099814911156915
0.2538815963291574 -0.2471737201048622 0.907581254735353
-0.2278644844132685 2.852210433073379 1.273999847709542
-0.9007180943887563 1.425894221370505 0.9172441322996001
-0.4745173388857623 -0.5520639852279288 0.8455024419569984
-0.8120480421060571 3.085787895783573 1.309114000648755
0.907193528006906 -0.8510027120529846 0.8322054061422011
0.9802413610735835 3.077614301562067 1.276716656438987
-0.5236314631756768 3.018157352975464 1.096527454083435
0.9497906819149482 2.901812344716081 1.033231418482984
0.4606769861631095 3.098199687310925 0.5777518907965966
0.8383926550285028 0.02730910756713029 0.2583398878747213
-0.7797318964805657 0.9915227892508489 0.9328004870531859
-0.380031689692926 2.974761956963691 1.062724236488923
-0.8404952528064409 2.948884801610886 1.239929101163363
-0.8185037031846318 -0.999181600858176 0.3061455953922111
-0.446103339875687 3.144727894914555 1.290570401473749
1.056907854287303 2.461491187032429 0.6607173097075844
0.9372693077653825 2.147144407277134 1.024429476778093
0.2334112915756936 2.749260339899291 1.241345214434798
0.02728530434701585 -1.401108946805511 0.5342969383588673
-0.1807916067847943 1.519790540228289 1.35102925797336
1.084072419807751 1.959002834917392 0.9088985886995971
-0.9265713437672473 1.307019653776724 0.6494332393407027
-0.4302627874934519 2.697604070690784 1.055007500352973
0.5329425835694632 -1.318696565471256 0.5835522626286798
-0.9480387611373858 1.692971401177491 0.9130623723607834
-0.6221605765211327 2.302311639102621 0.1138142696403538
-0.3769219649238186 3.126441886708451 1.278541641391614
-0.5333509386555018 3.124329380886927 0.8179522044493782
0.9973871853840154 0.8339775789200437 0.8642149754919302
-0.6252064807246338 2.772690370129963 1.049110726871718
-0.4805503042567498 3.035383937997179 1.103107211294121
-0.925490117460513 0.810843309618414 0.767133635814658
0.4196536428861356 3.158796373437752 0.9701632710882507
0.346008180280779 3.10875756640139 1.27226091073573
0.7113343646704753 -0.7234972003635366 0.7953551815175707
-0.8599753218535444 -0.9970218682703245 0.4502757907040665
-0.4662377366161079 2.823331429370893 1.199533796413928
0.8934884404802957 1.614487908516366 1.06583021065436
-0.2811457791788544 3.155127796815041 1.30870651083008
-0.4940557841526932 2.777217958192032 0.2662614300816782
0.02765671173235589 -1.394063216739234 0.5412207320815983
0.5710701867604789 3.104794651791822 1.324786871144575
-0.6815376012253622 3.111475058422853 0.9825780681827586
0.02794081418003694 -1.38872502810385 0.5454415738759817
-0.9338263999103642 0.5857196907901612 0.7853332911529041
-0.5402691232789284 -1.009082232148595 0.7021135288983135
