3.182523905532188 -1.731208733276722 1.181786123895253
3.712552475317493 -0.600679879939892 0.5732924829765445
2.391437891472669 0.1635550979936825 1.767690501408457
2.961028808268067 -1.813679256070306 1.136853039060704
2.768679669353536 2.768413464961248 0.7609255900600705
3.733312231185771 -1.285967850158005 0.9687648786323044
3.239183302324688 -1.744397802172687 1.010158469134683
2.147172397333119 -0.8187439262069483 1.438201712743091
3.707663900004433 -1.376250342414715 0.9930053307099671
3.487065456666382 -0.9365196453640109 0.6049577327483774
1.804702455931408 -0.4623105229984396 0.5997526708081969
2.149321096529139 -0.8817222902021913 1.434710680451102
1.778125906655022 -1.44875295156799 1.259652988245676
3.796715479282985 2.14455474724855 1.049523248732669
1.627812854098774 2.144556333103969 1.205513215948096
3.789739180957594 -1.057201276517096 1.098262904770392
1.929398577815265 2.114291477863331 0.5240205994970006
2.806292550344308 2.387513342673523 0.6902306220764323
2.651897300252855 -1.266862097578881 0.6987876843201566
3.455383660745658 2.072626599286641 1.707025369434402
3.678610856067655 2.672295480582525 1.052980301873069
3.305746249224029 -1.001070603644106 0.7033110776419124
3.245875624055532 -1.467406464613899 1.31078454323784
2.59320140546336 -1.808444983105787 0.9738251236210008
2.756644070595629 -1.76253968782113 0.8507369953683261
3.805327780752202 -0.9247098706153316 0.9811070371907973
3.621889225241512 1.852329914332521 1.626069208960564
1.643012043310377 2.384163697625884 0.937790085742618
3.350078030614448 -1.685839977855631 1.138215993954789
3.242182881918019 2.535237134806814 1.636320045611256
1.644696670329596 -0.01636174574018486 1.412177044699777
2.082621673535083 -1.68316024222475 1.059890851616588
2.062184677159298 1.215829201022021 1.822270994133761
3.801706489800757 1.368412802913115 1.339317724181681
1.70915230453767 0.6189340817553856 0.878484971205644
1.664421556802194 2.541737039769132 1.257065265328962
2.010354569151628 -0.5287790905506913 0.6604132417759809
1.97538628539728 -1.648249086523852 0.9635754684916045
2.121747252875206 1.875458515131522 0.6921044725828153
3.455464787003622 -1.641281153485599 0.9353063241302384
1.627922750515213 1.826114278059236 1.049248664134611
3.047438800019601 0.7458023210649021 0.6994514751363284
3.774021575420298 1.511144492713777 0.7526256267178585
1.951593095368531 -0.4290934653780438 0.6758331343958083
1.623588839674776 -0.4434721356074481 1.028682170509379
3.781513654298282 1.95863992858086 0.8829363311240072
2.088339798697176 -1.335973033991389 0.7190517544729722
2.094332100808293 -1.428448664702945 0.7213134479170797
2.516717186923543 1.725563622010379 1.783924288157718
3.597592755778201 2.038172496243128 0.5164302162459848
2.273489901002679 -0.9151705421612777 0.6979542609783668
2.624314610590628 -1.006105428858151 0.6919582984088386
1.666834126077408 2.541737039769132 1.049995104651739
1.634166430655062 2.321576379008019 1.019915522756482
2.503479836010393 2.915146896136563 1.434935756052131
1.645317583234649 1.39677383275255 1.411838664974981
3.768335263722671 1.765039153318582 0.6935907924576568
2.32665575943141 2.943379081893403 1.350234468129252
3.596357290571956 0.3546621026903508 1.686456250378842
3.62216336591516 -0.4623105229984395 0.5997526708081969
2.090376871484314 -1.663616894124436 0.8063945517615855
2.745879687694461 -1.850387780587127 1.082976784853266
3.519837817838153 2.498604953946233 0.7153376875849217
3.035993223172963 2.035111941149499 1.724070390285474
3.735414040613689 0.5034242862856961 0.7506300086555315
3.791891405735234 -0.3806702945661966 1.381250851299079
3.751895661588929 2.542381520272115 1.37147040256217
2.217878175739076 2.837895256258075 0.8946765747195901
3.13451055746356 -1.024505796962584 1.419731494452016
2.943447247565663 -1.119110554405259 0.7021548398836256
3.752253384786291 0.1924214785165306 0.8131194482221086
3.655582517014239 -1.46646111800044 1.223196188947143
1.664884179918841 2.541737039769132 1.134549958057966
1.686945240714851 0.3948056430622474 0.7507986688618042
3.783503515947372 1.892502350998503 0.8826538409155764
3.722603262292688 -0.865773720215275 0.6079191805498539
2.518630538277755 2.036123921874398 1.728881977286203
2.094332100808293 -1.428448664702945 0.7213134479170797
3.769022226858427 -0.4916605558153099 0.6816494155116005
3.805157988981735 -0.4436167768830887 1.059875327110438
3.795836638702622 1.826114278059236 0.9821692977813776
3.296831334733351 0.6206107131214049 0.7080251601831472
1.610104769412205 1.595104593801 1.019027309118198
3.125320669696694 -1.689651687980894 0.7392070946272691
2.911003077452397 -0.4972372845376848 1.468295904045296
2.084675856172041 2.703485587817549 0.7570327600374559
3.751786806419267 -0.5902294104052233 1.433640193039646
2.027813781309912 1.774431520388003 0.6868474192269637
3.790823267577161 0.2923469525740862 1.378623701185444
3.793782743487673 -0.2863172213328445 1.034793121818492
3.28683473671196 2.901383723075599 1.272465517954442
3.450422257501959 1.743031262427885 0.6858842942588469
1.666813609707884 0.8585797953690173 1.388219000768431
1.623539782209562 -0.8085847589192519 0.9306094763014053
1.673747833787856 0.7390709688493963 1.208666928374348
3.048726584623876 0.388298953151589 0.6995795262252945
1.672038846885645 0.0902068691129097 0.9363283243942743
1.961011327256911 -1.31923920669804 0.7190517544729722
3.425221190502449 -0.7915103561867402 0.5779180548197409
1.7143438477949 -1.372814532508498 1.254060090521645
2.180115486479136 -1.732058962168711 0.9286573722752574
3.415414835796249 0.6202427699150974 0.7088010274884027
1.910894729858597 1.73653636322658 0.6762900218416318
2.949275234079855 -1.701171679750672 0.7311081186697617
3.236272821776743 2.81647749433122 0.8617020130496557
3.357525476998261 0.957580223371277 1.848178750221261
2.85734648594614 2.84331983032904 0.8501293006594748
1.973891623029501 -0.5926636494757482 1.443535678024614
2.802474287707767 -0.96561350323047 0.6896015207171915
3.603070828857737 2.623228137097059 0.7425171494529925
3.790882543312635 1.95863992858086 0.9824056727810666
3.79506788507567 1.761014492191913 1.346920023001056
3.543187098427069 2.419098665374374 1.642177594031136
3.798786439832587 -0.3852585703292982 1.031749919441793
1.719458372984339 2.028667704650946 1.511780252212132
3.583482838620477 2.747860990133327 1.031647284080916
3.79449131653035 2.084665077112208 1.049465845451055
2.17789032399922 1.63059629587483 0.705974288843533
1.633685433410041 2.144566625064185 1.320797549552083
2.447174101113064 -0.9648153284327573 0.6944020944740481
3.465108879115012 -0.4803674509009132 0.6295500821253023
3.774619357721384 1.400931937648717 0.7506828615706848
2.95266808598284 2.541525747388496 0.7029351852301697
3.159789004243517 1.898211827300309 1.746018160889618
2.778060224260728 2.421656859549244 1.670113081861194
1.845690915746475 1.294773393963318 1.693704003445214
2.341829333900966 -1.728057174236865 0.8048908336055316
1.687145219055055 0.8586982915059811 1.134350036933985
3.799880507857959 -0.9905996729660941 1.004984773487286
1.714325962025726 2.542830644083737 0.7646035195457306
1.654283089508114 0.6189323581668651 1.386184537048048
3.656050682402532 1.391575418616357 1.599016240257365
3.656919234761202 -1.470321421528892 1.187286240272028
1.62253119112707 -0.543925522520523 1.302005980440367
3.431428560789462 -0.7531508661792832 1.439316023597979
1.657695725953717 -1.054418952595468 0.7990074216716999
1.626016404249733 1.826114278059236 1.134398400894975
3.676422482486947 1.242679826680969 0.7165729591283211
3.807745148790079 -0.4917619261090805 1.266093233232728
3.378868197794088 2.018182354463614 1.716971595310437
2.040820360021468 -1.632866734951626 0.7426474988427303
1.722619583394214 1.503096985205469 1.523140251431462
3.753679703827773 -0.929533624995073 1.412619076177255
1.627355501560073 -0.2872361469336078 1.118502205704135
2.046067091361423 2.215303214495177 1.689689859857395
3.795418295215808 -0.02164863468289487 1.26520880640457
1.658855961381039 2.084665077112208 0.7639196770906604
2.476841313078149 2.892583399911569 1.568743322134171
3.590600949107652 -0.4206561189863796 1.465763871218954
2.619167489570856 -0.4413688414699666 0.6879782782098384
3.275658862703882 2.348969245544325 1.667814755727546
3.181905249441567 2.906187961958811 1.086627461573671
3.440125098476749 -0.1736833539149708 0.7106992474146535
2.931741096869717 2.922626421687915 0.9861240822745472
3.155908590211737 2.813022515660206 0.8299500702718826
3.728847609615408 0.9840618000400575 1.13435001061451
3.780478562568939 1.440579446357269 1.416707184330183
2.448403063965504 -0.7533819557962382 0.6866432841478898
3.175687155485939 0.6208206671529866 0.7049220024883327
3.817400868119223 1.505702189572821 0.9353257052976726
3.797882538587218 1.892502350998503 1.134409003409329
1.720310498080806 0.9821447263552812 0.8121342286029887
2.9869822120692 2.765748184200976 0.7707040197988893
3.818999424215123 1.595104593801 1.081524686236441
1.631640684190165 -0.4381899428473377 1.378873174495917
1.650431731738361 1.445745733222174 0.7510770882001314
2.773764712159372 2.625813282121337 1.634192407555971
1.694184004722643 0.9838649817865406 1.208544071131924
1.674597682468588 0.09032002810299719 0.8798620885691965
3.425957021845766 -0.4867909660097042 0.6709094667792968
3.805129337400834 -0.5439255225205228 1.142978152799918
1.642592687977098 -0.5975075068059131 0.8142009466167496
3.777246518988981 -0.597507506805913 0.757036873037887
1.665056241792201 2.45641972818767 0.8248306554135632
2.872560835684007 -1.579808313680842 1.271453857313335
1.61826910710411 -0.7035926384797819 1.118811083360592
1.636303931620307 -0.2864553679513932 1.00647895873435
3.400708265791001 2.847542273187846 1.3500161861177
1.95644219013119 1.546341943284836 1.776659787768956
2.978462757881065 -0.7533819557962382 0.6866432841478898
1.603280691996802 1.397988708820257 1.279642425917521
3.656050682402532 1.391575418616357 1.599016240257365
2.107379642205149 -1.682574187771601 1.184957976832559
2.646801738004389 -0.3914816457552591 1.518758687938988
3.200884631220328 2.87073500408277 1.105306518143243
3.700294483088958 -0.4213132000286126 0.6510562349707838
1.992101856005024 -0.4350484173456303 0.692951896213328
2.507587804018827 2.924105143496129 1.474504025147921
3.806772829359562 -0.4917475909321558 1.09973078563287
3.764520563404741 0.5039504914747313 1.132354850197994
2.807273953904682 -0.4630565916347321 0.6868257440409925
1.761764550856299 -1.379574198161721 0.7496054503914588
1.642780241278384 2.14455474724855 0.8838030306965189
3.524768886194982 1.695829312012462 0.698747811697165
2.418993769913261 -1.736492528637038 0.8023117182270122
3.656919234761202 -1.470321421528892 1.187286240272028
2.781220495870318 0.2810680287853952 0.6885899926343203
2.261023601738479 2.455256321080455 0.7066105769832425
1.780767174890316 -1.459794289866486 0.7876662595198347
2.303810012488674 -1.374853344672746 1.344962429987472
3.779392871951457 -0.2927013759864816 0.8159036253722307
3.020483699402063 2.972522689288286 1.316584236503069
3.574279916084844 2.149672412762899 1.6534788610193
3.726890467215605 -1.28586497346092 0.8740829219769875
3.272723913235369 1.34438560396505 1.812961449854814
1.674612437060276 0.1924214785165306 0.8131194482221086
1.99546789586013 0.7099532887786377 1.84938286912778
2.624916434574783 1.758519077461957 0.6894705635228355
1.610978534118756 1.503981188881399 1.343531164865899
3.173659355933434 -0.4054970459983401 0.7009364588202668
2.418081323118202 -1.745057105111755 0.8308937436193689
3.524927092386421 -1.575810545167426 1.181350240707422
3.670771014977093 0.3935186460221695 0.7167287300138233
2.449305171210558 1.823656813659965 0.6912876177763393
3.345057238273615 2.853524267045602 1.409216941109463
3.769473252932472 -1.122006592219126 0.9723557700735824
2.522095604061175 2.687631337091073 0.7208179882082682
3.807912545978605 -0.4917575405187602 1.224066262364399
1.973891623029501 -0.5926636494757482 1.443535678024614
2.774578397779253 2.547716099632913 1.648506017738596
1.644939093166093 2.084665077112208 0.8835062368517768
2.281008876095127 -1.66393482377994 1.228329004396424
2.403497900656424 2.88905763562882 0.9337994835997883
1.714787167867132 -1.376805756784311 1.084178775986998
1.867624484341641 1.379630570379814 0.7088821071040278
1.620645282844497 -0.2873880490066245 1.250999963935783
2.119281383787314 -0.640581558891987 0.6864175986617975
3.561197851124215 -1.541574860905528 0.7837644243996984
3.004900636494021 2.915120359533566 1.406952749306371
2.190593000069825 2.816477494331219 0.8617020130496557
1.829595224806121 2.743159589363695 1.204106932697177
1.637126640888974 -1.057201276517096 1.098262904770392
1.657779573768274 1.368326637836167 0.7505878337606821
1.651676746932022 0.3954002715303918 1.205583925389326
1.989099350301681 -1.535636976877585 1.271516027756752
3.790057465520424 2.203777359004018 0.9370830863623914
1.841652043778216 -0.5824779202136624 1.443535678024614
1.627091105506119 -0.8637785470947095 0.8922933663678617
1.619614197226485 -0.8637785470947095 0.9842198427945382
1.62422144144485 -0.9905996729660941 1.102094108463434
2.810457917468074 -1.849119288956078 1.084587563092099
3.287573234485015 -0.6534888435096025 1.441907828251992
1.632100111573193 -0.8085847589192519 0.8545857790189551
3.45301591548573 -1.627561344995368 0.8722752017011196
3.797028574830541 -0.9905996729660942 0.9515351874817536
2.969989948421389 -1.065595634179367 0.7005062124481849
2.753025540477967 2.94199802981347 1.38406312538187
3.817935515692722 1.595104593801 1.049115434264379
3.826323771330149 1.505702189572821 1.134363223741871
2.255832572818111 2.34482114249675 0.700050674599136
3.773253993827782 -0.157748915424929 0.8144838723563379
3.801927000339169 -0.5975075068059131 0.9945915166324468
2.62458257183717 -0.6992517247159614 0.6813067694390901
1.878004540974422 1.820432285802722 1.693679247502038
3.800533231047355 -0.5975075068059131 0.9691924330573063
3.507499138584159 0.374556271046133 1.778268658250237
1.878744809746204 -0.03393016732042945 0.7100470444427542
2.777553672241729 0.3735549463249619 1.847891380832885
1.943689026142872 2.814916618727739 1.207511106980388
2.666310204732743 2.890459377096769 1.137539549793213
2.805851115725837 2.334174127124665 0.6893440966407621
3.040576229258602 -0.4965082647082229 1.466287686443978
3.790830319846064 1.368859263987026 0.8121968054852309
2.224288711475257 -1.755359673612611 1.042296490913253
1.624483144577057 -0.543925522520523 1.00511448799475
3.178078302901771 -0.4618155701257867 0.6979957312152396
1.636042554269407 0.2923469525740862 1.378623701185444
2.979120464178036 -0.6985925802570866 0.6861746035523096
3.783465166926217 0.395355709129667 1.334611502890844
1.639244547521425 -0.6218277419940381 1.410218771809506
3.580495142204843 0.9222387588633964 1.710521718459048
2.648124005918429 1.826123134231978 1.773502770111288
2.802147805846862 1.87937795161009 0.6840141140125879
3.571786826907469 -1.552107042305723 0.9155299051555788
1.907354870374383 1.404206242606091 1.760365191676097
2.621971186330885 2.208088062481983 0.6875971051168704
3.805448052146729 1.762436649860124 1.208891881413144
2.485138903830988 -0.1816509218359504 0.6950736424223029
2.804802721452605 2.45626553023426 0.6956478765558382
3.653882860400993 -1.460517188197939 0.8599526193480556
1.977079001972215 1.93785272944138 1.728428359889984
1.674381127799297 1.329841700305869 1.40441840383379
2.573583466217353 2.898331699702812 1.100482811138756
3.336488950362254 -1.663616894124436 0.8063945517615855
3.275782387144334 0.165589852266008 1.760539647741483
3.806772829359562 -0.4917475909321558 1.09973078563287
3.712716208342468 1.269108129914615 1.018869045794653
3.785166833015445 -1.057201276517096 0.9746186902993343
3.731394827326724 0.6189299065130541 0.7505334152782732
1.657617055670497 -0.7558753264432211 0.6688169344048599
1.636392739882957 2.084690701631024 1.33107146136734
3.086188062059448 -1.736590340627696 0.8333190625659188
2.983402084799219 2.080172355150666 0.684877149193085
3.789575200357742 2.384163697625884 1.306411643583092
2.651897300252855 -1.266862097578881 0.6987876843201566
1.626701263971022 -0.5917904139312833 1.3622833704844
3.7913509449467 2.084665077112208 0.9826488501715441
2.039279368673324 0.05355818686992619 1.705723682638953
1.619759773034883 -0.7035926384797819 1.015683060541192
1.629710842415715 1.370641012591434 0.9351278024158404
3.599907649432323 -0.6097108386476529 0.5267586974004791
2.912239322995708 -0.4416512766247182 1.492056505807262
3.769022226858427 -0.4916605558153099 0.6816494155116005
3.27616966736003 2.849545609123954 0.9361390250333785
1.999053394562787 -0.8987305773983767 0.6102283583564429
3.333554225124153 2.689926016262382 1.605161800173344
1.643115617860046 -1.057201276517096 0.948189835498907
1.673065782986107 -0.1607549245577666 0.754034650833562
1.620332175921369 -0.6508746523010007 1.289379813089734
3.80820834542821 -0.7035926384797819 1.0587306342114
2.878625794748922 2.812526586475638 1.595931850442058
2.916064438621433 0.07058605749146651 0.6939480811763696
3.308886195911441 -0.04202506491662002 0.7092668882636561
2.093311596722414 2.689926016262382 1.605161800173344
1.993657077445298 -0.699029870111209 1.440263367917922
2.391508620185485 2.35809738927907 1.673581105590294
1.691298533181883 -0.2588543736534535 1.44707501947034
1.726676343955364 0.4240954203111998 1.561262186687623
1.907028004008415 2.498604953946233 0.7153376875849217
1.974357996342389 2.252614509205024 0.5962351213168707
1.742786102902315 1.32554056051637 0.7166062206508579
2.005216567885752 2.389604601938562 0.676559704288499
1.631481113643528 0.08974197119816851 1.368214841023642
2.644048178039727 1.47920911316182 0.6887307705829336
1.714061222770925 0.8589121887657552 0.9816393807340296
2.804894635515684 2.208088062481983 0.6875971051168704
1.874319379244489 2.557854424050851 1.617896327184802
2.342059250031434 -1.575284287150443 1.271657626150251
3.485066172669151 -0.8353103413817098 0.5505918077494071
3.751848910852824 0.8585299944800291 1.336119744970344
1.847174410421894 1.043264328602935 1.704707492012522
1.895676350648073 -1.555978820980803 1.214878848862943
3.806534125040872 -0.755875326443221 0.9878913777927365
1.621279953496852 -0.4917155114108817 1.049467140561854
3.025394083007491 0.7129730783025184 1.87304251769074
2.272552629717 -0.963764975178103 0.7007193802166858
3.713800301951174 -0.7070548638184075 0.5664258230211109
1.687381612595549 0.5042099269330732 0.9814952706511815
3.413241820032446 -1.155628650515383 1.39338463997116
2.656050506791686 -1.480260839809555 1.311786422111763
3.794025389460114 -0.755875326443221 0.85577150749732
3.788515204985372 -0.9610085473941088 1.383299914671057
3.657602467625999 2.373256360103381 0.665449214048577
3.670771014977093 0.3935186460221695 0.7167287300138233
2.757542765332652 2.945043558076879 1.040800149047153
3.768321578731463 0.09100000821616067 1.015796612004682
2.148680164602747 1.818182517123439 1.757165048715184
3.808306675222887 1.369671943648451 1.279528591943481
3.147976337091067 2.897300814654745 1.471036513442674
3.79052628246186 -1.057201276517096 1.153883255336868
3.611246067982893 2.328030378694296 1.630196180232805
1.660837315915076 -1.122006592219126 0.9139763388157483
2.330638350212562 2.917591298969889 1.209387369965847
3.045028314974023 2.838507975788812 0.8587756804996845
3.767580425146261 1.339623599784392 1.134350675288258
1.611735174815324 1.397197029281462 1.340170403211436
2.908652733724477 2.23567612620857 1.700853861165671
3.173304821818473 2.432345186718956 0.7039728727274859
2.653375431964265 -1.096931143266723 1.412614469716625
1.630150342563582 2.14455474724855 1.049523248732669
2.982236650404442 2.013454762787567 0.6848530195715663
1.636193139265628 1.762702192168793 0.8817937842967643
1.695275858112102 1.255065140983482 1.399283059580237
2.480737780792778 2.863496409157034 0.8883503297234219
3.790309589977624 0.08998354917811192 1.269840980568757
3.559046867148186 2.758888728331464 1.258045349006543
3.503242851461741 -1.520978274841083 1.266944950280541
1.668025182636362 2.541737039769132 1.020333417061398
3.170650391329413 2.915666390123748 1.049113965732312
3.735567288664685 -0.2588543736534535 1.44707501947034
3.791544765368682 -0.1518177453195092 1.069785395393974
3.315288035504713 -0.585011776161776 0.6887393552571306
1.668079244591497 0.2935813126266029 1.015980641277458
2.118903416058762 1.392228951751555 0.7081063496183017
2.514186926210074 -0.3909831451342558 1.51683580433366
3.094914791369934 2.762611304147428 0.7754970732578622
2.889325589600004 -1.817086322879141 1.135482056864381
2.569519335900429 2.843319830329039 0.8501293006594748
1.99546789586013 0.7099532887786377 1.84938286912778
1.616057213693053 -0.8637500068369113 1.218950249339438
1.898964456587618 1.532177441959795 1.749261543721363
2.979120464178036 -0.6985925802570866 0.6861746035523096
2.28125009443921 1.086897076130728 1.843169966569892
1.825459727633927 -0.5295981406349188 1.446853213625922
2.268512071032029 2.9014243926251 1.522036695841403
3.722536909689469 0.7394730190215813 0.9816393807340295
3.618106726017314 -0.3089739051672946 1.495906891556059
2.169297008062978 -1.649672031868066 1.228368794501517
1.911764058872404 2.446201235983678 0.7023954146288811
3.177411731184487 0.3885486209473313 0.7050398158136345
3.027036466528151 2.957999692360808 1.350327400194247
3.235146610395243 2.612843137105153 1.622481859945504
3.612345586487301 1.842085143475668 0.5713243632999642
2.263814414066613 0.04835728876624478 1.71215060583807
1.600971494287377 1.442774436703704 1.049045955880515
1.89643490477113 0.05798990312070396 1.664052320726247
2.180990197791036 -1.4674064646139 1.31078454323784
1.644965023372628 -0.7558753264432211 0.7568172842792422
3.687922403022783 1.372180404196794 0.7166601712704492
1.641912039390615 -0.5689220424327636 1.413081983770356
2.937407031427973 2.892374888574378 0.9305055672258833
3.743074373802529 2.465071460803981 1.475904666686407
3.768420536857844 0.1934599467735035 1.043280973953559
2.902573571933512 -0.6069249932909494 1.447965330527588
3.79067268258094 1.762702192168793 0.8817937842967645
1.636654812516265 1.892523415437087 1.343939416559463
1.716873218593839 2.208258825587131 0.5916162514381569
2.652744329735541 -0.9594098125754436 1.433111550560014
2.322272421646836 2.880529055025284 0.9356710791687397
3.775800378521942 -1.122006592219126 1.249831069586669
3.705690682561905 1.134746563669721 1.04900821582132
3.754358629321618 -0.7471541516052342 1.427540336344462
1.934345934801716 0.7037614155641329 1.812513287487448
1.900842049330633 1.59433190684739 1.742262359223447
2.543408408940794 2.984306690031255 1.317106255750087
3.741178578975657 -1.286222836381145 1.227901327892291
3.805111318473817 -0.543925522520523 1.245621250293715
2.038714302855053 -0.7998060327428803 0.6453372702886306
3.559204411439263 -1.564516767034773 1.008992206224182
3.726923633527617 0.5038187460275763 0.8787676419259244
3.71587268101064 -0.5469514957205111 0.5868151807067357
3.240071556312032 2.875502345507147 1.405802128942254
2.401471738839078 0.7129730783025186 1.87304251769074
3.790270362718572 0.1922510969574505 1.329248127626723
1.976910231773768 0.2756918487287486 1.785197822627978
2.805851115725837 2.334174127124665 0.6893440966407621
3.809449398581549 -0.7558753264432211 1.116434952215868
3.047480322302645 0.620902330288021 0.699460597197934
1.638379437344262 -0.2821809977131224 1.387853817118518
3.042623246156046 -0.4409604571396637 1.489792673072473
2.926063541222741 -1.789455332769489 0.9510189539484779
2.668198490369783 2.895193424923211 0.9237855650177976
3.52234566438525 -1.5774769445675 1.124213162342819
3.221103029533701 -1.759850819120487 1.11354621347898
1.994080829156755 -0.2192034182915137 1.573813335432433
2.270994574625722 1.943769350490971 0.6929096592499078
3.433918418861527 0.5925564065385569 1.846064591992607
3.721702769999059 2.612218049099846 0.938835470985886
3.572611799956646 -0.634985390993055 1.441691021454403
1.985128663617813 1.620820544372081 0.7088078251169857
2.281741567053241 0.7127602653664362 1.867494266268156
3.66334795780473 0.8610357234100048 0.7165722585400659
3.544107269582861 2.764682226009116 1.297234868951782
3.7930919326218 -0.7035926384797817 0.8563449557595674
3.795225137656404 -0.4381899428473377 1.378873174495917
2.780770747958526 0.8704823667139512 0.6883093493148504
2.889704019592564 -1.827871008348769 1.002365045560961
3.42218909095151 2.821712765762829 1.142289262155268
1.92851122824349 1.919836772575577 1.72023355331675
3.802382677269511 -0.543925522520523 1.00511448799475
3.415414835796249 0.6202427699150974 0.7088010274884027
2.070611542209129 2.530112171905846 0.7166483491008877
1.63995657109772 -0.990185924622909 0.8471980003014016
3.146000429169874 2.482987208077964 0.7080179596280283
2.852700255913714 -1.676868934033808 1.22694503710362
1.661007850327728 -0.6508746523010007 0.6648218645548725
3.04907697431283 0.281409529134453 0.6997268481169392
3.337645827436023 -0.4603549601686195 0.6984711400747385
2.084628298822643 2.873270293404442 1.048307437717031
2.778463897954918 0.1630709590890666 1.776993306815426
1.606814768450614 1.594814632769572 1.280921734007916
1.671723099510054 -0.8023851220118157 1.424970594494746
2.16891392050958 -1.367744280852841 1.34462160732347
2.906686790769612 2.420687012865496 1.66696289798718
2.133939027231818 -0.08497357130904328 1.646694334382865
1.687917563199557 -1.286103301039717 1.090489467667018
3.805076858708759 1.595825147969478 0.8798970097238583
3.749825926796733 -1.196550133231265 0.9116145534159399
2.501496325958666 2.621794541922742 0.7072930411266433
1.621754503372751 -0.543925522520523 1.245621250293715
3.458757028988477 2.433283826805649 0.689753060623399
1.699249370539564 1.25676380029005 0.8121357007003189
1.651506018765722 -0.1521948368115441 0.9322878221076159
3.804588652181316 -0.5439255225205228 1.079876858751189
2.670143219753271 -1.77313246285488 0.8851610498224727
2.120395802817744 -0.2242857567610384 1.581446953841959
1.642780241278384 2.14455474724855 0.8838030306965189
1.710687927127785 0.006950189895781273 1.496086010233072
1.672501990938837 0.5049387565361165 1.047318482852786
3.773913715668704 -0.9215714739195482 0.6936970830274855
3.016570607813798 -0.8258112541161986 1.44053963983168
3.755397448989739 -0.8634432532633969 1.420276918886797
1.70516305184751 2.612218049099846 0.9388354709858862
3.541839823339379 0.8639153838943998 0.7087920517845878
1.882758552263707 2.764682226009116 1.297234868951781
3.333475989966872 -0.4906572924627194 0.6959461378739857
1.788583763877188 2.717659153283529 0.8901138213517528
3.673334047306347 1.140886233510389 1.578558209599241
3.795225137656404 -0.4381899428473377 1.378873174495917
1.924907000750288 2.739035617574895 1.584008497751881
2.505953005920335 1.478731187016497 0.6935384050655873
2.779503662354309 -0.4977912745903939 1.469821970319278
2.778563710709504 2.298750674757433 1.692746744817607
2.778567724512825 1.967901306962579 1.745505582466195
2.648401923891651 0.1630709590890666 1.776993306815426
1.753531774540221 1.140886233510389 1.578558209599241
3.456161610059791 2.137900049425854 1.698957775923609
3.49265068259824 -1.042951303018675 0.7000332183206854
3.764520563404741 0.5039504914747313 1.132354850197994
2.266408884261833 2.079130103042895 0.6912969037277021
2.179534229167761 2.898419790421742 1.049113965732312
3.732681817123924 0.9838649817865406 1.208544071131924
3.605597311478581 1.90646983807463 0.5429584478486694
3.159789004243517 1.898211827300309 1.746018160889618
1.882758552263707 2.764682226009116 1.297234868951781
1.673065782986107 -0.1607549245577666 0.754034650833562
3.013926902664053 -0.9575687837388147 1.430266669704029
3.79682813085728 2.084668498345788 1.206998799005785
2.383514716546186 -0.3903271462838555 1.514305397386502
1.857856548166589 -0.6879071199336806 1.440263367917922
3.756117225819129 2.263289498464958 0.6869312449054642
1.650431731738361 1.445745733222174 0.7510770882001314
3.458995388011893 2.261622876642292 1.678553694181306
1.742193842840892 1.517151696478886 0.7175644903096605
2.164422704630058 2.675374674320005 0.7350126971381601
1.630557193794535 1.762436400337385 0.9357712628554451
2.627635968246114 -1.069178478243639 0.6962670752967757
2.889704019592564 -1.827871008348769 1.002365045560961
2.950024508768419 2.892583399911569 1.568743322134171
1.626125402009443 -0.4917286484237625 0.9578401656751278
1.880228762571235 -1.477861715752763 0.7306627251778335
3.788212426843605 -1.057201276517096 1.042962763637127
3.221103029533701 -1.759850819120487 1.11354621347898
3.465536556778328 -0.3793528370620146 1.494117878176322
3.795393103091024 -0.543925522520523 0.9078405713198003
3.787621274325143 -0.6218277419940381 1.410218771809506
1.968108792858091 2.433283826805649 0.689753060623399
2.085623475030674 -1.691717948297594 0.9001004063947639
2.088312163297002 -1.671483458911742 0.8350863499661696
2.581532015406277 2.943800524187248 1.042752928565987
3.668045898794114 0.5028988075102718 0.7166312854484429
2.286583172371519 -0.823832151993283 1.439048802833665
1.889788439568145 -1.571743669459296 1.049284875365266
1.920844651249621 2.296069205997599 0.5798989694159032
1.753531774540221 1.140886233510389 1.578558209599241
2.904071886640854 2.971789064474915 1.27305630611779
1.63995657109772 -0.990185924622909 0.8471980003014016
3.259826483841736 -1.710922597743463 1.181941312448521
2.265211137957547 -0.5866502063067154 0.6934851598252052
2.404139742821396 2.929205028156773 1.085306995162727
3.761199485637251 0.09044764633048583 0.9813105492313767
2.78067297993014 0.9967080172067967 0.6883078634397379
2.266117974638159 2.232146823104804 1.692453201088583
3.797930844036152 1.598707364643387 0.8175353923222017
2.063535174270204 2.864205617890472 1.085595550935363
2.766647936993788 -1.580927658189511 1.27137072506777
2.320259396512942 1.632181702926184 0.7006177215576976
2.273498535510673 -0.6977251831284743 0.6925804001504859
2.254138700509347 -0.2271858169696271 1.58656311996069
1.974357996342389 2.252614509205024 0.5962351213168707
2.013792674231441 0.9912073693974028 0.7087906172056915
3.27616966736003 2.849545609123954 0.9361390250333785
1.629073694305171 2.14455474724855 1.08175292731272
1.677579569087687 0.7392433128485658 1.134350036933985
3.784200137208427 0.2925627799864453 1.27657595836293
3.41629997180705 0.5017404675693207 0.7088369303036619
3.801927000339169 -0.5975075068059131 0.9945915166324468
1.633621518149388 2.022835168578915 1.049410306829437
3.206061583756983 1.541005627013825 0.7056358115597643
3.452507825504179 2.252614509205024 0.5962351213168706
1.969333933455737 2.368795735036946 0.6383212737023165
2.482829362946798 -1.675328537111281 1.227533257702203
2.908234269822388 1.901034804138459 1.755514117391697
1.706824622441092 1.133463919254499 1.208534180629237
2.38555680484871 1.631139302667344 1.790548823123418
2.232119969363842 2.617450260032172 0.7188016110703477
2.008845035388887 -1.07584340658051 1.408092303151319
3.158864668419237 -1.714051691550096 0.7789401041221838
2.143564533309446 -0.707227583163015 1.440478241008264
2.070611542209129 2.530112171905846 0.7166483491008877
2.145302450465304 -0.7616999712289224 1.439529613543264
2.150220313091693 2.287837539591304 1.679091323262025
3.688598475162869 0.7682246434497199 1.574063208214766
1.865667970722352 -1.541574860905528 0.7837644243996984
3.80253023701687 -0.6450652702396081 1.359283078387974
3.742637242277588 0.29177389352996 0.7509903428006037
2.916064438621433 0.07058605749146651 0.6939480811763696
2.39343664506608 2.419410749039941 1.66281743274033
1.923362517147459 2.349122177321438 0.6127140039937601
3.716177894718783 0.006950189895781271 1.496086010233072
3.163026698752093 2.143345264693334 0.6942415300323872
1.699942188318951 0.5038187460275762 0.8787676419259244
3.125479974256225 -1.798387574177613 1.089834555978443
3.341801580583697 -1.688634832920915 1.115891454343869
2.036243088762513 -0.6913093859517174 0.6410962142988892
2.905172057478683 0.3736541280301325 1.84329963092011
1.631488347821298 2.262858542708966 1.049647026870057
3.788830682380503 -0.1513506200421979 1.03937495469177
1.603301411663767 1.398698184473319 1.208458336700647
3.63475484894284 1.526198498826639 1.619054517161426
2.439883609777368 2.765748184200976 0.7707040197988893
1.841255382113592 1.460936814454255 1.694827237258982
3.746437409591521 0.3958439486537882 0.9813277870622945
2.390061805897504 1.824596923552104 1.764265515209008
3.483493897242821 -0.7815742844444604 0.5324471016555319
1.895331687718928 2.784496846660137 1.471710646080992
1.748254965778913 2.672295480582525 1.052980301873069
3.163051407779954 0.04835728876624477 1.71215060583807
3.50771678952582 1.853668373991829 0.5746251318873102
3.597697194527139 2.700649260863275 1.56850870741868
1.606694115126771 1.595032103543143 1.208781440472766
3.680861638237372 -0.3247616994215234 1.469961608012005
3.3732399992872 -1.054911303382038 0.7091075499192966
1.642836919075025 -0.3874985332757499 0.8188071219668046
2.031829286247837 -0.6361653939503851 0.6440943048874477
3.109566549956184 2.540166439619808 0.7091606724925178
1.831021274577461 2.744290620394604 1.064287864987572
3.729033322833713 1.123065647138036 1.469885379047086
1.627355501560073 -0.2872361469336078 1.118502205704135
3.041602586882838 -1.804919766101437 1.13763202793367
3.735567288664685 -0.2588543736534535 1.44707501947034
3.510302387779621 1.800604251006193 0.6088318612445377
1.910894729858597 1.73653636322658 0.6762900218416318
1.64536453191958 -0.4438887199907079 0.7627125505686351
2.534603320837429 2.729790424013661 0.7426586327571177
3.674305364572402 2.660568519695777 0.8334548115563273
1.974036632984646 2.005368137896324 1.716971595310437
3.743553525039866 0.8585259838188984 1.208579611211041
1.652510003550588 2.384163697625884 1.382616222336883
3.771985009493533 -0.3925145621939846 0.7589880477628157
2.342059250031434 -1.575284287150443 1.271657626150251
1.599048113590275 1.442774436703704 1.134357507026172
1.63853958582338 2.262858542708966 0.9373018864240027
3.739484209251018 0.5042099269330732 0.9814952706511815
1.878097131336153 -0.1716473255537055 0.7107231213208102
1.673065782986107 -0.1607549245577666 0.754034650833562
2.046878432275277 2.276714603145386 1.678553694181306
3.225948035095551 -1.441382283338712 0.7205545282517489
2.335416025336284 -0.1811387822646362 0.7013837036922522
3.374053172200937 -1.582870510283403 0.7316668159916229
3.826960321442491 1.442774436703704 1.081485835547897
2.275470458067247 -1.779300302327702 1.006845562844426
2.411013923891161 2.926232777940992 1.208996576769622
2.353933909206143 2.912097908820086 1.471666426158723
1.661735627903814 0.3960909286596788 1.076663763114652
3.012727033287997 -1.734854997730006 0.7520867825698148
1.658403546792233 1.336098219118471 1.338707888512855
2.931741096869717 2.922626421687915 0.9861240822745472
2.196842333957523 -1.348306235063048 0.7182897714222378
1.691298533181883 -0.2588543736534535 1.44707501947034
3.536207507274756 2.790140724194024 1.100235857941281
1.631304834529551 2.084665077112208 1.081720778722833
1.698662009477567 -0.4499320995842562 0.6291579109202926
1.857622710233611 2.764718345779882 0.8929178429276556
2.084628298822643 2.873270293404442 1.048307437717031
3.747116023067312 0.8585225553520254 1.280130206701766
1.620331696805696 -0.7558753264432211 0.9878913777927366
2.115139658885718 2.01039450153659 0.6853491159616189
3.810563324237704 1.690074053750044 1.081550507874632
3.688030403034641 0.9830874700012411 0.8784136130877451
1.636035502000503 1.368859263987026 0.8121968054852308
3.756621272483832 -1.196550133231265 1.039623110435915
1.652691532032911 2.32157637900802 1.386852607382133
3.012727033287997 -1.734854997730006 0.7520867825698148
2.439900984876461 2.810981038936039 1.592550532958851
3.810568214765624 -0.3860879657389129 1.285764780797907
3.357624662520336 0.8347017203942536 1.856746079719639
1.62127394851415 -0.8085847589192519 0.9611052826745914
2.019885150698213 2.135309492736006 0.6430061175289042
2.383248152184283 -0.3304744223562091 1.543082540499572
3.797777105501491 1.826114278059236 1.01922525672044
1.778125906655022 -1.44875295156799 1.259652988245676
2.653375431964265 -1.096931143266723 1.412614469716625
3.091945928930029 2.807779727127343 1.589633644893836
1.804702455931408 -0.4623105229984396 0.5997526708081969
2.982236650404442 2.013454762787567 0.6848530195715663
1.939870684155774 -0.8881436253920523 0.5749902943900722
2.749033101887361 -1.830779319158173 0.9970203554847887
2.583984534626516 -1.771912795021791 0.8883758733649376
2.645645325976251 0.2810680287853952 0.6885899926343203
1.724869641861071 0.8583657922702351 0.9350994241875906
2.642557790097417 2.622869413620712 0.7025978518270835
2.43549046097675 -0.4061634772207715 0.694621533792705
1.63138134499335 -0.4437143481611638 0.9218106726421549
1.76053164188323 0.6192240979642449 0.7165840639217412
2.753025540477967 2.94199802981347 1.38406312538187
3.757207132627691 1.892502350998503 0.6736288933379047
3.786088465993786 -0.6508746523010007 0.8129611540476699
3.804061351767783 -0.3859304176606694 1.11651598454677
3.765130193942753 0.3960909286596788 1.076663763114652
1.704328912157099 0.7394730190215814 0.9816393807340296
3.036848318212107 2.170377945642184 1.705762837631451
1.860083484777511 -0.7977280371543577 1.43798991896059
2.992209602799618 -0.4928871583203346 0.6911509679558605
3.007872051933306 -1.736492528637038 0.8023117182270122
2.094162263687683 -0.4041166587329017 0.7051661088662073
1.649369212338981 2.459308077367353 0.9835733647591703
3.771266854560197 -0.02117949370060119 0.9804644650812556
1.738267346683698 0.7682246434497199 1.574063208214766
3.401313788685034 1.936748754036878 0.6498080276743815
3.531189471198495 -1.555978820980803 1.214878848862943
3.458255793099125 2.441610776401108 1.646628637762031
1.63138134499335 -0.4437143481611638 0.9218106726421549
2.270875147103443 -0.6422992581015244 0.6922536591146515
1.618531555854227 1.690074053750043 1.019095914823703
1.652722926536714 -1.116165258530283 1.310095277084196
3.321380074970406 -0.385474979457964 1.50402301716905
2.253646849441472 2.398095879930354 0.7009205515378392
2.128736986940143 -1.655962206646452 0.7399447131587709
1.632374505316218 2.084665077112208 1.049465845451055
2.377968180693889 0.1772464862540537 0.6999536600214432
1.621754503372751 -0.543925522520523 1.245621250293715
2.251236124825886 0.7455427446480076 0.704912966003
3.340096602022566 -1.681975597469262 0.8668549056589707
2.448403063965504 -0.7533819557962382 0.6866432841478898
2.390181370683255 2.234527007322085 1.696343798962769
1.983012867176156 2.671194151618842 1.605161800173344
3.5025929091516 1.918385987961522 0.5470546679113486
3.585863724999344 1.426294498009491 1.694508214452789
3.497467244031303 2.114291477863331 0.5240205994970006
3.305118568971363 1.875458515131522 0.6921044725828154
1.686886031096497 -1.061815561799485 1.390995421062552
1.720671939271629 -1.37612850237575 0.963850258335426
1.638590522465711 -0.9231841364647562 0.8080215670662452
3.279693424513449 -0.8187439262069481 1.438201712743091
2.262998962477793 -1.743457238400925 0.8988479270912102
1.673747833787856 0.7390709688493963 1.208666928374348
2.774121492111028 -0.9594098125754436 1.433111550560014
3.279646214143924 1.430252496200863 1.805440426000772
3.448393565858223 1.702762957360657 0.7023750754516092
3.7744296332659 -1.122006592219126 1.095029570163654
2.070510296895775 2.854793004636542 0.9906787052803051
1.657695725953717 -1.054418952595468 0.7990074216716999
2.268916453905546 2.892317306333633 1.406048226596285
3.261845534905829 -1.26553176168472 1.372342109043637
2.65021649888429 0.5931901367792187 1.880924717196429
1.640452839903817 -0.4918604880062029 0.8191671996444316
2.43465621904695 -0.4928871583203346 0.6911509679558603
2.891855315924547 2.716153059520823 1.614013261294331
2.845274774212988 2.924248747992785 0.9829105532862553
1.651065443324626 -1.122006592219126 1.249831069586669
3.360442178873637 2.861362967828572 1.209229512595793
3.452974198817066 -0.5926636494757482 1.443535678024614
3.241995877167919 -1.693255387121374 0.8055113981033861
3.694381462792072 2.412993456267386 1.567593032458679
2.411338411343674 2.919266077069547 0.9888962278654534
1.656646558955356 2.14455474724855 0.7649531498539293
2.648302111137065 2.298750674757433 1.692746744817607
2.015878914195764 2.837306525590827 1.45362616466835
1.711708939196921 1.247567637681034 1.479055611044438
3.752593856848296 0.864496576321789 1.458979717379189
2.411525535156327 -0.8891116056945716 1.436996481865712
3.789165340370253 -0.6741775742567931 1.407567260572828
3.178078302901771 -0.4618155701257867 0.6979957312152396
3.823221107133268 1.505702189572821 1.018966220249308
3.324988345146624 1.537420948398955 0.7087351283340423
2.991161248704882 2.429992987830122 0.6978114518270157
2.303810012488674 -1.374853344672746 1.344962429987472
3.515971091987971 1.73653636322658 0.6762900218416318
3.804031249980687 1.508811365039671 0.8141383826811254
2.4294004048966 -1.827574766527851 1.03793328460504
1.674381127799297 1.329841700305869 1.40441840383379
2.646801738004389 -0.3914816457552591 1.518758687938988
1.672501990938837 0.5049387565361165 1.047318482852786
3.80844573982492 1.398958064190361 0.8785100722793883
3.754117238073635 2.383098535120264 0.7669474231275575
2.507844052247003 1.397038380514841 0.6932129200878412
2.449305171210558 1.823656813659965 0.6912876177763393
2.627635968246114 -1.069178478243639 0.6962670752967757
2.462266336662975 2.800666796749407 0.7939685180534181
2.013792674231441 0.9912073693974028 0.7087906172056915
3.783503515947372 1.892502350998503 0.8826538409155764
3.779392871951457 -0.2927013759864816 0.8159036253722307
3.239183302324688 -1.744397802172687 1.010158469134683
1.619788799230215 -0.8575948287735233 1.346486645065674
1.63853958582338 2.262858542708966 0.9373018864240027
2.27515162650004 1.754025875154077 0.7008569657501508
2.680348529475806 -1.847939841278147 1.101577830151585
3.230023487889045 -1.348306235063048 0.7182897714222378
2.521693764367886 0.3736541280301325 1.84329963092011
3.513123456478361 0.2735845491448239 1.75045514304971
2.931741096869717 2.922626421687915 0.9861240822745472
2.624391534138803 -0.96561350323047 0.6896015207171915
3.78427313386947 -0.597507506805913 0.8142009466167495
3.62216336591516 -0.4623105229984395 0.5997526708081969
3.047480322302645 0.620902330288021 0.699460597197934
1.62422144144485 -0.9905996729660941 1.102094108463434
2.013624001814122 -1.155628650515383 1.39338463997116
2.665801555988843 -1.70391268699248 0.7205718665190035
1.960140436237637 0.05805109962453359 1.694369610660293
2.624802519767696 -0.7540697130821463 0.6817792815337479
1.999352340952647 1.338526684681588 0.7088268416223327
1.913892404977321 1.762547546028258 0.644618421977866
1.99546789586013 0.7099532887786377 1.84938286912778
2.446944078025787 -1.004976992936772 0.6966823215176607
2.971849792481183 -0.3182648718828138 0.6954868707240329
3.546927164219257 0.185055184722939 0.7092861794263431
2.316575969214109 -1.536851354951667 0.7222219595589586
1.646133726617178 2.022835168578915 0.8832189538018239
3.544452220752391 0.5022851703712081 0.7088369303036618
1.627719089886241 2.14456109067023 1.26778787767255
3.756876165922408 2.541737039769132 0.983815874175985
3.767980359106395 2.458730407531416 0.8842547177255302
3.536687306781394 -1.237723185451856 1.372219399151331
3.77077083761437 0.4008400831013359 1.446101073642194
1.634878305982124 -0.7789398192955848 1.402000749679526
1.960140436237637 0.05805109962453359 1.694369610660293
2.621375299813482 -0.535692750359364 0.6847258169165651
1.62253119112707 -0.543925522520523 1.302005980440367
1.804976596605056 1.852329914332521 1.626069208960564
3.598847095574359 2.100652257360282 0.5192458284976037
1.994961811025587 2.517104531383105 0.7162491526521301
2.12438509059622 -0.7506022644825807 0.686536611895929
3.801143959812916 1.826119268514026 1.281047687404603
2.003209722596075 1.253522292877322 0.7087927694453235
3.123055809357894 -1.374853344672746 1.344962429987472
2.265952521089259 1.822800662568774 1.759737727236566
3.788521304218219 -1.051290756072222 1.321470418069115
3.040576229258602 -0.4965082647082229 1.466287686443978
1.867818954698383 2.758888728331464 1.258045349006543
1.653233681756386 2.459308077367352 0.9381211067366956
1.724328916054517 2.488124994550494 1.555997041837426
3.41629997180705 0.5017404675693207 0.7088369303036619
3.67559789565134 2.671553997680631 0.9846936635773245
3.138580133178961 -0.8870423356443349 1.435538884092177
3.17272712133722 -0.2271858169696271 1.58656311996069
1.878709204487588 -1.14048354620467 1.39338463997116
2.908235283568814 2.036123921874398 1.728881977286203
2.123185393227674 1.258001937141031 0.7080168909548348
3.735414040613689 0.5034242862856961 0.7506300086555315
2.483904496519038 -1.841553639087916 1.106616310558962
3.801572302391211 -0.9247098706153315 0.9244368723863297
3.49265018123773 0.9456089592985408 1.801199357214019
1.671468372856829 -0.863443253263397 1.420276918886796
3.794765710273374 -0.8085847589192517 0.8545857790189549
2.007350599702902 -1.052384062547334 0.7042203045332973
2.151789506656047 -0.9498312496227284 1.428079874881266
1.641462293808424 -0.02096124247554893 1.072442231918963
3.036684451163313 2.234527007322085 1.696343798962769
3.765500357977991 -0.02253427953863562 0.8137155200060409
3.793527376210417 0.08993252459352275 1.324214565660546
3.785067596167584 -0.1514956134975239 1.011591491081951
3.778721002417741 0.09067348602139905 1.07318875982829
1.884614689142651 2.482149033436886 1.631580333366713
3.401060021254128 2.596214019630016 0.7225783935732155
3.465854494589657 -1.31923920669804 0.7190517544729722
1.634015111617374 0.1920745436019695 1.374428501745928
1.866061307503064 1.957291766225953 1.679776596849814
1.762056170744633 -0.4161290110876472 1.456743863405117
1.860083484777511 -0.7977280371543577 1.43798991896059
1.618699972489521 -0.9247098706153316 1.049249760765241
1.631797936770898 1.761014492191913 1.346920023001056
2.518114124645522 2.171482949083653 1.710375331240261
3.75361251912173 2.084665077112208 0.6673231758597821
2.101877476699944 1.537420948398955 0.7087351283340423
1.984978518476666 2.798887009680199 0.8943966548811064
2.120395802817744 -0.2242857567610384 1.581446953841959
2.647513469509556 1.485836260023767 1.819360481902324
3.53153413412764 2.784496846660137 1.471710646080992
3.751464017425291 -0.642242058903 1.43138058504212
1.701739266073026 -1.138740734889832 1.375466674640939
2.535058334537214 -1.176833763486036 1.396442247600919
1.711014717549691 -0.759480401699945 0.5745965525849988
2.650356657420962 1.088277867142109 1.859337043759749
2.793437134549772 2.542558700062745 0.6982043701312796
1.612062521599765 1.595104593801 0.9818749285985535
2.251825100102678 -0.4921611280259278 0.6975032291232425
2.027953156103977 1.815316323451271 0.6734537860047254
3.795225137656404 -0.4381899428473377 1.378873174495917
3.823129525108396 1.398940019516554 1.134353689296515
1.617081179177552 -0.4438269224224813 1.2405028787926
1.924547374956146 2.390801625770912 0.6489235418665833
3.451309379980563 1.332514603397722 1.798072054898161
3.541839823339379 0.8639153838943998 0.7087920517845878
1.630409843893115 1.95865625291212 1.279723087740802
3.45301591548573 -1.627561344995368 0.8722752017011196
1.973891623029501 -0.5926636494757482 1.443535678024614
2.081808583572952 2.853524267045602 1.409216941109462
2.778910717048965 1.435737845214343 1.823436695596443
3.495391450686119 0.5874716178401536 1.809118477393463
2.381339246585064 -1.18390281097869 0.7092838111419114
3.791544637587466 -0.990599672966094 0.885812761468496
3.695347536025988 1.82909033955068 1.532948223806345
