-0.775965363558646 -1.291226601526467 0.8409573888244719
0.9199891448520072 0.7551191071935014 0.06844670005720502
0.8788838100587399 -1.814898707248491 0.07950952418405879
-0.8063168266846578 -1.902680972452733 0.2685892903786019
0.4596118178676917 -1.348820377959821 0.06125470799895463
0.2617788514184021 -1.195417511243317 0.9189371820119583
0.6256787157251522 -2.335887972202929 0.2836490835203734
-0.1144990348018077 1.467987791224668 0.9867520292636675
-0.34197211991676 -1.891038850788552 0.7117330188760046
-0.8318965957265666 2.0405436931935 0.6865967137234357
-0.4203262156251499 1.126936245050042 0.06407679086449626
1.240750017569317 -1.751812809845793 0.5050201416159783
-0.8609665924324197 0.2914899147404815 0.753027635565354
1.285343854654258 -1.103847578646412 0.4306535689573711
1.262063733115475 0.4169187398569502 0.2444727720464957
-0.8780806205665279 0.167840606030092 0.5284060889474351
0.04818455571557984 2.425052493169084 0.9356721938822673
1.199917702363299 -1.108732373216483 -0.03743964137562057
-0.8802768938719272 1.308724293345459 0.8223276255740837
1.22239804222396 -1.750301637110087 0.2062664243001153
-0.5264730083951322 0.7951564528232751 0.06862046500606162
-0.5653342028886937 -1.191002245461367 0.8937916054656543
-0.7367971291162149 -1.236759886427495 0.8588196832694808
-0.6889375614675519 -0.2882038431911244 1.055649876794752
1.294433278101614 1.160509251258237 0.369431387399752
-0.5170471325582162 0.5195394285591279 1.191349119124414
1.296134518413984 0.7907396245880792 0.5284147232845281
-0.4765251673055136 1.436922479400257 0.9840658734735718
1.233839923098863 -1.588625068271311 0.776530887441956
-0.873617601493517 1.550667671292283 0.601071018238023
-0.06721966343976152 -1.099323648694963 0.0668939465246803
1.247986269857269 1.693422162584792 0.2692634309095325
-0.5400322814466927 -0.1021805130716082 1.233687110774564
-0.8823662877461661 -1.103847578646412 0.3528698045392284
-0.514897198614098 0.3918014385406364 1.213012644465519
0.3965493356969899 -0.4234550783784669 0.06893282972915228
0.9461670141173285 0.9453068785729318 1.086201609099002
-0.4004798615757422 -2.307907001508017 0.3653286455255694
1.275736123341699 0.4169187398569501 0.4506528269038059
-0.2148447512954244 2.1558365001548 0.9741885424882129
0.3411430931675741 -2.440476929821918 0.2981532353112597
1.233252103591802 -1.268169095711645 0.01283119704963147
1.277103137910351 -0.07566607821299098 0.604300856170089
0.2626092255756574 -0.7068822767891804 1.115908000639457
0.3387400564400014 -2.36243242384923 0.1811992087987123
-0.2530227888611428 -0.6967929031104851 1.115908000639355
0.8029822235112937 0.761501315054493 0.06844670005720534
-0.8294459120544464 -1.816368424583355 0.3377397126663666
1.223598360988267 1.949567142317961 0.2724548106149162
0.2616027382713891 -1.25260127509359 0.8961119515101775
1.293523074414973 0.752652769349075 0.528407999316994
-0.6975294546951802 -2.03728784004329 0.1172322006602182
-0.9029906097206892 1.094687630412417 0.4508197107241142
1.139765284168213 1.027368583956612 0.9227112872151939
0.04588858649222127 2.386140090988095 0.6891577027623048
1.277107569450016 1.48948038827259 0.5285261209540766
-0.7263008865883355 -0.07685260727700413 0.07618969752653157
-0.477003269736359 1.366222174682635 0.9909467736253822
-0.2649247066006058 2.364907279097879 0.6406284190477394
1.27216611421294 1.550667343601012 0.5285402255337972
-0.479933178696196 -0.9372285124300053 1.023523859852269
0.9811613714654882 1.651383616892556 -0.05332913039633162
0.1507703251905799 2.355839189664182 0.9752509116016016
-0.7657591156423638 2.051118839143751 0.2038969285928665
-0.08090065007515183 2.233547509041182 0.9746449779249047
1.264148192330158 -1.268169095711645 0.253604861453436
1.260097271591146 1.693422162584792 0.4512575314183968
0.7972273228632448 0.04512127080608878 0.06841938025824826
1.031764508343063 0.8109428751429009 0.06884048548214625
-0.7425614768976293 0.7785699110754525 0.07633405325208215
-0.8858614340122601 0.9212190630530273 0.7449672465983589
-0.6770443924854307 -1.414894502211814 0.8630627446443024
0.6850075471584523 2.017424003137309 0.1293209344392885
-0.8559572724443498 -1.213031825493032 0.1374347598143767
1.011852030359277 -0.7740167945799015 0.07042200135420025
1.280346839695977 0.6693254545505922 0.673943481872638
0.397207280103004 0.04575293988255121 0.0684193802582535
-0.5367941645053607 -1.256704725373123 0.8823837002666828
-0.3597372901801695 0.01628432128552024 1.239100481647884
0.8615891761585077 0.6653498772030272 1.162252295559333
-0.5350023663015433 1.412238148605795 -0.06920039054194078
1.287004237838632 1.363741779625137 0.6719888601838959
0.1383053093704632 0.276171141730354 1.22806055432766
-0.5699618564128596 0.7312798211239531 1.135718552665396
0.7961531547690885 -0.3076947206027839 0.06869663984256777
1.250093582358482 -1.31546191003146 0.7926638117145114
0.7972700094585221 0.4351310897056971 0.06840836277334922
1.296081492808756 1.161204169348608 0.7330297202259908
1.016900766821289 -0.1928982629776439 0.06854322663899543
1.191188552874338 0.2914405510876584 0.8909649763359688
-0.634494060236825 2.208004592621504 0.9386441058607579
-0.1168564789121322 1.323234204639941 1.00218196972669
-0.5235683962926596 -2.231143284686483 0.4118959203290519
0.2605375257866298 1.619414020197467 0.9769819745049162
0.2853776194508192 -1.527623135193094 0.06393721421085444
-0.8883975160694356 0.7293289007758266 0.5284068268598486
-0.8717838114896024 -1.266078587685307 0.6966125665727825
0.7552939624655164 2.356378951718312 0.6888113242871602
-0.3422109971457697 1.955979290012784 0.9726191514993242
0.4379646247628304 -2.406389825321427 0.2902666547441121
0.5051625785434611 1.803396217332307 0.9704429676845023
0.4006283795829695 0.8158752572104655 0.06862046500606742
0.830806356874056 2.371746781930981 0.9150272750322692
0.1379715986419136 -1.4283023385352 0.8731280663890261
-0.473772449206792 -2.208569039229636 0.4565362990419694
1.261523231058402 1.693422162584792 0.5285706707366924
-0.7942275131076932 0.5526717927361322 0.8761628877860721
-0.6542326118272155 -1.357317390919489 0.8705132099046059
1.282311620157408 0.8378779646655369 0.2468745307131806
0.8879231590902281 -2.31598286417738 0.3172306658062378
-0.5621663401284865 2.276466669504079 0.5835156016052021
-0.8544147626024066 1.615917889005816 0.268206783867313
1.247977282548132 1.79460041820403 0.7892247476000398
0.1384569097834257 1.619414020197466 0.9769819745049162
-0.2541474528384132 1.063271400768685 1.056581500893357
-0.7474200003194716 0.9382912907443459 0.07583163353457258
-0.5900189991864887 -1.095610098328078 0.9341552218426882
0.6851979295337463 -2.248215930906881 0.4576868978085096
-0.5332826065766876 -1.66227379537131 0.04374612087975792
1.21947403132878 -0.07597452782119436 0.1281813156921455
0.7972641269381715 0.3041103633263737 0.06840988102715331
-0.8630590965915939 0.2915022556536872 0.2444735384952796
-0.6239678342919939 0.7532468074002191 1.098373956369978
0.2856511018924278 1.522629646277846 0.06298452054674032
-0.3028677090191963 0.8789798252296168 0.06916974249286677
0.996624885583745 -1.134469416006727 -0.06051098097218223
0.1133803209388867 1.773571527299805 0.07055631114708766
-0.8629979639757578 0.04359108672268024 0.2444921980793561
1.242736957832155 -1.157672590537042 0.02423366572889957
-0.6652355557266247 1.16409851447363 0.9653332547214777
-0.2773847135587073 0.7912830343611688 0.06850518901729563
-0.1187763815261302 -0.4357120652113469 1.188597679595168
-0.5282951014950807 -1.538031283929296 -0.02504211559422821
0.4649502956941678 -1.131416946409441 0.06638108096983587
1.216398143776046 -0.3992312897973309 0.1288310867719362
0.8396506850632721 2.360226693274676 0.8487314578795508
0.01425970274829258 1.545730279676568 0.981636468400514
-0.8387594379002346 -0.9999785140091742 0.1397520580268103
-0.03897018919295499 -2.406389825321427 0.2902666547441122
-0.628967416899056 1.028925426382046 0.05810168391950664
1.190475450297746 1.368637526790937 -0.08391682026797973
-0.6614070354129329 2.101243073133612 0.1918965513405551
0.5042133569538875 2.126935723436856 0.1646112229671569
1.017612974974234 0.4274566826715937 0.06840836277334894
-0.3982696913683163 0.1749228864019702 0.06840988102715331
-0.1094916341333424 1.670978838597613 0.9728345967090597
1.243787584022851 -1.376652517292608 0.1357111168192902
-0.2310218211133759 1.794130680045124 0.9704429676844917
0.02174497277495405 2.061778246198449 0.9736030490173832
1.233088442347595 1.868968916914688 0.2677904656025725
0.2614351460215488 1.407745962829759 0.9936329294155071
1.162359205878109 -1.425242568021181 0.8500750650287857
0.7573628451983663 2.068705216249877 0.1494114988475901
-0.6056371760887664 -0.2639909522097724 1.176278216298707
-0.3612553187150202 0.5301795066172552 1.191349119124418
-0.3543367922457985 1.650303481282905 0.9728345967090436
0.1526537133616254 -2.427293973710556 0.2902666547441351
0.6590909664910949 0.922559078483028 1.102543915124051
1.238581327782503 0.8407265505223828 0.1305083024306655
1.284855869582116 0.9212190630530273 0.7449672465983589
0.9289908087303405 -1.092119584420876 0.9449591636228467
-0.8945286388451181 0.752652769349075 0.528407999316994
-0.1146472726309006 0.6796250792487696 1.16225229555937
-0.8157240601390047 -1.898820645638489 0.5816892169800003
1.304503424858486 1.019925110880499 0.5284416671435036
-0.3982328872933896 0.04512127080608878 0.06841938025824826
-0.8663907286430497 -1.431110258933825 0.4266053909015068
-0.2529719738984551 0.8561473438499653 1.121458544347992
-0.5783703561464951 -1.412488169058579 -0.1012709941653237
-0.4183258059658059 -1.065016569637122 0.06501421408230654
-0.378575008974434 -0.8378620114425988 1.064914458855824
0.6434750247729473 -1.292122165951709 0.8823837002667017
0.8323906849936124 -0.7883954615500105 0.07042200135420054
0.3844771945403395 0.4066714553146622 1.2130126444656
-0.7417155381630458 0.8477762505765618 0.07711110414297295
0.1322967637688274 0.8430941114374492 0.06884048548215098
1.126124034243689 2.128189338966566 0.2442318099377736
-0.8431335456884701 1.876049262411591 0.3707209451740346
0.397207280103004 0.04575293988255121 0.0684193802582535
0.133982816565848 0.5908720905833459 0.06840228975813972
1.189356862246455 -1.690011454883039 0.7621998285284717
0.8396506850632721 2.360226693274676 0.8487314578795508
1.258291684838313 -1.55108710242722 0.5213645489402841
-0.3619392203072713 -0.1007458196017309 1.235069632713612
1.115665168851213 -0.7653490867294599 0.07839175496343917
0.1383215117200261 0.1436134751139461 1.236814576066302
1.259620824481082 -0.07578948734504865 0.7547292882660801
-0.1312974886020195 -2.337534286672613 0.1811992087987023
1.211130966019491 2.103802911988196 0.7285680623657924
-0.5309181563030245 1.667162532009821 -0.02058456434186391
1.259773217833586 0.04346767759062258 0.7551639524275127
-0.5314549938392583 1.722228037011664 0.002271117487937813
0.5343885578193094 -2.3522441608231 0.2836490835203794
-0.4997308142472208 1.35495565255497 0.003966033103477666
0.1372155841516534 -1.195417511243317 0.9189371820119582
-0.6164188187178327 -0.5885803989864442 1.098937556153639
0.7670680159218282 -0.3198087478515495 1.209715798084249
-0.6356878792449056 2.220151613277725 0.4229610762128962
1.215873454131977 -1.615847411811284 0.1307904577281736
-0.8799208439825011 -1.268169095711645 0.5090875303322541
1.014843486598114 -0.4082800194481429 0.0689328297291467
-0.5704329620983099 1.975539441281355 0.1293209344392861
-0.7288797856358807 1.129356228625513 0.9284323283155747
-0.9008986634314664 0.9218056269330545 0.4507443546010577
-0.6838295910850749 0.1732584631265264 1.075362183730892
1.269256994048045 -0.6189639192573168 0.5893657461091399
0.7870177196436828 -2.264818102986509 0.2664027176537981
1.291337409599306 1.29740321270579 0.6053393775936292
0.6286793110593285 2.126388651236558 0.1646112229671515
0.8070856399209503 1.292457700273057 0.05162726403287757
0.00620348040034047 0.9070494971044933 1.110793404081683
0.5644202729150303 2.384804014621209 0.689157702762268
1.053227047397071 -1.357317390919489 0.8705132099046058
-0.8111933457246285 2.129849176137905 0.3673510809828676
-0.07045513324960376 1.110021757044799 0.06947919467901539
-0.7847292379791442 -1.754741004315745 0.7303918294395253
1.093203383261484 1.315376286873127 -0.1136630035199523
-0.876325381900066 -1.322635674771755 0.51040819455905
1.191367162534608 -0.893620649895599 0.7843302223190202
0.8430509196009886 2.324054759779536 0.6406284190477374
1.153343028301718 2.179261092860577 0.7274995449455786
1.107269902326573 1.087526522625576 0.003031914039051008
1.000022313394182 0.4465142557411334 1.162987318784756
0.8915978501393951 1.619541309285314 0.02011401331728472
-0.5447841700379015 -0.2094703145529052 1.223516606358551
0.9073358828066166 -2.076254103472618 0.08315080634238915
1.016851309515892 1.09909163026691 0.005528336618630418
-0.582166935895633 1.651383616892556 -0.05332913039633158
1.046726319321219 2.158749323786871 0.2568816660731825
-0.8187274145511323 -1.260995303763578 0.8131667692161704
-0.4653060202981633 -1.652148542650357 0.8138659611179016
0.9417527883103773 0.6447071918731253 1.162253677780605
1.058111198249699 2.242316605349609 0.6420166388687076
0.2856808163754433 -1.353764663159622 0.06125470799895664
-0.5812392764745165 1.706600281534275 -0.02220544416358992
0.2476633669822131 2.407885322415077 0.9720402127725284
0.01324995395637946 0.6829729352440868 1.162252295559393
-0.1557153187329682 -2.324558950299223 0.4046927979621295
0.2507353463470264 2.271694617513855 0.3581122449693215
0.2609518726967179 0.5413054862495755 1.191349119124512
-0.8602876638540307 -0.1878626108988977 0.751465101272171
-0.1557153187329682 -2.324558950299223 0.4046927979621295
-0.5788866093705458 -0.9938258381453886 0.9761139179810534
-0.8785685591356814 1.489482026728948 0.6021868127153977
1.273105105661325 1.1607756125075 0.1444157150827841
0.9044089285148929 -1.155482710950711 0.02297370426275737
1.297402343864639 0.836017042529269 0.5284213301155332
-0.8967106980008548 0.7679816788485631 0.5284103106948864
-0.2400022859478045 2.396590412856337 0.9720402127724727
0.6393136703333862 1.442070988440418 0.05991814290469017
-0.8886646603597381 0.728205131526504 0.6737281389822698
1.254284237980423 1.786007791398986 0.7351719897918927
0.8727668847766473 -2.208569039229636 0.4565362990419694
1.277076250025232 1.096177555056127 0.1446850488380275
1.304734904708903 1.019850216207033 0.6754644027992011
-0.3149208136713406 -0.7939590958481928 0.07042200135420171
0.2609518726967179 0.5413054862495755 1.191349119124512
0.9482652025281142 2.156392865989979 0.2192053342784238
0.3605772616289754 2.250809556893675 0.3047521037482884
-0.8470262744273196 -1.687973090633617 0.478824860373037
-0.8157240601390047 -1.898820645638489 0.5816892169800003
-0.8589141885505441 -1.370013361784975 0.7814871896784568
-0.4625947405886524 0.6653498772030272 1.162252295559333
-0.8753388504002482 -0.9953435999358656 0.5837644678030522
1.22632583743892 1.614953644126028 0.04008570404609872
-0.5305680998724219 -1.630237919893437 0.01806919247175488
-0.1067599929082055 -1.755906404258262 0.7889945733173522
-0.859588884741702 -0.3977542249644666 0.2449588167698197
1.229594663490808 -1.322635674771755 0.01312896938009962
1.230781721917141 -1.751510575298652 0.2893873212557451
-0.8596273889041955 1.0971120863907 0.8016843909946808
-0.3633120959657552 1.449838211986147 0.9867520292636505
0.532999901372317 0.4404957859957109 0.0684083627733523
-0.8485149975300493 1.877819348785817 0.5286109219345703
-0.1867115240737643 -1.789074419503746 0.07858028597792126
0.9270374140377333 -1.697398666165629 0.06628134699192723
1.296081492808756 1.161204169348608 0.7330297202259908
-0.5264730083951322 0.7951564528232751 0.06862046500606162
0.04588858649222127 2.386140090988095 0.6891577027623048
-0.07219755640568701 2.252136743817102 0.3047521037482792
0.7972700094585221 0.4351310897056971 0.06840836277334922
1.184018658635576 1.494850676016279 -0.0706529937235843
0.3404644700626928 -2.377298355494059 0.2836490835204016
-0.8660305310842963 0.6702984481651373 0.2444739219668025
-0.8867172711926958 -1.157672590537042 0.5054218848634043
0.5415962604213717 0.8359413284559185 0.06884048548214848
0.7399462641252572 2.193082700958966 0.218871262907517
1.159591791138561 2.09176876720002 0.2213420256562654
0.7797942878820835 -2.280260927103204 0.1803187894052153
0.7571016105903753 2.329040424029684 0.583109424337116
0.9794833595099417 -1.043154653558065 0.9551277898277659
1.253939153234192 1.783343682861609 0.4513221812761108
-0.7265913478960738 0.4226071993171735 0.07612668119461359
0.6421833542624138 1.06027859878582 0.06986198221482473
-0.8369200232035963 -1.617912269336394 0.2252338625201346
-0.563234172746546 1.109758550298688 0.02209483304275272
-0.6856963003350686 2.238753340289307 0.8973521925487658
-0.8665436616031094 1.615917889005817 0.4512004835745246
0.6375040401699361 -1.622034311552971 0.06973021012442675
0.7573628451983663 2.068705216249877 0.1494114988475901
0.9093575740299584 1.215152307499797 0.02298550235436831
0.5137317932600858 -1.357659382569446 0.8771144600783345
-0.5782870746364526 -1.764431644583493 0.7588124008558449
0.2778999769446118 1.950437887227421 0.1044672597425626
0.01982785408052747 -2.022890345530084 0.08155418639456019
-0.8911370996340936 1.229067713913473 0.3696658508917282
-0.4443606494360824 2.202765714172785 0.2585920585467083
0.369700276601187 -2.149586105287208 0.08312963214155569
-0.1050452876932758 -1.824238836633301 0.758812400855874
1.281712281838637 1.229067713913473 0.2662419221768848
0.2680178622279507 2.013031438782867 0.1293209344392983
-0.5277460357269092 -1.482708383151987 -0.04347814536058686
-0.8539446826771171 -1.619162391130819 0.642558348038444
1.256169165043635 -1.157425920733628 0.7055576731730998
1.278747742470197 -1.267859390818855 0.5801744292615403
0.9240404930945085 0.7792784518525915 0.06850518901729394
-0.8916713026151908 0.7907927937919728 0.365087303689448
0.9562798255662858 -1.048613401127452 0.03435532497303127
1.05080523337431 2.271730620991409 0.792859819928246
-0.7318562738041683 -2.02861839477169 0.1839114119466358
0.3508098798543755 2.425052493169083 0.9356721938822673
0.1356162268552391 0.9852372294749566 1.086201609099075
1.268033930190907 -1.431079288444546 0.5592102751938688
0.3739079650996003 2.154743453320605 0.9741885424882458
0.3847347328216628 1.545730279676569 0.9816364684005141
1.093866280157551 -1.478575921345858 0.850789319880471
0.01379194341490491 -0.1026897607929225 1.235069632713715
0.5583651630708659 0.8838379383840245 0.06916974249286735
-0.06128877666352985 -1.706396194035166 0.0747322885350027
-0.0353645981373561 -2.350644901224378 0.181199208798707
0.5360007407717329 -2.414759507965534 0.2981532353112308
0.3869406860139197 -1.248023930134221 0.8961119515101563
1.294330738775362 0.7679816788485632 0.4506684955224964
-0.5305680998724219 -1.630237919893437 0.01806919247175488
0.6421833542624138 1.06027859878582 0.06986198221482473
-0.3574745460273065 1.585739249010429 0.9769819745048802
0.01883975315936175 2.124983191293611 0.1646112229671629
-0.8763920288870989 -0.2941336568044047 0.6663454923622835
1.256127336235758 -1.054087929878098 0.1431374061111399
-0.4579774428671082 0.396276859162269 1.213012644465519
-0.4014699474876883 1.845395673869557 0.07603970500739149
-0.6813625953682447 1.689276568841597 -0.02441929765918539
-0.773165649918353 -1.842362577960153 0.6810471108768486
1.140617173999856 -2.025305869113463 0.301365648509789
-0.8875070371867875 0.9240378073537194 0.2514914024662762
0.3508098798543755 2.425052493169083 0.9356721938822673
-0.1094916341333424 1.670978838597613 0.9728345967090597
1.258595450409131 1.550667343601012 0.2677006915798891
0.4591789078871233 -1.630182621430287 0.06973021012442925
-0.2458728677919556 -1.170159079526846 0.06474825990796324
-0.8331255098575248 -1.810282676482003 0.6269483380648551
1.017604956787916 0.1719385212456428 0.06840988102715304
0.1146024089861608 1.899710756765003 0.08658948815260563
0.9107457371006347 -0.4123368664452648 0.06893282972914669
1.017612974974234 0.4274566826715937 0.06840836277334894
-0.859588884741702 -0.3977542249644666 0.2449588167698197
0.6448006002486756 -1.234824474298881 0.8961119515101013
-0.7806686807336869 -1.756813998714467 0.1237748102909951
0.6249811793525845 -1.904292563451699 0.7117330188760139
1.148378075437678 -2.04713499047518 0.4618716812781827
0.9813178975346708 1.590518868408444 -0.07960951036795723
0.7775694445442892 -0.837862011442599 1.064914458855825
-0.8802768938719272 1.308724293345459 0.8223276255740837
-0.4955551287622158 -1.676626548131481 0.06073320390031506
0.01425970274829258 1.545730279676568 0.981636468400514
1.242736957832155 -1.157672590537042 0.02423366572889957
-0.5277990331065798 -1.146122316308242 0.918937182011872
0.2606891261995922 0.276171141730354 1.22806055432766
-0.8763920288870989 -0.2941336568044047 0.6663454923622835
-0.8740796396137994 -1.103847578646412 0.2553487455078736
-0.2395676484989674 1.807360205750469 0.07393522777120548
0.6217774748211971 2.062371292304395 0.9736030490173577
-0.6763090189002293 2.07494047223377 0.9377709641527915
1.290665738185046 0.7907927937919729 0.365087303689448
1.193964117952242 1.684167821218214 0.8984416123157992
0.5320152844520945 -2.321180371173027 0.2318056848015219
0.502546720601876 -2.01279031514582 0.08155418639455776
1.243877241288415 -1.681880371811704 0.6861997114193208
1.191367162534608 -0.893620649895599 0.7843302223190202
0.2581289641023727 -2.058112845136331 0.6347202146651279
-0.5411443386166402 -0.8205543758584506 1.064914458855819
0.1525657834784557 -2.44939529075822 0.2981532353112709
-0.8784429098309687 0.167840606030092 0.6055286838586704
1.083971198059227 -1.029927278523591 0.01770192578380056
0.8816164008116034 -2.230169486826195 0.2680236944805085
1.256169165043635 -1.157425920733628 0.7055576731730998
0.4586888576468012 -1.464152499784331 0.06222814191366512
-0.5536275852014739 0.10825962185921 1.232671389657414
0.8788838100587399 -1.814898707248491 0.07950952418405879
0.5042133569538875 2.126935723436856 0.1646112229671569
-0.8357709902102404 -1.816368424583355 0.5229910925063043
-0.775965363558646 -1.291226601526467 0.8409573888244719
0.9660150153070354 1.016876614068573 1.05568469387512
0.2885268281686973 1.142904421999525 0.06828067835854432
-0.3709788453449534 -0.4301742778233362 1.188597679595117
0.2632680775447218 0.8933807352093179 1.115634502143098
-0.3401841081016892 2.326986798353591 0.9727461613899536
-0.7820049371722627 1.681562090250331 -0.002265613292858732
1.260884855689923 -1.431110258933825 0.3441803408541284
-0.8311112149497966 2.042674980023402 0.7298986996637418
1.092567848662087 1.889056923857986 0.9364369141661777
1.28008856769808 0.6702984481651374 0.5284061041909587
0.5035462330273416 1.88046858215841 0.9713803454040895
0.3844741638695075 0.01640680941466795 1.239100481647976
1.191367162534608 -0.893620649895599 0.7843302223190202
1.084121065929464 1.447398809657965 -0.1192047248275941
0.6352562132875189 -1.606250737637657 0.8365538785131685
-0.5741879035617814 0.8577149835377593 1.110771160763634
0.6498175431515538 -0.5545623331969299 1.159130417185802
0.2656350599832606 0.7775687745776339 0.06844670005721336
-0.7812989589362767 -1.327468437584047 -0.08036134736359345
-0.5620327314916078 -2.182637750304595 0.4582640012523905
-0.3853801106268845 0.9162342489452393 1.102543915124039
1.188870923565025 1.762719997987316 0.8984215431749876
-0.2392554660831883 0.2724124516079106 1.228060554327573
-0.1225871719254534 1.06915903999515 1.056581500893373
-0.8723947647223445 -0.07566607821299097 0.3641536737415159
0.1366919948878971 -0.5626195080262746 1.159130417185895
0.01526871532687939 1.61357397994306 0.9769819745049079
0.01486006433424048 0.1431264644210469 1.236814576066277
-0.8763884439673106 -0.07566607821299097 0.4485729342871112
-0.1113436801875788 -1.542900650757892 0.8542585204471391
1.299893099001322 0.9218056269330545 0.4507443546010577
0.1369769306475846 -0.4395633068963696 1.188597679595229
0.1373916972986662 -1.25260127509359 0.8961119515101776
0.5644376981917787 2.374811565415294 0.6406284190477474
0.2470638241174956 -2.400594114312768 0.3654642836936718
1.26118722806444 -0.1878009063328689 0.2446933175483927
0.5143684864320297 -0.2144794312088513 1.225198980578963
-0.06052769967839064 1.517140662686483 0.06298452054673981
0.2601936493646987 1.6853574689718 0.9728345967090797
-0.6939823811999242 -1.652948389047796 0.06156585014159883
-0.8742009427855908 -1.376033107507027 0.6178556878060182
1.262063733115475 0.4169187398569502 0.2444727720464957
-0.2430912622654906 -1.350065163461929 0.8771144600783115
1.096523890265036 -2.03728784004329 0.1172322006602182
1.23304744542634 1.963667101206994 0.3717942234215188
0.02929415896874501 -2.149586105287208 0.08312963214155569
-0.6827488427371433 1.572179491397084 -0.08491709746846171
1.134437630875325 0.7393776575744613 0.07616416347885577
-0.1230143478415716 -0.8485364927982123 1.064914458855885
-0.8729008412462135 1.48948038827259 0.3701790296855235
-0.1593707275009907 0.8838379383840245 0.06916974249286735
0.638082964027778 1.5096470714281 0.0629845205467391
0.2581289641023727 -2.058112845136331 0.6347202146651279
0.9257566866528024 -0.3130844199164434 1.209715798084244
-0.3576564139299198 -1.5235863313909 0.8542585204471265
0.01255956727259838 1.402673685788402 0.9936329294154964
-0.4881658649831548 -2.315766965960107 0.3034149072853256
-0.8595950636213925 -1.55108710242722 0.5652307463546461
1.271895276816069 1.48948038827259 0.3701790296855235
-0.1125046192991242 0.01637172446299832 1.239100481647938
1.257369864302088 -0.3977542249644667 0.7306581301866177
-0.8063224635161426 -1.874045970017334 0.6353892904690847
0.6266472381042469 -1.733775224442862 0.07705861357775265
-0.5783703561464951 -1.412488169058579 -0.1012709941653237
0.5163862844189959 0.7993887129154721 1.135506711586948
1.019516543757545 -0.8632759911702699 1.001483882939232
0.5633293809561324 2.411822383499837 0.8667155806533657
1.263279423418223 -1.103772340644853 0.6939105287887507
-0.100778645011225 2.202756931310762 0.2188712629075303
0.5583651630708659 0.8838379383840245 0.06916974249286735
-0.3848811623708147 0.8914735818902765 1.110793404081626
0.7058597944761392 -2.285440743859142 0.2317704680257771
-0.8828232199733918 1.427604249030423 0.5285126955523559
-0.4620291966768713 2.052851193547436 0.1494114988475894
-0.4896093137884236 -2.300579891440103 0.339436830310958
-0.8070341522460249 2.07494546366092 0.8450300108899296
-0.1876396027487978 2.250894134445866 0.3047521037482707
1.186488721855846 1.432750034882034 -0.08138095134270533
-0.31205487129202 -2.35608822027642 0.2902666547440916
0.1381881480026857 -1.489091551536089 0.8660402266754677
-0.8969820129527963 0.7670044496887362 0.6737116911971334
1.267581283801858 -0.7542730450486963 0.5874760818993042
0.9399828537245403 1.034590518663942 1.056133808261666
0.8693751072040388 -1.444597186929756 0.8660402266754178
-0.8808679082593159 0.7659840287529074 0.7460115958012918
1.271758336484022 0.554355691222406 0.3649371942816256
-0.8175676473754705 -0.9028227887216764 0.1343175819324277
-0.3709788453449534 -0.4301742778233362 1.188597679595117
1.27388022716736 -0.3977542249644666 0.5940970314082089
0.9239150463578365 2.327640449926283 0.9360842341487676
0.6374566888972478 1.702373047140152 0.06965046744395546
0.2617455333209771 0.8062251943913474 1.135506711586979
0.1373916972986662 -1.25260127509359 0.8961119515101776
-0.4442785020089903 -1.997720415739515 0.6341221413801116
1.25581339840006 1.783343682861609 0.5999809651978173
0.5330130290111155 0.585883141295244 0.06840228975813592
-0.8390537339764931 -1.751812809845794 0.4061935792429963
1.24007066215239 -1.431110258933824 0.1356541787943684
0.8430509196009886 2.324054759779536 0.6406284190477374
-0.5670205797371801 1.016876614068573 1.05568469387512
-0.8836074181827966 -1.103847578646412 0.6412945266607194
0.01731316311559769 1.744261346769121 0.9705907055985156
-0.06485442854362683 -1.039761482541683 0.06995626426770514
-0.6343998203258154 0.8629099656584162 1.068051023690741
1.233088442347595 1.868968916914688 0.2677904656025725
0.4459754510951936 -0.9468642791085138 0.07084768609611986
-0.4155583861715292 -2.094598554355746 0.0831338669817191
0.5986241171669454 1.953960756104143 0.1044672597425599
1.1315313189316 2.209923579552808 0.8426155255862362
-0.4529096527842123 -1.874142224998772 0.711647579835293
-0.2266842801552969 -2.335887972202928 0.2836490835203734
-0.8539975259875587 -1.544957087723152 0.7390338693163642
0.02253810381287767 -2.050613745431074 0.6347202146651163
0.9298963039417004 -0.4211952930032522 1.188597679595113
-0.8152610094107171 -0.5053829592391661 0.1291037268828656
-0.534427409350384 1.819730961561531 0.05167032603962492
-0.8157240601390047 -1.898820645638489 0.5816892169800003
-0.4814780482246706 -0.9302731740813867 0.06955863552217007
-0.05926954194934715 2.298433101393751 0.4221286473928262
0.5353702738810527 -2.39296952745648 0.2902666547441002
0.9409882131153166 2.302480330494019 0.6847539950381308
-0.1349347608071037 0.7085329136495326 0.06841064054700222
0.3791665814894245 -2.022890345530084 0.08155418639456019
0.1133433336776276 1.522629646277846 0.06298452054674032
-0.4849110910844437 -2.257632172968032 0.2864319939265057
1.268402709752085 -1.430901208131191 0.6396148616053726
1.019516543757545 -0.8632759911702699 1.001483882939232
1.230891031296422 2.0405436931935 0.6865967137234358
-0.3068653589062839 -2.285440743859142 0.2317704680257771
0.8705595753569527 1.571605000241052 0.9742958187148019
1.140709973732901 0.8477762505765618 0.07711110414297295
0.1378726560621553 -1.938694191111078 0.08037695267539968
1.304880785690614 1.019906387212132 0.6057501815989321
1.267454041624984 -0.6189639192573169 0.4426033934807497
1.277076250025232 1.096177555056127 0.1446850488380275
0.5360007407717329 -2.414759507965534 0.2981532353112308
-0.2494489519796781 1.167744671111376 1.026498781847723
1.291337409599306 1.29740321270579 0.6053393775936292
0.2621107901080698 1.184295921281568 1.026498781847764
0.0581167275425945 -2.418455778758683 0.2902666547441254
0.1339860399864714 0.3104070701243198 0.06840988102716018
-0.8303274383733008 1.550667343601011 0.02806807326118996
-0.6905403105483363 -1.835033369330011 0.7055642188191824
-0.1098884737396932 -1.615276111300827 0.8365538785131739
0.791835604880932 -2.354580394080981 0.298153235311221
1.155581433252037 2.17090567380441 0.644708505033321
1.262053532161449 0.2915022556536872 0.2444735384952796
0.1373916972986662 -1.25260127509359 0.8961119515101776
-0.7927331227770162 -0.50352214231934 0.8452942115838698
0.945034609186 -0.9223191719289923 0.06799252953258386
1.204376138043784 1.557303736102501 0.9017862195803956
-0.5309018683718452 -0.4211952930032521 1.188597679595113
0.389546836984864 -1.027890112879723 0.995454743886349
0.797022353673711 -1.562117692841554 0.05849652150420481
0.6638969668268232 2.37483052142163 0.6891577027622579
-0.2472313922055864 1.246774449246 1.010900479617678
0.9461670141173285 0.9453068785729318 1.086201609099002
0.9192111649407888 1.119195916049466 0.04725955260463666
-0.2395676484989674 1.807360205750469 0.07393522777120548
-0.1257033505695389 0.9768649888622178 1.086201609099037
1.238048169546349 -1.751812809845793 0.4061935792429963
1.287032300172195 -1.103847578646412 0.5074582481624231
-0.877415377808333 -0.1878009063328689 0.6720987919377063
0.3387400564400014 -2.36243242384923 0.1811992087987123
0.2605574572688203 -1.556332750376781 0.8542585204471548
-0.1654030438272126 -2.262279778235751 0.09304063253486336
0.2858969843515948 1.861290465842907 0.07847013704410433
1.098297273276375 -1.120993160212538 -0.06470431490347174
0.797022353673711 -1.562117692841554 0.05849652150420481
0.2610268236485365 -0.1030976215635631 1.235069632713746
0.8769571815651538 -0.6856146884679042 1.11590800063933
1.217721850120987 -1.260995303763578 0.8131667692161704
-0.5987716376134339 2.248811693528703 0.503155350164569
-0.1821640298275333 -2.263960675360621 0.4576868978085153
-0.4948354971210093 1.786089002779296 0.0527163679104399
-0.7134236269942008 1.591804775340946 0.9372049420652717
-0.5953398747764103 0.8528580972460504 1.103022827970422
0.9914000704499649 0.8994990421336533 1.087381773960468
0.2870846741087221 -1.043580667126901 0.06995626426770682
-0.2754796527433187 2.287568391087696 0.4221286473928158
1.215493513833502 -1.816066190036214 0.1992195424603026
-0.8400456318239882 1.967192090929252 0.6502719834633335
0.5380798922152885 0.7956512383465373 0.068505189017298
-0.6542326118272155 -1.357317390919489 0.8705132099046059
-0.597014415412682 0.07255329120684316 1.198182346972273
0.991446707580534 -1.187846417435907 -0.08428241600343048
0.8114523900329789 -1.119441591029626 0.05963694473215421
1.268265285802033 1.028141564136634 0.1397801592403896
-0.059952608988467 -1.406725503369575 0.06173751660023946
0.9594678642752568 -0.9813345582641965 0.9918477048299554
0.7473741765340858 1.782174337497174 0.9704429676844857
-0.387528930501835 -1.830510343068711 0.07950952418405913
-0.8320251973294808 2.040010871486025 0.5988233863074811
1.252991961557414 -1.544957087723152 0.7390338693163641
-0.4765251673055136 1.436922479400257 0.9840658734735718
-0.8686360683482743 -0.7542730450486962 0.6428733693104164
-0.415460331107668 -1.087685197839179 0.06191861552677094
-0.8776083820648883 1.427604249030423 0.3700464568578494
-0.577911797069909 -1.573680293975829 -0.03103966823233668
-0.5989816326276424 1.260604135105727 -0.08798153144680269
-0.8595259406943632 -0.9953059809350862 0.6865832786039134
-0.4155583861715292 -2.094598554355746 0.0831338669817191
0.9502830850439454 -1.951973255860881 0.08155721128038795
0.981660770107028 -1.698328052598695 0.7889945733173277
-0.864521671031148 -0.6191045233502983 0.3619404930408611
0.9526220207713292 0.10825962185921 1.232671389657414
0.7401262982173104 -2.288973804796126 0.4045571597940614
-0.6189761916537324 -0.7238548713168402 1.053296303843415
-0.4090188930269575 2.205257044582652 0.9719588221347957
1.254941647766756 -1.55108710242722 0.3995126036083216
1.276409813378188 -0.1878009063328689 0.6720987919377063
-0.8608690057514047 0.1677789014640632 0.7543286154060486
0.6406712293399652 -0.1015136335233309 1.235069632713634
0.3772494627950013 2.061778246198449 0.9736030490173832
-0.8548526388087465 1.701790753782146 0.7916383326908906
0.8733085903035789 -2.245360136876808 0.1789775648027744
-0.5545991540677477 -0.4208188623887976 1.186189211676365
-0.7957158072932877 -0.9951555049319673 0.7679040779895209
1.20602858781588 2.07494546366092 0.8450300108899296
0.2502401197104749 2.413065006680846 0.8667155806534287
-0.8359296154333602 -1.816368424583355 0.5685591608817456
0.6688135730977854 -0.198046880859027 0.06854322663899684
-0.8609665924324197 0.2914899147404815 0.753027635565354
-0.03993401546582648 -2.411878853320462 0.3332638297050406
-0.5972798357719713 0.1973980741534175 1.193395378226617
0.9111652957425356 -1.021558530048107 0.06351101139797791
1.240699909747025 1.615974506170086 0.1489196802041724
0.1119097614613333 -1.043580667126901 0.06995626426770681
-0.883498224964078 -1.054620439005489 0.5092225481626557
0.009447598585091303 -1.027890112879723 0.9954547438863491
-0.2405655530568184 1.529601854011855 0.9816364684004921
0.01305768823424956 2.07460945774019 0.1494114988476027
0.8926336582146588 1.736672530179259 0.03947474071213504
0.2628499926672717 -0.8559600366583088 1.06491445885596
1.268405578779579 -0.8936582688963787 0.5852349308676527
0.2593202283308863 -1.840105445806795 0.7588124008559066
1.035407645607954 0.7926859058908673 1.0882606312939
-0.8808679082593159 0.7659840287529074 0.7460115958012918
0.1131015790621803 1.454468805770728 0.0599181429046913
-0.7191383370842998 -0.6278168806120184 0.07751839459738297
0.2620175049224708 -0.4395633068963696 1.188597679595229
1.255866472406997 1.783343682861609 0.6523077147440275
1.268189779395597 -0.3977542249644666 0.3625047384459159
0.4557220633586861 1.899109493534319 0.08658948815260548
0.3857978904630708 -1.364487211211229 0.87711446007836
-0.4042284835537952 1.364340221993317 0.04870873369709355
-0.670019857224024 1.781258596527446 0.03783975572727191
1.125576759335232 0.2954402817712307 0.07612816558792795
0.459410502329462 1.767172326327231 0.07055631114708739
1.273105105661325 1.1607756125075 0.1444157150827841
-0.6833583713163469 1.5101385519419 -0.1060221482978431
-0.4707481598765271 -1.10500878504873 0.9449591636228467
1.229321873943156 1.550667343601011 0.02806807326118996
0.6385620840688429 1.807360205750469 0.07393522777120549
0.009447598585091303 -1.027890112879723 0.9954547438863491
-0.6164188187178327 -0.5885803989864442 1.098937556153639
-0.8918719016634861 1.297398996258313 0.5284869550634954
0.04485311452316783 2.272587488615758 0.3581122449693157
0.8719585100843179 -1.05170679036305 0.970770123455948
0.9296988655817582 2.22429413032608 0.3579906962262739
0.1121739985343591 1.310790857627587 0.06159758096021488
-0.2460759708680842 1.315935085533449 1.002181969726675
0.7399462641252572 2.193082700958966 0.218871262907517
-0.7816831079382567 -1.488384010183039 0.8356567800327673
-0.9046658912906151 1.094688661608864 0.6755191292141978
-0.356299526895661 2.356378951718312 0.6888113242871603
-0.7367971291162149 -1.236759886427495 0.8588196832694808
0.9338055361058341 0.1314386558605727 1.236041877151093
-0.5502933810189893 0.7591221958829717 1.135546219674503
-0.8863494190844027 -1.103847578646412 0.430653568957371
0.8731406287550231 1.149407216984102 1.025872012163362
-0.839987986097203 1.967192090929251 0.5994027149995163
1.192355972351651 2.153515410867506 0.5180512726901991
0.7768037711255116 1.055972009248519 1.056581500893347
-0.7924191475676892 -0.188109429163013 0.8901333761734174
-0.6856963003350686 2.238753340289307 0.8973521925487658
-0.8549864381087904 -0.6196669397222241 0.2453961815109426
-0.3853801106268845 0.9162342489452393 1.102543915124039
-0.8698033199056352 -1.322635674771755 0.3521820222693944
0.4389284510357018 -2.411878853320462 0.3332638297050407
0.7694850439390291 2.265598054525426 0.9723923972367559
0.2618015117387532 1.264454881590512 1.010900479617722
-0.8991206047466724 1.094845748809812 0.3688737255854712
-0.4885477746099565 0.9081029174115782 1.102543915124036
1.053227047397071 -1.357317390919489 0.8705132099046058
0.8926336582146588 1.736672530179259 0.03947474071213504
-0.6864644402122455 -0.1823706246234167 1.068866972454985
-0.8053817024739285 1.557303736102501 0.9017862195803956
0.01176289268378941 -0.3256207358083261 1.209715798084343
0.7952381819245806 -0.4159455792870867 0.06893282972914697
0.136385209994398 -0.7068822767891803 1.115908000639457
-0.5136310540879329 0.2652535490298702 1.228060554327552
0.1340426587870627 -0.2010101416834035 0.06854322663900257
0.5367277896938747 -2.398428061910061 0.3332638297050268
-0.3997755054250247 -1.334562795297509 0.04966176329507893
1.230891031296422 2.0405436931935 0.6865967137234358
1.235338367344756 0.7553496647866225 0.1281042985484382
-0.2558331962519823 1.10455150851217 0.06947919467901523
0.1396742072391691 -1.840105445806795 0.7588124008559066
-0.4868969055707652 -2.295503845556906 0.294520427047404
0.1487543158595805 2.413065006680846 0.8667155806534288
0.01162277338626723 0.8033347558552297 1.135506711586966
1.264838954919445 1.098940243086137 0.0484025267872126
-0.3980279181038557 -1.562117692841554 0.0584965215042048
-0.8780806205665279 0.167840606030092 0.5284060889474351
-0.2543454725843144 -0.9524538451281958 1.023523859852296
0.2601936493646987 1.6853574689718 0.9728345967090797
0.383725720243076 1.61357397994306 0.976981974504908
-0.7166707332813571 -0.7653490867294599 0.07839175496343917
0.9193507939303334 0.657762223366649 1.162252295559333
1.017645047719505 0.5684471284619916 0.06840228975813255
-0.1557153187329682 -2.324558950299223 0.4046927979621295
1.258578252040446 -0.2941459977176104 0.7430567065102911
0.8272931425137708 0.8729568220191218 0.06916974249286645
0.4979753244719866 -2.040375932352986 0.6347202146651005
1.071443729440955 2.01131616696799 0.1549835154940941
-0.8694016179506219 1.229067713913473 0.1429584750621198
-0.2384622533273724 1.702373047140153 0.06965046744395546
-0.1176768195894212 1.253687209518612 1.010900479617693
0.9317772672241805 1.771319827262928 0.0273330202822627
-0.536445438559622 -0.989071080331251 0.9954547438862649
0.8519040883540675 -1.874142224998772 0.7116475798352929
0.9502830850439454 -1.951973255860881 0.08155721128038795
-0.2702297229837158 0.4381005996249432 0.06840836277335034
0.02253810381287767 -2.050613745431074 0.6347202146651163
0.4585737278319028 -2.274969991158984 0.0930406325348639
-0.2093515415924994 2.22868786973295 0.2586953824851789
-0.7134236269942008 1.591804775340946 0.9372049420652717
1.125295322158191 -0.07685260727700413 0.07618969752653156
-0.531057082201813 -1.313930561879543 -0.06628514289951293
-0.2379990225409493 -1.570896521755599 0.06685076161970679
1.270813181765692 -0.1878009063328689 0.3632176197292927
0.6323059816312444 1.726048809485239 0.9705907055984935
0.3404644700626928 -2.377298355494059 0.2836490835204016
-0.528042978467878 -1.697398666165629 0.06628134699192721
-0.479816497582802 1.046587760694487 1.056491962367009
0.3869406860139197 -1.248023930134221 0.8961119515101563
1.13897983211343 -1.971123623691945 0.5964805914196737
0.3870542566937232 1.329796714068427 1.002181969726708
-0.6782335610799156 -1.395996867123217 -0.1068640511264891
1.036087342286495 0.8163919139598453 1.081833065494988
-0.8495008999205123 1.173608849854327 0.8362461721806069
0.8918486138285419 1.681307057801593 0.02862794423498476
-0.8809672550269783 -1.157672590537042 0.3526462161593061
-0.631082394708496 0.771871267066972 0.06850518901729394
0.2562071847918424 2.227313856080177 0.2586953824852055
-0.8596273889041955 1.0971120863907 0.8016843909946808
0.05754530257222244 -2.42397222296735 0.333263829705056
0.6498175431515538 -0.5545623331969299 1.159130417185802
-0.8326825695734144 1.980370662852173 0.7861380743774535
0.4694495688195591 1.110021757044799 0.06947919467901539
1.244389177506535 -1.687973090633617 0.4222684833324302
0.533929196376979 0.7085329136495326 0.06841064054700223
0.4609156107493433 2.295062177123292 0.9750422719111676
1.253847074378602 1.701790753782146 0.7916383326908905
-0.7152428896330001 1.063542498400576 0.03115072682639113
0.8372222427431222 -2.208617908471032 0.09288723529992082
0.5329966194626173 0.3078242535721457 0.06840988102715639
-0.4579664007679469 0.01622212281509878 1.239100481647879
1.268805898299268 -0.6189639192573169 0.5170507328549174
0.1405123280452053 2.200030293363853 0.2188712629075466
-0.8783086011935452 1.489492660061238 0.7072133967715659
1.176970897587635 -1.545232481543244 -0.01072360426150771
0.2864565647878733 1.069372644118069 0.06986198221482498
1.084121065929464 1.447398809657965 -0.1192047248275941
1.119107043931928 -0.9075882030821489 0.07579653951216431
1.265024966654152 0.6702984481651373 0.2444739219668025
-0.8348454875290075 -1.58862506827131 0.7765308874419559
-0.6833583713163469 1.5101385519419 -0.1060221482978431
1.088220982132828 0.5580131475600481 1.035013773270402
0.369700276601187 -2.149586105287208 0.08312963214155569
1.215873454131977 -1.615847411811284 0.1307904577281736
-0.1698788672684521 -0.7984466851828918 0.07042200135420371
1.277179354884607 -1.320545166745417 0.6783159646878666
-0.5128426576889579 -0.305004542388998 0.06869663984256748
0.9746229357731331 1.117377760340367 1.018326394635175
-0.5822300150819882 -1.301199859636634 -0.1126677853005601
-0.8613780299221425 -1.322635674771755 0.252231610396758
-0.5823234619648157 1.590518868408445 -0.07960951036795722
0.1357263580253336 0.8933807352093178 1.115634502143098
0.66907493378599 -0.08008430293978423 0.06845737718262913
0.5650048905895763 2.327522646712797 0.5024361752354294
-0.3411318626474552 -2.288973804796126 0.4045571597940614
0.2528677622879641 2.249837405225112 0.3047521037482953
1.095300998056533 -0.8875216229499094 0.9074707388113349
0.1290027531726127 0.8914051860928923 0.06916974249286845
0.2616027382713891 -1.25260127509359 0.8961119515101775
-0.06128877666352985 -1.706396194035166 0.0747322885350027
1.206363023982988 0.7255968698396331 0.8628634451355139
-0.8174037082061901 -0.3992312897973309 0.1288310867719362
0.6286556136772744 -2.381752007385702 0.3332638297050189
0.5589658131205406 2.423307927638816 0.9356721938822238
-0.3466783488392476 2.118204921610801 0.1646112229671484
1.266308201073953 -0.8936582688963786 0.4352270200934552
-0.7058460535215754 0.7300965910966167 1.006581302405461
-0.8207212859434178 0.04371533151816523 0.1280565895882966
-0.8815698586452365 -1.213031825493032 0.4312969444072939
-0.06081175621739168 1.815557711484882 0.07393522777120577
1.125576759335232 0.2954402817712307 0.07612816558792795
1.189356862246455 -1.690011454883039 0.7621998285284717
-0.06052769967839064 1.517140662686483 0.06298452054673981
0.6520172244309981 -0.6967929031104851 1.115908000639355
-0.1353941222494541 -2.3522441608231 0.2836490835203794
0.9131692489073883 0.4315182118729978 0.06840836277334894
1.263573910112719 -1.488134759397302 0.6824471691664424
0.1519306114525598 -2.400594114312768 0.3654642836936718
-0.0692070586577499 1.138792779240285 0.06828067835854412
-0.5782870746364526 -1.764431644583493 0.7588124008558449
0.927983561941029 -1.588261603703336 -0.004383716900937928
-0.8760638177268829 -0.2941336568044047 0.520499032698861
-0.692921495772904 -1.708362698817032 0.08225140797272491
-0.8589141885505441 -1.370013361784975 0.7814871896784568
0.7952381819245806 -0.4159455792870867 0.06893282972914697
0.03841717394097989 2.250809556893676 0.3047521037482885
0.7967474999049418 -0.1966104855981359 0.06854322663899572
-0.5639433728367045 -1.863573129646798 0.08037695267539136
-0.7168424830519163 1.52938812232754 0.9413676799130937
0.9832174718969018 1.464273921969578 -0.1130907775661031
1.284855869582116 0.9212190630530273 0.7449672465983589
0.9487570514669399 2.182089381118458 0.258178762792852
1.26057379776646 -1.488134759397302 0.4157906499607481
1.140709973732901 0.8477762505765618 0.07711110414297295
-0.2450412923028749 1.299625665363643 0.06159758096021406
-0.8595838164705907 -0.2941459977176104 0.7430567065102911
0.2864907337975871 -1.235864722010313 0.06219687673309036
1.275319817469921 -1.322635674771755 0.51040819455905
0.3605772616289754 2.250809556893675 0.3047521037482884
-0.841350021202372 1.891000533869469 0.7873391290145507
-0.8630242233420885 1.693422162584792 0.6536608495095857
-0.8315741004853802 2.040010871486025 0.5283883948091022
1.250991818617588 -1.619162391130819 0.442478743271349
-0.8387447945231508 -1.213031825493032 0.01688669817066606
-0.2686331228289722 -0.4189116659016066 0.0689328297291481
-0.5136310540879329 0.2652535490298702 1.228060554327552
1.232218415593943 1.020580569344161 0.826211784659089
0.9568718092321394 1.149571272379742 -0.001899680887278214
1.085458875782101 -0.1823706246234167 1.068866972454985
-0.4073809887993212 0.7858674119185241 0.06850518901729426
-0.4763903286255113 -1.000754422819653 0.9954547438862649
-0.8169975839235321 0.7647363095730901 0.8594475014812547
0.353096254504122 -2.286379538084195 0.09304063253486448
0.2874469417845081 1.240910627005888 0.06400802556333957
0.9960088509825372 0.07255329120684316 1.198182346972273
1.060452507406149 -1.929670471730679 0.08642635823683222
1.257248922001683 -1.551087102427221 0.4651110079060264
0.9558319518721353 -1.083257258920268 0.942944242432091
-0.5720130518464932 0.9286799513015014 1.086421708321707
-0.7522859964208347 -2.006710392243313 0.54986848025323
-0.4014699474876883 1.845395673869557 0.07603970500739149
1.201873972607028 2.108279981089152 0.2884249607486566
-0.01949527536314907 -0.8024813977133312 0.07042200135420591
