0.56268453961884 2.502310637578791 0.6871849230787873
1.008169056888136 -0.1768128593975286 0.06849998915599524
0.03529544243452249 -2.217203891935798 0.4035343262122575
-0.1168437540115732 2.320900314062531 0.2182447230327941
-0.7287269631514592 -0.06570403452787364 0.07607335114105902
0.7049584157321873 -2.246434738950518 0.2972997432254064
0.6647990406474535 2.357016879208647 1.220081250285791
-0.5380310673476929 -0.4133698743492936 1.155812295762537
1.184440333686434 -1.558949460818399 0.1263066008983034
-0.1511207071085933 0.04399143201303814 0.06826141140825312
-0.6813049824564141 -1.267697704973656 -0.1065581425831881
-0.8842426322278715 1.285045472985414 0.7820400753407224
-0.3310331092349131 2.20509956142679 1.05223144150646
-0.6232037273064878 -2.084861152881408 0.3551496810134773
0.1007031549938168 1.503663670471111 0.05972183566888584
-0.8709864872265458 -0.4928890880653878 0.4413363990337628
1.250161486674312 -1.030055654370075 0.138706716843402
1.106855130794135 0.9612552451828214 0.9828080733656711
-0.4984844478341305 2.009977112748547 1.152258284495026
0.09856981430359034 -0.9526711679875226 0.06787673411714418
1.268059416979771 0.04885351106755161 0.5246457383884546
1.185252570679745 1.803738308983699 0.8958399050138868
-0.3111531262146445 2.206254566843088 1.100622974323681
-0.8179401766412304 -0.379633264383167 0.1287341551456054
1.295756229667278 1.141308465841117 0.526928952447482
1.224504799794575 2.082348904668585 0.3707299269804267
1.205226024847836 -1.272125121065722 0.8185212935101157
0.753351116800201 1.973559966416581 1.154470455504997
-0.5966028997964983 1.673390991331596 0.9607929383153113
0.2635910165299774 2.088866296858293 0.9698349363710216
-0.5362706196226912 1.890552243149933 0.0272547769035921
0.9767761902747617 2.140767392113139 0.9504331241381488
0.5538049134885758 2.326701182900954 1.267493532950099
-0.07473881241337006 -1.612383007681137 0.07683802594346742
-0.8935990643162578 1.349852378216555 0.3686076471200916
-0.8516027905988586 1.996746899630294 0.6493190342657863
1.182262853018993 -1.476311572758736 0.05833091404946963
0.3441765901783063 -2.308058417225988 0.2972997432254436
-0.8393792915283591 1.813159843431095 0.1533077982338814
1.218100240759374 -1.592140284852649 0.7069248302875637
1.258988860981522 -0.6278108785730132 0.6410330829478865
-0.3854928141343064 2.272627478951173 1.11428199942976
-0.2852474500945321 -1.713330554435149 0.07928192058429678
0.7189206703088616 2.373711373870609 1.274762123405592
-0.880807288676589 1.609531833106263 0.7051889309411129
0.5135708523056751 1.998533868506347 0.9685982126361654
-0.7969668907283872 0.6753927049051793 0.8736547879164556
-0.4107677445488875 1.750028154558002 0.0598275314329682
-0.1714292464477797 2.139988572213565 1.226756059888758
-0.6604965597310214 2.315047375384745 0.3571906820255354
1.224996909017434 1.386763786707035 0.8724682577962942
0.7648089822000401 1.280650900086766 1.023560331136319
1.268406377267853 0.2916631341916181 0.5268934760973948
0.9332816149042893 2.420192248757271 0.6827938213882125
0.9489122120804191 -0.8857030401055306 0.05552109075887427
0.9257369061601524 1.938824795957222 0.05152241480096187
0.3202208330188998 2.410435574501121 1.266332804862219
-0.8760603837268512 -1.140235852755057 0.3518556136183211
-0.6589591598816108 2.004871562781527 1.153559131981933
-0.8234549140311074 0.5415027945595311 0.1276576699954773
-0.008927432428796161 -0.7256796397888933 1.061866039603474
0.1309403434112476 -1.927348502331214 0.6132530186382527
-0.5770756627204204 2.006573988277376 1.152295619639812
-0.8385294466402919 1.844940808966236 0.8455490229985436
-0.5943036145939952 0.9351414611676946 1.11213050934808
0.9117061348963627 0.7801823041503033 1.158925237461358
0.03969656060398818 2.525743760997742 0.9692576549115237
-0.143373022507408 -2.191216828423173 0.2656401144544137
0.6686123137275372 0.7051817125482391 0.06820648167676514
1.24711597799494 -1.13833662000721 0.7510652337407525
-0.8874812933576388 -1.030055654370075 0.4288132034769774
-0.1276725533554386 1.724568319625613 0.9741852703794043
0.2863204408762046 1.707971632929493 0.06750664642972672
0.8003330813019032 0.9078843420033171 0.06830908637697757
1.208066628236694 -0.7759353844301358 0.1339330850375829
0.3212682267930248 2.248536030993749 1.250434510257687
0.3481298559980944 2.525743760997742 0.9692576549115237
0.7636338490334367 2.105530834874371 1.127640512296294
0.2864062355506566 1.892311261534704 0.07035433697395666
0.9296029495482687 -0.551333794855237 1.112713607507728
0.9913258716626626 2.422210447920495 0.8969367400699353
-0.2593656233628941 1.69417123114157 0.06750664642972547
-0.8621411591993216 -0.2723126276302461 0.2442575987828832
1.190622775692879 1.738249030919647 0.8966734379496257
1.13050759542763 -1.239907601195088 0.8380785530012711
0.8541098652670134 0.7877482376035621 1.158925237461358
1.262736797728567 0.04885351106755161 0.3631112491029428
0.1333445606282946 -2.026369435817726 0.08289166563733477
0.2840332536732618 -1.619065181851372 0.07683802594346934
0.5615821437182487 2.529245369167557 0.864234524601876
1.017278432115746 -2.050056364250356 0.4143089431588404
-0.3387907893570311 2.335731390060722 1.198496432994237
-0.571456509593837 1.203037219696713 0.04465924512929695
0.317319789112359 2.114017830443166 1.168907479846455
-0.1420582371046996 1.007157757136529 1.112440891927
1.100742431631379 2.348486685440005 1.231514654638731
-0.5399488350976378 0.135252057178122 1.234468622665152
0.8091968696518301 -1.035699300157621 0.05623258652969651
-0.7795473232935753 1.995979846944484 1.183377067343606
-0.5817604535973295 -1.339847649019931 -0.08230579394973414
0.9748484327005162 -2.039784294372656 0.1209097693569087
1.203043502647916 2.220232400075601 0.6829258192308965
0.1239403410567256 -0.411891628834909 0.06906424040850208
0.9458509073334778 -0.2953112403291258 1.182793631871948
-0.8286477382577658 2.153945574755173 0.3719413482150858
0.3566621479929357 2.41516545690853 0.4209202638602199
1.115800501469131 2.323492891800721 1.261364613948995
1.093185324517713 1.839311649722237 0.9318200815455502
-0.420332325041108 2.227805158977365 1.148244334386274
1.028325688726118 2.224600546911309 1.19818782377328
1.085096988336501 -0.4868297791564065 0.9822527535030403
1.245680800003561 1.905198161587128 0.7330674898211145
1.232469319949795 -1.622495090608286 0.5418300694162856
-0.8463401584445744 -1.030055654370075 0.02416429454837792
-0.3688822183250019 2.111883735942174 1.02545340686822
-0.4988950020233865 1.855923074375925 0.03936174050017283
1.145028544169356 2.297325737949114 0.7254170080802762
0.5298846537067024 1.007157757136529 1.112440891927
-0.002383970793573081 -1.354418002324474 0.8358195761044794
0.9498652156123466 -0.4115318582935468 1.152975791085138
-0.6916807428337013 1.502971583172696 -0.121852602647514
-0.6724300923175721 1.993322094625212 1.191330278068407
-0.1727961935983159 2.052722608081933 1.207414980332076
0.8003330813019032 0.9078843420033171 0.06830908637697757
0.7222601330941532 2.315210724820424 1.122072751919688
-0.2870276892418817 2.064640656015305 1.157467035343416
1.216474154859748 2.153945574755173 0.3719413482150858
-0.3624641235378721 2.383403490936523 0.9686530714326529
-0.4713319923377251 -1.143577041748903 0.8548721088374158
0.7890213723693726 2.333869789344399 0.9743248572836422
1.291344571231652 1.281459922854515 0.6039526542182768
0.5304648705728432 1.097923319242213 1.083092253347797
-0.6158644278150587 -0.509087855424148 0.06953214342867345
1.204258626686783 -1.774234484583753 0.3728731977148614
0.7374006553410947 2.317090541243284 1.123792317867185
-0.8751867748709256 -0.3777777742293326 0.5893887468976446
0.4262288513601046 -0.6755069580908405 0.07022041165567269
-0.7766168332046879 2.067822869800411 0.8956632495015657
0.09984074074641969 -0.9160001336173014 0.06975600778602431
-0.849045287701908 1.670531398277125 0.1453991424745756
0.9189823475923764 0.9406888992262014 0.06864342302370499
-0.8884361303464369 1.484122715212833 0.4497063219330645
1.09716206710629 2.363707776678019 1.262052040428979
-0.3404646076653982 2.514510550568982 0.956239461321254
0.891335390598956 2.365977401489516 0.4209202638602017
0.1223384518913837 0.9405473150767747 0.06842403237723477
-0.6131929998771988 -0.2420935562647082 1.153819791238447
1.255516517842753 -1.140235852755057 0.2528788933385884
-0.5588306640756102 0.4805147914689056 1.20828952422836
-0.8162670685709159 1.287594797241105 -0.03644623082590786
0.2572653634973615 2.31812307974849 0.2182447230328107
0.8568133836796459 -1.523116121887646 0.7837946643605442
-0.4434958158542648 -1.637253342214856 0.07766981678789348
-0.7096605404716179 2.355594436580579 1.26466552268515
0.8125720903642695 -0.9916711140463341 0.05946622828731015
0.641168981044476 -1.221580774744622 0.8468621084575168
0.7617824435743983 -1.042511481882533 0.9076374092108044
1.264005678572443 1.670532705290021 0.6548144012672138
1.188976940943727 -1.773493519395148 0.192015150075331
-0.5343950407770884 -0.2956865933750275 1.185195205321463
-0.1230338802697426 -1.625759056502425 0.7589944732807968
1.020006283916223 1.150283017080733 0.05793536230523325
0.9835956671143584 -1.060143105810261 -0.08404114954540537
0.9967428281464212 -0.1389322650074834 1.172911007664264
-0.6838846462854715 2.346980374168333 0.5845685239398241
-0.2869833116034016 -0.5252955356333154 0.06953214342867477
0.9218886443238255 -1.501268220379076 0.01801746768414488
-0.08202634432276967 -1.220030115755162 0.06107936055239249
0.6691694510985838 2.158462978177505 0.9856259446791957
-0.8447364767221727 -1.622495090608287 0.5918561860498126
-0.3509454421390774 2.319772481394798 1.037351377191265
-0.09113860273199317 1.259315163241372 0.06808521840141085
1.268059416979771 0.04885351106755161 0.5246457383884546
-0.8788297465375756 -1.194546516035415 0.5089471023990527
-0.824325767293739 -1.656524273405221 0.6740496843916048
-0.7194482776372861 1.048313564712342 0.960605350836601
-0.662242907715884 2.3602007480169 0.6401788049788163
0.8882700470871806 -2.140072337619191 0.3709397719225811
0.2599942095488173 -1.299514469802365 0.8428871262005487
-0.8671354347477839 1.417988055745521 0.1413449730546543
-0.7827512074297047 2.059157774316346 0.1784462166830794
0.721900777850777 2.31795469927124 1.030074688259669
0.404251081568867 0.8339659534107667 0.06821480856070564
1.280738013904592 1.417988055745521 0.4496595953118003
-0.5775571655609465 0.979562680465962 1.107591472326334
0.9467296596337016 2.200341982597278 0.1642308708058019
-0.4028860115482358 -0.07173501706115351 0.06834701511235733
1.140905009222698 -1.904020558497032 0.5004858070507586
0.737048454048262 2.126085608667707 1.019927024646424
1.27768297149066 1.484122715212833 0.5269868327950976
-0.2645153474705089 1.184285133849359 1.053556935528203
-0.4272954919449429 2.315787117938453 1.265137025578539
1.280060922478202 1.35350339088948 0.7764511594799651
-0.859432088531129 1.902541679314648 0.6504404216674701
-0.8233848226113376 0.1678931801219965 0.1276900153814599
-0.8621795531399759 1.218274486268751 0.7993894929288563
1.222799104569043 -1.686865908738775 0.3910893447054578
-0.01582521517812222 0.1699081717954209 0.06822352325369722
0.7504643294512284 1.705428936508972 0.9741852703793891
-0.1540021978266 1.983216416430078 1.156558969674161
-0.1334827831266232 1.443140533857824 0.9993131282102955
-0.6736360836202138 2.112089458778422 1.218880702759418
1.11564491586839 -0.1732122313874439 0.07623494352565301
-0.2267370001716726 -2.190222741899765 0.1806805087735124
1.149610789116657 2.359621985648958 1.254659120335003
0.87128232333847 1.167894791275867 1.053467653314432
0.3933968604265274 1.38002221246074 1.008006680534833
-0.0819312055575772 1.636405562496405 0.06280422134670136
0.874928214280139 2.113232244892188 0.1289507409246698
0.002374040331450153 -1.702996292813771 0.7288987001679866
-0.447798259635825 2.441704919180329 0.6387945590695473
-0.2670024763963042 -1.041959888732011 0.06456291183570739
-0.3595025287984658 1.769805317898437 0.9700497648482351
0.7586486188899141 1.498790917989454 0.9907885603427069
1.26639534771878 -0.1689886832340012 0.5190090545518222
-0.2513701060237301 0.6564646179249767 1.187938768592587
0.6647990406474535 2.357016879208647 1.220081250285791
-0.8286477382577658 2.153945574755173 0.3719413482150858
-0.4845375299167268 2.354958736873046 1.227234360251575
-0.2533479973198217 2.017081454744321 0.08634161748041264
0.2585273073535478 -1.641317816707094 0.7589944732808251
0.5549084973776821 2.136122348336199 0.1289507409246752
-0.81328179494566 2.260436877595201 0.4388855535374445
0.9435383842115117 1.333930194886449 0.9996364729947436
0.2601600892181439 1.600268982728643 0.9839273574241925
-0.13433175771473 1.373824847454336 1.008006680534816
-0.7634330027243398 2.210083867419265 0.2207084129874021
0.8973739162641216 1.98041786399597 1.150003119933592
0.3758800896897528 -2.054713945962801 0.5288460786208269
0.799777980019327 -1.526189447562983 0.0670805915675136
0.9004111208642864 2.464235985588247 0.9166950993301168
-0.2483678637091411 1.716095717704463 0.9741852703793946
0.1439169392106722 -2.224333443137612 0.2656401144544406
-0.01582521517812222 0.1699081717954209 0.06822352325369722
0.6468038796212533 -1.270725166356987 0.06156078706798388
1.25767034335541 -0.7667970989173149 0.4339811412191419
-0.5077976238013797 2.238719649076161 1.248350963914014
-0.5349465828700719 1.841600982832594 0.002264616197418902
-0.9049721785253755 1.04317113715775 0.6731330754876377
1.272679776316252 -0.976384721711957 0.351859681052952
0.9451485243866471 0.3567006993433136 1.222072987864059
0.2890055837773126 1.304524722594536 0.06620093286112505
1.05878424625134 2.163931642837006 1.230186798938677
-0.124643977637047 -1.558381671358891 0.7837946643605585
-0.5187280902406803 -0.952641279443124 0.04189502065275619
-0.5546438851770619 2.225285812315394 1.190860644833115
0.711799531591349 -2.199244328984589 0.3643910573308388
1.263659047914596 -1.248254321023782 0.5695797391322157
-0.8743011768057681 -1.13815132900742 0.6946184466303033
0.2624056887026983 1.014882688017891 1.112440891927038
-0.3162908169822077 -2.17080574544481 0.1265296560065172
0.3443471293422092 -2.308292266978177 0.3105480989668007
0.9493161458798612 -1.009195425526132 0.9115870590684124
-0.1334827831266232 1.443140533857824 0.9993131282102955
0.3150636449644403 2.337971874375662 1.217050720825137
1.260152771169921 -1.194546516035415 0.3511738676254935
1.003690844417042 -0.509087855424148 0.06953214342867345
0.3876228801727875 1.930052545043979 0.9676669401623638
-0.5623540481978181 0.001412352706500534 1.224142310971693
-0.8536731970905127 1.902188675448032 0.3696039121053406
-0.3339579772057384 2.495320781379195 0.9666618726762484
0.7996846767579856 1.620970107110887 0.05110137637790303
0.8077203106081643 1.175481364041052 0.06892596059959116
-0.7426811788256472 -1.239907601195088 0.8380785530012712
-0.6258212930362841 -1.173620920830167 0.8511052111944425
1.188370546043998 1.99838309048508 1.168238889121011
1.259752219125084 1.349852378216554 0.1425492427861786
1.004657927022012 -0.3475182693570715 1.128840898711645
1.114245482876499 -0.2779782643457893 0.07646819277855763
-0.3769825655980572 1.280650900086766 1.023560331136319
-0.7807623598228913 -1.416506118207367 -0.01069290692106447
-0.385011027063734 -0.8096211165650663 0.0703878263720583
0.3481298559980944 2.525743760997742 0.9692576549115237
1.24863699733392 -1.422343979680416 0.4637795832650741
-0.3819659409339491 2.084038247461671 1.147563556480573
0.8261623987962152 2.374755499629512 1.235794622860055
0.8636622790084637 2.226607022525486 1.176326714730183
1.253050373456476 1.813119066358329 0.6920601139159318
0.1289708683699833 -1.573344592677286 0.7837946643605757
0.7197720903041041 2.056161811564805 0.9757097237188841
-0.8170469429984898 0.8712288946871952 0.8581053898564002
-0.4024643621504812 2.223689223275776 1.052935052100146
0.9967428281464212 -0.1389322650074834 1.172911007664264
-0.3848038339069381 2.117869392975087 1.095198791754696
-0.8188690920854146 2.135831339293937 0.2771104940622118
-0.8778460390783109 -0.8681913459939027 0.5820933863112494
0.2601600892181439 1.600268982728643 0.9839273574241925
0.1237900249341363 -0.2993912587489018 0.06873550292649398
1.273288890087649 0.8515441151165157 0.363901870399542
-0.4778018341262506 1.270419917060836 1.022935355639994
0.7831149312643917 2.379786978491124 1.236882840049564
-0.445919421109258 2.384207232676761 1.243789434326842
0.09882083282486977 1.304524722594536 0.06620093286112505
0.4072808654321531 0.9374708960036841 0.06842403237723303
-0.3250127989799115 2.354126874294189 0.9808128191559907
0.3481298559980944 2.525743760997742 0.9692576549115237
0.1233548010649395 0.8366462467952506 0.06821480856070741
-0.875572718005443 1.363056114533734 0.8233365624311565
-0.8184019018426243 -1.769082102443561 0.5782809273757452
1.010043659506525 -0.5974797797659622 1.050281142668291
1.163653450996274 2.001724547939497 1.161471805936407
1.263446046389558 -0.8681913459939026 0.4310444435561422
1.14130685616774 1.860816545577433 0.02498789539507718
1.22470887210651 -1.140235852755057 0.01279446652372603
-0.857418471222281 1.821222203276443 0.789372192425554
0.517260283078247 1.657286318421448 0.9788264403421031
0.259761626784455 -1.360112913830506 0.8358195761044914
-0.7351961155330481 1.994920109336262 1.188600757337952
1.217802433051394 1.734633673132699 0.03997095489329502
1.032296773270548 2.349581403296457 1.228599782862001
-0.7840753457769271 -1.199365444603015 -0.08013130533869764
-0.08223254363804985 1.933903066781931 0.07372358112682252
-0.6922664994695768 0.6807187695912405 1.032050947583559
-0.5811889999222737 1.866235141257047 0.9541421456694236
-0.3499634297666979 2.384773153148804 1.237961258765338
0.9055352887018391 0.2973242141505742 0.06821405121505239
1.255022800623721 -1.359571843739324 0.6218806150072248
1.222645181603587 -1.420603234917083 0.133948177057339
-0.9051055589245493 1.043395177998702 0.6039152805626579
1.273526979898064 -0.9272984994555025 0.6357891606979347
1.271779324306223 0.7924400907272313 0.6036322447500819
0.958236775486681 1.138268695642203 1.05266269570563
0.2895346075945094 1.263623318488472 0.06808521840141106
-0.892877140112977 1.216645299369024 0.2621536711298182
0.3445012489778978 -2.291608565727713 0.3323098301925401
-0.8097368696401779 2.193308722191823 0.8426110318511226
0.3205786564213444 2.382731342435962 1.23365076490163
1.224545679358231 1.987921802964903 0.2670238898422598
0.8420758189160971 2.419838606274449 0.9598188957560228
1.272480603503339 1.484122715212833 0.3688592311863023
-0.8004172554370855 2.301941232295987 1.233972972620925
1.253344081660916 1.812877567969921 0.5985983637694845
-0.8004064410577951 1.226637077776786 0.869096700856276
0.7707837615044709 1.177203064781291 1.053556935528195
-0.4248704158713247 1.344079400080863 0.05564443506572651
0.7471670683714493 -2.097270538844696 0.09274370322216496
1.254891937790256 1.609519596446781 0.2666241885126558
-0.1652968629415633 2.39951539723517 1.272688708265176
-0.4203309369434544 1.412761970800678 0.05147947606331781
0.4620623102612667 2.494311132031089 0.6387945590695697
0.06490744887955471 1.996496443352999 1.190343187253617
1.188232857659778 1.226637077776785 0.869096700856276
-0.6436669721358235 2.173135081526754 1.186998868278772
-0.8540180534166298 1.639294506262082 0.852015457689161
0.549586053735319 2.472396598891657 0.9724539791905693
-0.3342842626675628 2.337757583403639 0.2579548422681358
0.8081908517770867 2.263129244378798 1.01305923088157
0.9734026723715326 -1.17317206296652 -0.1123452630143943
-0.8935396305912642 1.142574409446701 0.2570995700653282
-0.5843389699393727 -0.5639973186905996 1.095299173084461
0.7424364282992104 -1.604593332338904 0.7589944732807756
1.29491554511773 1.215857998771596 0.6735853912488899
-0.5317477824656758 -1.073225431528277 0.879584437229108
1.116553379753442 -0.06570403452787363 0.07607335114105901
-0.88049056093475 -1.140235852755057 0.4326285964353764
0.654521721180823 2.330968254289076 0.9848962093554493
0.3865155936535305 2.349807745639205 0.9718519816602941
1.251341339672297 0.414958484957226 0.750872022104766
0.6803890879214868 0.9530809628839607 0.06864342302370585
-0.165045202659897 -2.193057946490012 0.4035343262122374
-0.839537189440428 -1.488977853172864 0.2245891090968899
1.258812903828529 -0.4928890880653878 0.4413363990337629
0.02303331451268125 2.368792501549855 0.303879721771909
-0.5532017976128471 2.300145929961983 0.2574397014489793
-0.844308941603962 1.735651612861746 0.1484933834096948
0.5936025283847926 -1.658816757117257 0.07835534241119035
-0.7707752772257792 -1.078593195236393 0.8362939697337513
-0.3700382551513484 -0.08677504293432455 1.221691731588695
0.9549864931945857 -0.1045336963194278 1.212696718832859
0.2865470460362564 1.940194645463046 0.07372358112682273
1.237116662649997 1.417988055745521 0.01512404801125516
0.5696218112405176 2.390297891958751 0.3570871144970596
-0.8709174003411671 -1.302710581349692 0.497913338294794
1.229183153779943 -1.085256418233634 0.01683835838582637
1.089122526800553 -0.9207515453865066 0.8562750754884643
0.1309403434112476 -1.927348502331214 0.6132530186382527
1.253050373456476 1.813119066358329 0.6920601139159318
0.4072808654321531 0.9374708960036841 0.06842403237723303
-0.8125836216489364 2.028590612049097 1.183253346897911
1.278335117742494 -0.9763847217119571 0.5060056005054696
-0.7295153421952563 0.4188975436854063 0.07591024144979457
0.142824750904181 -2.268754995298494 0.3644181073090518
-0.8622599353750809 -1.084206654097256 0.7056477399075762
1.008927545952573 1.220248363511727 0.00551251122754655
0.1011208010118122 1.574209949554828 0.05974662150324656
-0.8771327912540493 -1.24745911381635 0.7109770021112228
-0.8554549899822539 1.349852378216554 0.02292173457041937
-0.4984844478341305 2.009977112748547 1.152258284495026
-0.4727726925667071 -1.200439558721976 0.8473731076614076
0.7377898463686807 2.384773153148805 1.237961258765338
0.1097054766599404 2.069270735155474 0.1041682122432994
-0.7984509245298628 -0.868003789429901 0.7657058792929858
-0.5362706196226912 1.890552243149933 0.0272547769035921
1.115275990735125 2.003952827256722 1.156500850219472
0.1407044506721316 -2.226200787347914 0.4035343262122658
-0.5061673489369784 -1.08199751294212 0.01333619023497046
0.0443697358633142 -2.24508982440434 0.2828371109530712
1.009428924358738 0.04666174318488982 0.06826141140824996
-0.8170469429984898 0.8712288946871952 0.8581053898564002
-0.151205707226993 0.1697277568185244 0.06822352325369507
0.5140979770195508 -1.485596490622153 0.8064176354273948
0.4693834397840473 1.701969387477655 0.06750664642972618
-0.4480196420660355 -1.867698762515671 0.6127517051009903
1.196853634789177 -1.744378346695367 0.6248546844166006
0.2649479234929064 0.8994341689849875 0.06825076484712578
-0.5030359285748768 2.34883874709331 1.270432696707208
-0.5311559309903935 0.9406888992262014 0.06864342302370499
1.15745571724966 2.28261657713117 0.3598790653006056
0.2471219659300508 -2.226200787347914 0.4035343262122658
0.2863138299335301 1.835940535666886 0.06945108633486094
0.763323415457097 -0.987542919489722 0.9405202823625768
-0.8998493174281713 0.911980112613849 0.6721499607225305
-0.8671908017021729 -1.359571843739324 0.5826701777586976
0.03969656060398818 2.525743760997742 0.9692576549115237
-0.8751452862067234 -0.3777777742293326 0.6494127385329549
1.168871518819992 -1.362692865808843 -0.03495554778840559
0.5538049134885758 2.326701182900954 1.267493532950099
0.127832207053166 -1.299514469802365 0.8428871262005486
-0.8796226182951246 -0.06296032040694495 0.5217202114539762
-0.6218925954028571 0.6911228822272432 0.06820648167676383
-0.4151718500768719 2.340804327700404 1.216667670179991
0.8420319373216222 -1.840807546862721 0.08132133299947351
-0.07388577978177165 2.416258271515472 0.4209202638602125
-0.5345498102926574 -1.185866322359497 -0.06609539535304486
-0.4725603618748427 -1.032020870868395 0.9081484084147079
-0.8978884930644064 1.281490170702507 0.3683738548022336
0.6748541058438645 2.064640656015305 1.157467035343416
-0.5487653761695703 2.270529951673781 1.201877388018736
-0.8436572154864264 1.765791366004856 0.8468484128843463
1.295987046884535 1.1412337855608 0.6735308214934782
-0.7099330859087532 -1.185013154814297 0.8467859939129427
-0.253342564442493 -1.221580774744622 0.8468621084575168
-0.1319486110710734 -0.08945876787927393 1.221691731588752
-0.1322375915868197 2.18138348792035 0.9707999285798641
-0.7023139462682468 -0.9934812224148212 -0.06451909262798469
-0.008133861917237795 0.9865630017372612 1.118248262255426
0.8859369671295601 1.800718688911375 0.02854599401293804
0.03638618227789273 2.47398823810724 0.9724585664058638
-0.2651233547025966 -0.7168535185162597 1.061866039603395
-0.8233170521172673 -1.417300131344614 0.04727019591865224
0.7282910242673812 2.514510550568982 0.9562394613212539
-0.4444077585939226 2.477773307064318 0.8463018830955446
-0.3889436188746385 2.38766256650424 0.4209202638602018
-0.87426381962574 1.670531398277125 0.4498545341204119
-0.5822424208759836 -0.8666779289413754 0.9733196987501916
-0.7764946748316256 1.971589619937925 1.170231332392323
0.3914914551273604 0.8050102907117069 1.158925237461415
0.06490744887955473 1.979241886562446 1.180660767201419
-0.01784456099816034 0.8965144949153469 0.06825076484712382
-0.3998471189689553 2.020192561639564 1.15386763999215
0.9967428281464212 -0.1389322650074834 1.172911007664264
-0.8256864813113419 -1.358563074072164 0.03515752406182575
0.6089057707679293 1.09307711316108 0.0694017434175713
0.9844905828210031 1.950606245931657 1.174267158289986
1.231507911892593 -1.302710581349692 0.1352658557634684
1.046061537825322 2.265112220295122 0.9323831837634011
1.271885627069619 -1.085256418233634 0.4300623157496394
0.2589861922300437 2.349082634952683 0.9718549636751543
-0.5860113262186601 -1.569163438582316 0.7589944732807735
-0.2701358113873535 2.492341403666509 0.687184923078778
0.861225867518257 -1.381216684199818 0.8240715961344362
-0.263378823410566 -0.5703307653159815 1.112713607507752
0.5644463291102908 2.414711931961983 0.4209202638602063
1.244234204500804 -1.490224396374366 0.5431816619337211
1.266656163139559 -1.194546516035415 0.5089471023990528
0.2544818559738413 -2.026369435817726 0.08289166563733477
-0.8929115973026094 1.417988055745521 0.4496595953118003
-0.8723344740821056 -0.4928890880653878 0.5155706257952182
-0.3700382551513484 -0.08677504293432455 1.221691731588695
-0.6632347694541083 -1.976915141660128 0.4949990914592964
0.6371753369700604 0.26558855131042 1.233274076325563
-0.8704975840859915 1.735595157769512 0.5270420567308629
-0.3556075388041465 2.132094127359786 1.058240922605011
0.9790093786549829 -1.118175086756827 0.8632128150660735
0.9524146742128068 2.151674282181457 0.1489837941753157
0.9224733607637579 1.99099055043122 0.07541596726036388
1.250017396919209 -1.422343979680416 0.6043961775727815
-0.8366783831925921 2.082348904668585 0.3707299269804267
0.8081908517770867 2.263129244378798 1.01305923088157
-0.6161161611075917 -0.64749810973724 0.07022041165566725
0.8794034486690698 1.005337960414404 1.107613651970703
-0.4383359821942325 2.374755499629512 1.235794622860055
-0.1542396958863682 2.004965461285178 1.155312317898245
0.5988595200835194 2.206862977855279 0.9746657737127784
-0.4721489412142084 0.9046256788064725 1.132256215275126
-0.8761792619704607 1.670532705290021 0.6548144012672138
0.8147514497067371 -1.999847196952535 0.5283086984460204
1.238355390565571 -1.558838118683931 0.6159762364072798
0.4755160231279795 -1.003349250367408 0.06619105879148689
-0.8121994415928154 2.187085878302697 0.2817941257961234
-0.5873599972861663 -1.516989114613535 0.03170834550992602
-0.2420956110373704 1.989856501752951 0.9685869915857005
-0.8720297891284897 -0.766797098917315 0.6377629747418022
-0.7908455170470861 2.066653462314152 1.199755068967369
1.264959207856032 -1.24745911381635 0.7109770021112227
0.9632149561682001 1.050324504238014 1.083311722515442
-0.871932439700611 -1.302502128974928 0.6377839030320749
0.2864778759194662 -1.225210708883983 0.06107936055239459
0.5444226966865434 -0.5288234076195932 0.06953214342867664
1.000511664028916 1.314450700432028 0.985585803054289
0.8930667202685785 2.200795989959683 0.9720883374097804
-0.3435038284941557 2.314238186962191 1.075369247201866
1.250410382841453 1.742020796838032 0.7916646204686293
0.6238840877943371 -1.774092524248223 0.683109984402362
0.1277259387242554 -1.808304608445643 0.08014686597880964
-0.4636139253939939 1.952120384947549 1.157924222479331
-0.008133861917237795 0.9865630017372612 1.118248262255426
-0.365208018034098 2.313648278196285 1.036620219205925
-0.2647154554228474 -0.8252002906345622 1.020593925138977
-0.3404646076653982 2.514510550568982 0.956239461321254
-0.8416647922626391 -1.622495090608286 0.4050308113634838
-0.6278993251533043 1.19308636151695 0.03523923364950289
-0.385011027063734 -0.8096211165650663 0.0703878263720583
1.262990447699936 0.167769290989094 0.3637375489094392
-0.2701358113873535 2.504292589071548 0.7647165240250823
1.180939285077991 -1.560870647921189 0.7403428370846223
1.21114346871925 -1.417300131344614 0.04727019591865223
0.5491508610785086 2.543549506082834 0.9595529029735943
-0.2803522970567342 -0.07312864698476729 0.06834701511235838
-0.7096605404716179 2.355594436580579 1.26466552268515
-0.6080917906245194 0.7043406658659764 1.133562677017934
-0.6048484525915583 -0.0334255181246049 1.186088543028102
-0.5034283871340786 2.328597579881279 1.26755492273149
1.258812423220915 1.735595157769511 0.6529813289834656
1.239391898833003 1.913766191178035 0.7869655164523297
1.262584987005117 -0.3777777742293326 0.5162834997247817
0.1392498718547473 2.515374524480468 0.7647165240251515
0.4621510528181259 2.446916197063758 0.5009979037414415
0.9448821196757907 0.2322527062731338 1.229142750183204
-0.8216062305482789 -0.1700866350774658 0.1282442727088071
0.6961381684676493 2.259104471358785 1.10782622598627
-0.5027955810528422 2.37540930517507 1.266848018842262
-0.5152992942609493 -0.2868535249083321 0.06873550292648692
-0.4385637687309962 -0.6617981831754102 0.0702204116556675
0.8056243353293693 -1.090247111902289 0.05228308581417802
-0.8751452862067234 -0.3777777742293326 0.6494127385329549
0.1266211292413454 -0.9564697838117856 0.9679912013469035
0.4750914619157247 2.370115892570005 0.3038797217718996
-0.8752274435907961 0.2916631341916181 0.3638941238610633
-0.3428017074797411 2.323343737998918 1.166226054993158
-0.8810665024643106 1.609521230212901 0.6004629955034261
-0.8416647922626391 -1.622495090608286 0.4050308113634838
0.5198048975656985 2.156923412543712 1.164670166037311
0.9961985338827044 -2.031212909447516 0.1779985530011405
-0.8413567371779608 -1.085256418233634 0.01683835838582637
1.241502140533209 -1.187393286881208 0.7898237412198963
-0.4657195236766611 2.171277699034771 0.1489837941753158
0.5592556630497626 2.139988572213566 1.226756059888758
-0.1322375915868197 2.18138348792035 0.9707999285798641
-0.2645153474705089 1.184285133849359 1.053556935528203
-0.5485843993168329 1.393418482588646 -0.04795325584426629
0.8337458377112408 2.384207232676762 1.243789434326842
1.024107732016872 2.324498820131479 0.9343202234396264
0.7217843938077214 2.495320781379195 0.9666618726762484
0.6525418720248301 -0.8252002906345624 1.020593925138977
-0.691326739087925 -1.05446388574731 0.8841652526957555
-0.890333151944802 1.48412726805076 0.6031576028302886
0.9712115441819631 2.344924343127597 1.269243435270438
0.2450016656980014 -2.268754995298494 0.3644181073090518
0.8313222324562477 -1.637253342214856 0.07766981678789348
0.7155959132202163 2.258455076934066 1.056901648976954
-0.571456509593837 1.203037219696713 0.04465924512929695
-0.3739560269724155 -1.042511481882533 0.9076374092108046
-0.6685432620381459 1.968706227506786 1.18286610601223
0.3229189677224281 1.979241886562446 1.180660767201419
-0.1469156968665084 2.395371207967933 1.240253424895168
0.8110915903011902 -0.9012585656377971 0.06847075047436016
-0.4385637687309962 -0.6617981831754102 0.0702204116556675
0.6408297717533076 1.579670502210053 0.9839273574241609
0.3579656092674003 2.390498051725604 0.3570871144970745
0.3967538490308787 -0.7256796397888933 1.061866039603474
0.3901470683535169 0.529627131614004 1.209540280025333
0.9706306640628415 -1.228886952965124 -0.1118638364988002
-0.3602925151639085 2.473936580035311 0.6868395361451167
-0.9070891285157473 1.215857998771596 0.6735853912488899
1.27768297149066 1.484122715212833 0.5269868327950976
0.1435342056241176 -2.239211807428957 0.126704330960272
1.149119891892528 2.347943791768405 1.236850128558161
0.9733757543514179 2.298312697404183 1.260985363399015
-0.8165162813883791 2.122588232179012 0.8428520464736217
0.8205213884640137 1.247752899059841 0.06389336493644901
-0.9034582261879652 1.281463778771575 0.6732658388853596
0.7979898828430838 -1.432976880379896 0.05832906962966975
1.263471980603072 -0.2723126276302461 0.4422508796758989
1.253078766768496 -0.6285118865747577 0.3581262351852538
1.244392222845122 -1.416231512728363 0.7350911313142353
-0.6048484525915583 -0.0334255181246049 1.186088543028102
-0.3162908169822077 -2.17080574544481 0.1265296560065172
-0.4103335479921816 -1.263246284615068 0.05000102827452289
0.7680498224979763 -0.8826514088463204 0.9926051596957547
-0.1817953946385346 2.390297891958751 0.3570871144970595
-0.2701579699834719 2.482447033208298 0.6387945590695492
0.5168054388829959 0.140624592077787 1.235553438284438
0.861225867518257 -1.381216684199818 0.8240715961344362
-0.6436669721358235 2.173135081526754 1.186998868278772
-0.0743127155942756 2.476498954232212 0.5814402179697553
0.7306281240817241 2.323343737998918 1.166226054993158
1.083989521165016 -0.3717258732548804 1.010563579024128
-0.4011949557673897 2.333869789344399 0.974324857283642
1.254961851349767 1.417988055745521 0.1413449730546543
0.323200389328233 1.986443036304882 1.157256828754632
0.5090857400395807 -1.693864219715194 0.7288987001679677
-0.8184019018426243 -1.769082102443561 0.5782809273757452
-0.657372738211117 -1.229128952461351 0.8428417931084327
-0.8251088037119934 2.033484356439435 0.8433847584991687
-0.6379708234563782 2.304574522908033 1.21627581348552
-0.6699238181584768 2.17831052654856 0.1694050226449648
-0.9035181546296691 1.281459922854515 0.6039526542182768
-0.2705271612320033 1.044008396603603 1.099387777962435
0.5119302208739416 1.854173685158763 0.9678122970901102
-0.6695570962185975 1.947933695169192 1.157371564716117
0.1393186372634213 2.414324316872151 0.4209202638602255
1.264107903524717 1.484122715212833 0.2660425395673521
0.1277259387242554 -1.808304608445643 0.08014686597880964
0.3827689111560967 2.319330989654761 0.2182447230328035
-0.8502949240427994 -1.558838118683931 0.5224631944798429
-0.8513715678410146 -1.359390832873834 0.2394423597628999
-0.7093356505043071 2.363707776678019 1.262052040428979
-0.5704103588846982 1.138268695642203 1.05266269570563
0.6551774043057885 2.157482509176282 1.137906456590303
1.257331422626953 -0.3777777742293326 0.3615364620115448
1.224825029486394 -1.686865908738775 0.4437846171879209
1.05775023476046 2.17831052654856 0.1694050226449648
0.9053164222401884 0.04581699298888757 0.06826141140824997
-0.4097326021738468 -1.377005150166466 0.05401844140984911
1.258441697399495 1.735643457447193 0.694218339825149
-0.8653057234181389 1.735595157769511 0.3694398805777777
-0.4627904953317208 2.319764509847518 0.9650191058179936
0.2604184835827576 -1.182298775656532 0.8538501104296972
0.6686123137275372 0.7051817125482391 0.06820648167676514
-0.7099330859087532 -1.185013154814297 0.8467859939129427
1.063097638774678 2.025463572651745 1.199703670679591
0.2627576601957607 1.056976540150451 1.099387777962497
-0.5254524365772724 1.240243020402121 0.0471242676258066
-0.409713713479459 -1.319894528748089 0.0511830375803953
-0.8036434771803044 -0.981255533091465 -0.03733246682969799
1.258767404913774 1.735595157769511 0.5988941515234701
-0.2776639176520313 2.375399504348083 1.231153881997168
-0.7805007604230743 2.262985126052401 1.242572967916338
1.224545679358231 1.987921802964903 0.2670238898422598
-0.5839034468113079 2.185186822830019 0.9508771076735028
-0.1337922505242688 -0.1985712008868917 1.206252871181387
-0.534198167603291 2.342229864047827 0.3569659136989087
1.171273288407816 -1.627481963096611 0.1234204930859637
1.031493388737806 2.173135081526754 1.186998868278772
0.1273893704252629 1.527633732442879 0.990788560342752
0.9222376986844932 1.786693108093161 -0.02052563906225936
1.25256402961978 -0.06296032040694495 0.2439928595783113
1.015725741755287 1.19308636151695 0.03523923364950288
0.6463669275766517 -1.385093100180496 0.06375418783429206
0.8514403419959766 1.952120384947549 1.157924222479331
0.9220388311424368 1.725584432943406 -0.03960520047461598
0.7643962740958523 2.115456171251182 1.06047896961582
0.748039706587767 -1.466116950111836 0.8064176354273868
-0.8727842785262586 -0.4928890880653877 0.587678630423713
0.9492420373003234 0.6053231750921361 1.187415009990666
0.9833263540660107 1.451195879626007 -0.1075934416545086
1.27303032846905 1.349852378216554 0.2654797792698899
-0.07473881241337006 -1.612383007681137 0.07683802594346742
1.175616362584319 1.614874511229371 -0.07045074278735267
-0.8231438242880593 0.04854594442578391 0.1278143844449352
-0.9011038003652641 0.9573574514319019 0.6726295497471906
1.207903158358928 -0.2737854642240851 0.1284622954930089
1.087152664774109 -0.7606780197054253 0.9048730172307682
0.9767761902747617 2.140767392113139 0.9504331241381488
-0.5841177271680591 2.031667872676836 0.1011296544848187
1.253132140020122 1.735595157769511 0.3694398805777777
0.259739307743152 0.1406865043531394 1.235553438284506
0.654521721180823 2.330968254289076 0.9848962093554493
1.273463387725728 1.547895281903056 0.7160631892198028
0.7565823267336219 1.966631713745592 1.177933416615355
-0.2601378786343042 -1.21329945546205 0.06107936055238977
0.4802890247701713 1.230639764960166 0.06928030385455256
1.222032986538083 2.158474133620482 0.5268758326102212
0.9649020793224032 2.006573988277376 1.152295619639812
0.6490814109541383 1.561582074354902 0.05974662150324539
-0.8685573800725407 -0.9272234768299018 0.6840006347803066
-0.4960182350490537 -1.366822635524266 0.01507154583064159
-0.8249480660865476 2.213546598984551 0.4479643700210589
-0.07473881241337006 -1.612383007681137 0.07683802594346742
-0.880807288676589 1.609531833106263 0.7051889309411129
0.8126968324733076 1.344079400080863 0.05564443506572651
0.1235515559984228 0.4337385134253294 0.0682140512150594
-0.1340368400987114 0.9210373176813675 1.132256215275152
-0.7190287141921524 0.9612552451828215 0.9828080733656712
0.7055384187994896 -2.246662686753951 0.3105480989667604
1.243281406584237 1.349852378216554 0.02292173457041937
1.246923108830783 -1.353455009561112 0.7537581762539409
1.254943879562959 -1.359571843739324 0.6804935990256987
0.5347000268252543 -2.266698390991913 0.3323098301925118
-0.8804859393446396 0.04885351106755161 0.6725049852365914
1.291284642789948 1.281463778771575 0.6732658388853596
-0.862153362976545 -1.422343979680416 0.6628082812718477
0.6320290408164223 -1.549370870270304 0.78379466436055
0.9261194989931166 0.2553653880779276 1.232503589334821
1.171273288407816 -1.627481963096611 0.1234204930859637
1.107874320662657 0.8915307323785138 0.9962617858105056
-0.5873438327525897 2.262787151192728 1.253242086883867
0.9690154165242566 1.866235141257047 0.9541421456694237
0.4926849303067157 2.347859843990075 0.2579548422681492
-0.9011038003652641 0.9573574514319019 0.6726295497471906
0.3203010484924921 2.411943116179153 1.257878958253729
0.1237900249341363 -0.2993912587489018 0.06873550292649398
0.8879167896373195 1.905203085734744 0.05256546227710847
0.2654879647107987 0.9405473150767747 0.06842403237723477
-0.2690628259284463 2.206515921935161 0.9855703737176285
-0.5014741413691206 1.953705859919495 0.06612716205487622
0.9411981050810767 -0.1888486168772494 1.204243850419269
-0.3317665661315808 2.334117945185364 1.268611069625679
0.1328719268568512 -2.063088973084104 0.5288460786208369
-0.6857831569880727 -1.158015062592954 -0.1183034070449782
-0.2781397084682211 -0.4042300742337973 0.06906424040849633
0.4755160231279795 -1.003349250367408 0.06619105879148689
0.8846008609715595 -1.253830570780006 0.003757350694812305
-0.7832494760370101 2.217514867149834 1.232645003033218
1.251547037459903 -0.1689886832340012 0.2441252124672578
0.9831048138676584 2.001386193645887 0.9493806684878778
1.224545679358231 1.987921802964903 0.2670238898422598
0.7403789229895277 1.981161122461125 0.9686223997341904
0.9360640196319613 -0.08456769787825984 1.220014173325082
-0.5004436304851978 -2.140072337619191 0.3709397719225812
0.7504643294512284 1.705428936508972 0.9741852703793891
-0.8935396305912642 1.142574409446701 0.2570995700653282
-0.6118437356436881 1.208562306698859 1.007784768914528
0.1365910867683835 2.367773886714585 0.3038797217719161
1.245244887824264 1.821222203276443 0.7893721924255539
1.028325688726118 2.224600546911309 1.19818782377328
1.236587155988504 1.700275524493513 0.8486344282679111
-0.8516027905988586 1.996746899630294 0.6493190342657863
0.4075747247086753 -1.732497962248805 0.07928192058430142
-0.7163943134491893 1.711551070193376 0.9345221034906575
0.6315732596462163 2.365837803680504 0.9760330281761245
1.255516517842753 -1.140235852755057 0.2528788933385884
1.244234204500804 -1.490224396374366 0.5431816619337211
-0.5098939649822747 1.404139835188017 0.01170837966523759
-0.4921621896500142 1.029806374071058 1.099387777962421
0.5491508610785086 2.543549506082834 0.9595529029735943
0.8235176662444264 1.219372033072782 0.06705398140027509
-0.5844575924347568 2.32481117112737 1.266372856111804
-0.5223719290723665 -0.9301951503121482 0.05263236265433743
0.3909164919047471 0.02195883809135291 1.231534128039912
0.5065481400730136 -1.784306491602853 0.6831099844023776
0.6490814109541383 1.561582074354902 0.05974662150324539
-0.7606608765866803 -1.780594660841982 0.1187953960506691
0.7969424430964461 0.8835891387695567 0.0682507648471179
1.18243913709857 0.04823823175934428 0.8927158367345731
-0.4276834767703969 -2.137053647853894 0.4028580767579186
1.195573900630337 2.169000192073598 1.204958886859488
0.4802890247701713 1.230639764960166 0.06928030385455256
1.119924035414584 0.8018811066383647 0.0759109819073233
0.931704785135655 -0.7993253897876317 1.020593925138952
-0.1539855128395968 2.035276975946572 1.157701248267828
0.7530344346360811 2.313648278196285 1.036620219205925
1.259761717117223 -0.766797098917315 0.5835596400350163
-0.8801090739920023 1.547820583557406 0.3689871635653174
0.6273740819649933 -1.684131904134997 0.7288987001679514
-0.6943989537531794 -0.2662688133571386 1.033714668650112
-0.4334213523166164 2.123580694851533 1.006325196107159
0.570582350944864 2.368265921984539 0.9732287106716364
-0.7295603336865676 0.6846566703046391 0.07590284072931022
-0.6232037273064878 -2.084861152881408 0.3551496810134773
-0.5812703990685737 -1.444872496062378 -0.03095081422022122
0.9854714624690084 1.608273309814104 0.96543410827801
-0.880807288676589 1.609531833106263 0.7051889309411129
0.9789290156816179 1.956864471407521 1.151059765843374
1.126177265247045 0.8615641063899635 0.0759461362933247
-0.8804859393446396 0.04885351106755161 0.6725049852365914
0.3208818083514269 2.074965564067879 1.163507677640356
-0.6559822611544306 2.37370634201079 1.258036094246462
-0.2501646673796952 0.1405873079682027 1.235553438284406
0.7829309858535019 2.135118763371986 1.095356393339848
1.251244032342468 0.2916016062607973 0.7521692777665274
0.3013974256959279 2.260182420873481 1.19572527922092
0.1181993045826508 1.012913338578298 0.06897173750481631
-0.8005441294420157 1.99838309048508 1.168238889121011
-0.8802330003777883 0.04885351106755161 0.5246457383884546
-0.3253510261643857 2.159883321254675 1.097879445411769
0.3223567426897165 2.143452106251285 1.227505159185399
-0.5966028997964983 1.673390991331596 0.9607929383153113
1.266992661942822 0.167769290989094 0.4489480918898494
-0.4392685962848369 1.961007253387735 1.177343929327865
-0.3387907893570311 2.335731390060722 1.198496432994237
-0.7048153900226508 2.36087873884191 1.236640807388705
-0.7766168332046879 2.067822869800411 0.8956632495015657
-0.8973863637155688 1.349852378216554 0.4496129130102897
-0.2331948086632058 -2.245113869935826 0.2894357387476884
-0.623850609812157 -2.073433128444854 0.3798531965160254
-0.4034081264861033 0.5581684939061512 0.06821253730739495
-0.2675339857837302 -0.9067993546125844 0.0697560077860203
-0.1394135054170611 1.189910406449606 1.053556935528219
-0.6034994550606798 2.422210447920495 0.8969367400699353
-0.416297654573587 2.3636309186828 0.3570628743374256
-0.9054186425991704 1.215856970527046 0.4495291962850183
0.8484379593100246 0.3917832272852845 1.224545113809438
1.271730976390475 0.8900862459237768 0.2438797166044955
1.185252570679745 1.803738308983699 0.8958399050138868
0.5390533738585958 0.4311077693018927 0.06821405121505555
0.5615821437182487 2.529245369167557 0.864234524601876
-0.253342564442493 -1.221580774744622 0.8468621084575168
0.6846210955524972 2.136067877149822 0.128950740924672
0.6183424723700839 -2.175546054302956 0.2656401144544087
-0.720047904060674 0.8915307323785138 0.9962617858105056
0.5316111552229627 1.048882623476059 1.099387777962456
-0.3967295536411122 -2.22353719511761 0.2972997432254064
1.271411262365156 0.7926826428091014 0.5268934912972824
0.9480828620425296 -0.9558533437407537 0.9396628162694442
1.137582961754527 -1.915402677307866 0.3767873346290384
-0.5614897292778784 -1.009195425526132 0.9115870590684124
-0.4434958158542648 -1.637253342214856 0.07766981678789348
-0.3780281120531024 2.347394595412977 1.216847294270391
1.264959207856032 -1.24745911381635 0.7109770021112227
1.259203159828008 -0.7667970989173149 0.5106550465312814
0.8618735083419944 -1.316158901727315 0.8358195761044418
-0.2532143447430987 0.7981143071877798 1.158925237461372
0.04347928725987339 -2.308292266978177 0.3105480989668007
-0.4256611052201407 2.491439548031186 0.9429856947119396
0.8857712398091903 2.070672171198578 0.9701771122601488
0.06948513164342264 2.362700473417112 1.225866207809293
0.7733192307362894 2.272627478951173 1.11428199942976
-0.8440836887286527 1.484122715212833 0.01208218877893592
-0.8393792915283591 1.813159843431095 0.1533077982338814
0.5376499346019171 2.111536743048188 1.162255441910269
1.273627951124696 0.9597824469531067 0.2461678288122841
-0.8671963840217387 -1.359571843739324 0.6218806150072247
-0.77711103207053 -1.69319414166273 0.1205445426329987
-0.7206625564293018 2.342508735779198 1.264275252464965
-0.003869001383696967 2.193178024383068 0.1489837941753285
1.279370289560404 0.8748012168904132 0.3639141768312858
-0.5861406911922835 1.470964854007656 0.9773962282786285
-0.8709409883117918 1.735595157769511 0.5988941515234701
0.9220245842052737 2.342229864047827 0.3569659136989086
-0.4023690972483401 2.318974841878755 1.19820592087483
-0.5340622277218428 -1.501268220379076 0.01801746768414489
-0.8501367924429097 2.000369375456404 0.7307879382738165
1.271779324306223 0.7924400907272313 0.6036322447500819
0.6581173381621651 2.464849139464834 0.5814402179697402
1.105783159094673 1.585172853041387 0.9433581357203587
0.8898672429030464 -1.139662212084863 0.006400867891496055
-0.8234450721921571 0.4159915876775704 0.1276589231155911
-0.7756938788048813 1.973352687725865 1.163200013886305
-0.8395652670621592 -1.359223694786657 0.1347272213519898
1.268640066998212 0.2916631341916181 0.6726664844240251
0.8344389278098681 2.463157736152713 0.7560818506836061
1.086158358980043 -0.621744658811603 0.9454420110678636
-0.7093356505043071 2.363707776678019 1.262052040428979
0.9745173467079116 -0.7034967242884841 1.042725524884415
0.874928214280139 2.113232244892188 0.1289507409246698
1.28344061051299 0.8748012168904131 0.4493699218508531
