-0.1499169192895502 2.093070493219321 0.4734124942953966
-0.1691538013033306 -2.422280938268264 -0.2827451093955934
0.1525246010921452 -0.3002274873413687 0.1506013029260001
-0.8848342449713222 -2.511219182913712 0.2163725274065033
-0.3648066559414892 2.121798075659354 -0.1028716504793775
-1.780920273586334 -0.2863596746180143 0.4518543744557194
-0.5261442729564699 -0.3794826032300463 0.7561259055793822
-1.773128078216232 0.9387934437188523 0.4593651783287964
-1.775999589980796 -1.409674585710837 0.422920717722194
-1.807441258863442 0.9391798973756766 0.4042428947467634
-1.054350322411103 -2.502341198878341 -0.1337860106951427
0.03077482932707823 -0.7386906780385755 0.4644763591614818
-1.40087816833304 -0.1755645413153492 -0.2986196721996296
-1.60316081722013 1.62996904833176 0.521321038506567
-0.4104796600052288 2.097623745051167 -0.148734773848952
-1.779494961135129 -2.004131637153103 -0.2415920346667363
-0.629874177293198 -0.2816357133723133 0.7771278851002311
-0.3215360402785407 -0.9915896784344978 -0.3046496145600482
-1.487830928775562 -1.505174881961108 -0.4200862445356138
-1.869089517067091 1.23775876498877 0.2811695298741084
-0.2042271748108916 1.635315052549232 0.5371472075731854
0.0221827518271475 -0.5160078038245302 0.4834875804843748
0.07338837307603938 -2.246490318924204 -0.07013597342952346
-0.2707839696563743 1.064933449749512 0.7392036964251012
-1.503214496115733 1.884906860972041 -0.222423145896665
-0.3763180478772082 -0.7219372727704743 0.6428578823948026
-0.3323939207094435 -1.693315275793716 -0.3141054696906373
-1.429978706166519 -2.049860586119617 -0.3002204285095865
-0.4173030860354276 1.165448382323661 -0.2950202839058193
-1.83945900559398 -2.003167746222687 0.1910821336746955
-1.194120476424924 1.700002253514114 0.5579254990219544
-1.873588242701798 -1.504750797431282 0.08885957847914491
-0.05388006547498207 2.092055041178507 0.09371998527097622
-0.9610771542097584 2.135367618368809 -0.1596070382667155
-1.676852183173844 1.235966215372652 -0.5519141622470574
-0.05491114116689631 -1.566055725881841 -0.5390631367979725
0.02789249603898453 -1.735678461397842 -0.448529469664596
-1.357355681860398 -0.7989088505595267 0.6043274790293421
0.02233962243934473 1.34942688160957 0.488655515034586
-0.3520467340805557 -1.077050347850171 0.4759664376735621
-0.1103128290722553 0.5417152363520452 0.658306882442655
-0.4639177179121613 -0.1895821577473279 0.7862326587848851
-0.3797545555541569 -0.4742922586683669 0.7289932731089779
-0.381340425203989 -2.199116755209507 0.3523945813779691
-1.410861249003707 -0.8687129383977348 0.5609956435258958
-0.1677335625312151 -1.444837941279426 -0.482609273313634
-0.2912464518646566 -1.860220679628067 -0.3332087640436725
0.07989106727369277 -2.241237127981412 0.004722892829738257
-0.2737891463148146 0.4784193399890985 0.7946923995868804
0.1498775637407768 1.292293482638459 0.1554771768847365
-0.1056839297088425 0.3256778124267437 0.6638249905860335
-0.4726899326843249 0.6849629298099651 0.7967972495579854
-0.9504369469519762 -1.220313022223112 0.4643666493238784
-1.870216189297265 1.139676903341382 0.2808688197173387
-1.440860810168303 -1.337152098028018 0.4496409594680497
-1.402155977785585 -0.8317392013939908 -0.3101363624068028
0.08274269476107728 -2.211660227254126 0.004722892829738258
-1.865576182818078 0.7126710415098119 0.2065492814476567
0.1586811841604363 -0.9049820786220726 0.201179860056387
-1.801689078364825 -2.246490318924204 -0.07013597342952346
-0.1752642326082437 -1.518894037417436 0.432174021380519
-1.86395906654782 1.4099700098697 0.004722892829738239
-0.9304011539459604 -2.530216299564387 -0.2717007332649989
-0.3904071311765606 0.9913760228905366 0.7636769424037733
-1.185440383300246 -1.735111438626275 0.4199912892077328
0.09874212550898912 -0.8260322048770958 -0.1838312348812124
0.08769922402369146 0.4363575381955922 -0.1680983215797094
-0.3261892020221153 -1.455934511329332 -0.3024248948957152
-0.3562674041863866 2.175726066238693 0.4518509974755682
-1.049252132278337 -2.502228048211948 -0.1857814786891339
0.138411633203941 1.185587401006189 0.004722892829738219
-1.459792315210539 0.2472141240487588 0.7993099063618125
-0.4392902581458061 -0.9452882951090806 0.5258328547979431
-0.9592015156285331 -0.4503838134235028 -0.3214953348995657
-1.39434822261683 0.6289904411315378 -0.2964065159703766
-1.510981626691831 -0.2060050820724145 0.7594099266245485
0.1233090874929447 -1.795032241855146 0.004722892829738232
-1.558058041055793 1.185526866967117 -0.5457774844969776
-0.8222818417532736 -2.276687352053537 0.3515863486194538
-1.152167054438613 -2.498528553232645 -0.2703637613560297
-1.600119462121068 -0.5167692313865229 0.6659238355364729
-1.54417808931282 0.5504908176174375 0.7372335162005329
-0.2795445838313488 -1.461203788591112 0.4388054055827018
-1.317654791496255 2.118423718915863 -0.1243434075402474
0.03838927069484339 0.623494330712954 0.4592571750461226
0.0918541982552287 0.8271719695552616 -0.2002581497611503
0.1404716574532465 0.939426429881822 0.2808688197173388
-0.237027832833596 0.6502932327322182 0.7695657704261955
-0.1378191545011555 -2.424126188595947 0.08989596127852415
-0.4414292947133623 -1.485695899573587 0.43913684972965
-0.6368700907958267 -1.510398149924993 0.4395978790285038
-1.87059016226403 -0.5797494273917797 0.2721380598526351
-0.9728059716766644 -2.491661591360291 -0.2974097739485783
-1.349723522355089 0.6340424226533851 -0.298311645427819
0.1135170083288451 -1.930503942112063 0.004722892829738229
-0.4262141276008001 -1.892284092119552 -0.3113600007184785
-1.772036972054282 1.291158913538539 -0.4459192594972123
0.09272982945231127 0.204524605652865 -0.1680983215797094
-1.34045246984558 -1.477417304720304 0.439024818071332
-0.3648066559414892 2.107198515322864 -0.1227976384770599
-0.9595389361993918 1.536968405711218 -0.2931704107650515
-1.197486865135121 1.379135857082231 0.6732554269999125
-0.9555918568170649 -2.303798545652416 -0.3126641722459105
0.09879943856936697 1.409907817594599 -0.1676160524918056
-1.310433552608986 -0.04671943953465388 -0.3006810702551824
0.005451443595580252 0.7118768049439703 0.5091522290567887
-0.6278506553561087 -0.6636780577002934 0.6775963333648885
-0.1499169192895502 2.093070493219321 0.4734124942953966
-1.859327343041818 -1.381447810260038 -0.1258041290247952
-1.249885270222126 2.185039362399494 0.2055650872893756
-1.65382586825248 -1.917384653037489 -0.4556727659062228
0.03654705401535843 -2.315485575518663 -0.197114703871996
0.1521530712500572 1.026076349541454 0.1554771768847365
-1.129018461155998 2.148600652572255 -0.1307045097330564
-0.2845078013223825 -2.44259999724951 -0.06332032697803947
-1.750642253915196 -0.1632062600834334 0.5039746109034965
0.001239388038151918 -0.6980599667984249 0.5084685565672039
-1.251283733295459 -2.361007764823567 0.2983349503374455
-1.355542903091985 -0.0474981681610396 -0.2987568525554336
-1.409422917338146 2.075361297690627 -0.1455141997347933
-0.233269934773978 0.8530898125054284 0.7506048140142576
-1.801844168947834 1.919316616124171 0.01318766114313351
-1.546223559135065 0.4475450837309336 0.74235295238064
-1.716489643942114 -0.598845336984033 0.5234354832881443
-1.847036460129467 -1.860027527773816 0.004722892829738229
-0.03607223914249315 0.4374460236749337 0.5728976931039405
0.08471955330678717 -2.143247285778306 -0.07013597342952348
-1.862155719062469 -0.9843951228188882 0.336222166014106
-0.05127762316092496 2.076661732556063 0.2066978345149735
-0.03351589567255028 0.3243522819590161 0.5735891204695236
-0.2051079248155898 1.259848265117878 0.6638519760246956
-0.6330746959574224 -1.381610854155661 0.4506168700462214
-1.358070660018016 1.313199211777444 -0.286155860948852
-0.8474354779659367 -2.537548951138461 -0.1917517948054741
-1.094600064193845 0.3908674556208566 0.8158197756356289
-0.3690821217290038 -2.465015488710442 0.008992775273875608
-0.9602716123668776 -1.374660613715603 -0.3142402059438466
-1.369301887171167 2.160418584344936 0.1909429478831353
0.09476994275964651 -2.140109908921801 0.1910821336746955
-0.09404537564982446 -0.2467857068669255 0.6434627264491695
0.07087074085032288 -0.1755203119409985 -0.238060814696835
-1.705022130111744 -0.261523626260092 0.5584826260007765
-0.9508056333471351 -2.372192903360792 0.3204349651382019
-1.708069149010207 1.08732839423638 0.5562402297078335
-0.7688018898347311 -0.04335485350986804 -0.3136171738911463
0.1136169609209968 1.65889352716626 0.2802402134621265
-1.882132382459465 -0.04750589861694754 0.2324761903369648
-0.3176287339916186 -0.1020582660231357 0.7909111267464455
-1.708069149010207 1.08732839423638 0.5562402297078335
-1.860069005692426 -1.73394387036949 0.2328129157495428
-0.3493457415325638 -1.275562163106853 0.4555249016263914
-1.880829177624682 -0.2996818328336275 0.1865493538416221
-0.3309476306087989 0.3274085842222458 -0.2964065159703767
-1.64864584837166 -1.268895498056484 0.448292284331949
-1.794867265943881 -2.296810624828094 0.1555104192227091
-1.491353486828476 1.025701841699332 -0.4133553390143595
-0.4066244038581443 2.186175258232116 0.09127852998929588
-1.804250614352298 1.026534542871762 -0.316237745367373
0.03121479734959446 -2.187693957094088 -0.2354474886079338
0.07806963444496803 1.919045306884277 0.1554353376887192
0.1449786796838576 0.204948910010788 0.08885957847914494
-1.338355690165008 0.3735038684619146 0.8100993750873717
-0.6035512391256543 1.010175954138675 -0.3083605581393171
-1.87356184603652 -0.9067408283120242 -0.00443362915432648
-1.627975072788947 -0.992281326506278 0.4890775870169339
-0.1400834051121215 0.2045246056528649 -0.2913516973052767
-0.2705996861886765 -1.069226323681395 0.4754707294984479
-0.1643701505990625 2.115011413237856 0.2073380729223935
-1.081974015289836 -2.29659341578683 0.3386078591743546
-1.882696613692437 -0.8243493669564992 0.182933556370419
-0.3037099998631675 -0.7171778635217689 0.6417249544175867
-1.816994103850025 -2.181471844761176 0.08885957847914493
-0.05308814221734524 -1.349924210568513 -0.4159410777312034
-1.375420673490257 1.648502249752091 0.5538805775384543
-1.490573229730725 1.291158913538539 -0.4230229380132269
-1.553036472680542 -1.518894037417437 0.4321740213805191
-1.124010284491698 -1.622856395544635 -0.3183832508940742
-1.807695596536955 1.237392350403436 0.4035950493982939
-0.3803046466700967 0.8153402464796802 -0.2976579670902301
-1.245523576131455 2.11298169191546 -0.1512845206740426
-0.05127762316092496 2.076661732556063 0.2066978345149735
0.1447826281350461 -1.310214109259057 0.328033297827882
-0.2685083900782467 0.2472141240487589 0.7993099063618127
0.1111905215573958 1.409909528524872 -0.1255659899361946
-1.756473912691795 -2.343779454341771 -0.1968266420740888
-1.764170560574845 -2.144583190169051 -0.2354403834855973
-1.770824008348038 1.186453396713904 0.4594677388441569
-1.528029510524027 1.73384913448453 0.5118282879224326
-1.811416458563041 0.204524605652865 -0.1993369513347896
-0.4595604523284607 -0.6546346924501869 0.6749038313956554
-1.624636945732787 0.8271018900738167 0.6437351447250783
-1.879577085738309 -1.379620248862944 0.2776937044449853
-1.415660208930024 2.143717550586462 0.23397545749847
-1.249883528979871 2.182181864786582 0.2326292053753254
-1.488471100299017 0.4363575381955922 -0.2934543953326281
-1.371380206239135 -2.325333951552676 -0.2958090971861612
-1.127746297417257 -1.01760176133278 -0.3165043466877827
-1.890749212043957 -0.9828202198051086 0.187914152882399
0.04176064404425043 1.349421056200765 -0.4331975371563624
-1.429978706166519 -2.049860586119617 -0.3002204285095865
-1.818311892133951 1.235966215372653 -0.2398342610880064
-1.822477963789251 -1.214100511526414 -0.2405376216321651
0.157021326742013 -1.309762733536025 0.1910821336746955
-0.1361601729957674 -0.5814966132484787 0.6752755206291261
-1.081974015289836 -2.29659341578683 0.3386078591743546
-1.334344773241897 0.8787511212801709 0.7760403223578678
-0.604033839312922 2.207991164749566 0.3446294103657803
-1.372610359267329 1.748384007310877 0.5275167091635958
-1.059601363980638 -1.945549595654539 0.4003154500134432
-0.3785771829336969 0.634042422653385 -0.298311645427819
-0.5261442729564699 -0.3794826032300463 0.7561259055793822
-1.798839183380094 -0.04932453100920001 -0.2359711011753589
-1.764113609664111 1.794599322692422 0.3842385550137473
-0.7786405989924368 -0.189885382583688 0.7922041130093891
-1.334600862563028 0.6742408455284568 0.7948936248343433
-1.86032615474578 1.548460394572347 0.08891106394333528
0.09268916686007632 -1.920772778320909 0.3340389523055919
-1.818311892133951 1.235966215372653 -0.2398342610880064
0.08769922402369146 0.4363575381955922 -0.1680983215797094
-0.9504388030307434 -0.583837490373439 0.7075218469934352
-1.081974015289836 -2.29659341578683 0.3386078591743546
-1.876579210702264 -0.5797541750007075 0.2231515828628968
-1.805059294985741 1.920665745973811 0.09102597759271444
-0.3106594953838817 0.6669512805414147 0.790734386696388
-1.417641209904904 0.6669512805414147 0.790734386696388
-0.298321999122267 -2.049860586119617 -0.3002204285095865
-0.960085172534789 1.42216006245017 -0.2985292610419772
-0.9470353556449255 -1.389624273348624 0.4509766274360021
-0.3062568269967991 -1.071461759158188 0.4757681902457441
-1.195543712984798 1.016624303350386 0.7671814789072828
-1.492081308263553 2.111331346527879 -0.07187999106658778
0.0851348706156472 -2.108263377159033 0.2985762181353254
0.08058635781413222 0.3231121709869971 -0.1993369513347896
-0.2830456432056585 1.538345231324461 -0.2925242141182077
-1.861670351317438 -0.5815127108703484 -0.01276209966091086
-1.433761482659837 -1.880354390141197 0.4001769253837721
-0.34746596349037 1.336831692858496 0.6686126248830915
-1.787872382154037 -2.281230637880674 -0.1258041842024784
0.1645647503030473 -1.088527391810553 0.2319880772096089
0.09660337482815773 -1.930564429339886 -0.1258041290247953
-1.796950168245829 -2.274988364427722 0.2220800344313547
-0.3510718318303662 -0.9956068115466907 0.4976582694265268
-1.458801172885267 -1.172660108757269 0.462451947205044
-0.3690994622092098 1.666524513349717 -0.2716484002620911
-0.4360555026785872 1.90959977807964 0.5159824872965464
-1.559499358491393 0.9638451682097056 -0.4738958500523562
-1.059601363980638 -1.945549595654539 0.4003154500134432
-1.766061769981606 -1.566055725881841 -0.4449393890552652
0.1092217276236711 -1.675445198881736 0.3513481085536389
-0.7680290929219089 -1.374660613715603 -0.3142402059438466
0.1333696460286525 -0.5815127108703484 -0.01276209966091086
-1.825337217850785 -0.9807773875246981 0.3922906863859591
-0.4866802317350034 1.395964686177742 -0.2888163001470738
-1.839098047111932 0.9380022496029281 -0.1683020524179335
-1.461975779241234 -2.262579985276261 -0.2934567256716577
-1.833821006658072 -0.9068014736156574 -0.1802464879447342
0.03121479734959446 -2.187693957094088 -0.2354474886079338
0.09526385124941796 1.185526866967117 -0.1991986850670767
-1.531093882852117 -2.001232253668521 0.3796702447648061
-0.1979860302468755 1.432307613713624 0.6091994422664026
-1.77951333800807 -0.4130567906165198 0.4472024851241157
0.1006552899529067 1.652162594516874 -0.1192327378094053
-0.1820771461537207 0.4475450837309337 0.74235295238064
-1.377270459702674 -2.284448401651881 -0.2961441688212998
-0.9384106802006936 -2.520555316384928 -0.2876632705683638
-0.6173506087474893 2.229642999268313 0.4527237665438392
-0.4060958974453085 1.926423947051938 -0.2284542255678704
-0.9435895456475778 -1.583074478990252 0.4345253121547122
-1.681073880425504 -2.295963886370934 -0.2735916559159402
-0.9416444941712596 -1.644125645845425 0.4295411347036951
-1.862116605632316 0.2045852205611397 0.00472289282973826
-1.723858533739137 1.743191485977437 -0.2380819716088786
-0.4161433081865751 1.111612629330677 -0.297745653908717
-0.3687750778320885 -1.33731010341347 -0.2993802904446122
-0.7689972500777758 2.215597255925747 0.3443387391925992
0.0006978521903102898 -0.8889676581957648 0.5073349672485605
-0.06536161825985659 -1.691434984008026 0.4130619734558728
-1.097905200104174 -0.1898629864422947 0.789887921428077
-0.7810971080746234 -2.403513209418441 -0.3087092587023176
-0.4148030463820661 -1.374885068239506 -0.3015659579873216
-1.294630822267756 -2.101470483617185 0.3715012743611402
-0.1392080162805938 -0.7151411678021263 -0.3033782419557886
-0.6790485730104414 -2.502228048211948 -0.1857814786891339
-1.64864584837166 -1.268895498056484 0.448292284331949
-1.497190032959592 2.001089105472952 -0.1797714693424458
-1.818795691973807 1.137880303769794 -0.1991986850670767
-0.4862668272000847 -0.9293346083692317 -0.3163408189943401
-1.611290365963186 1.991896625534853 0.4852571918636249
-1.59107964929988 -2.418482904023247 -0.06518206795236381
-1.797765469769174 -1.907562808120229 0.357454245503491
0.1500501915097502 1.350555364399736 0.1554771768847365
-1.528240864654962 1.370902464662622 0.6301939034324768
-1.867967365517031 -1.091695905742946 0.3351573812324222
-1.874268485943059 0.3247941469607415 0.1910821336746955
-1.469955212285526 -2.453091374570151 -0.246827784822297
-0.2830456432056585 1.538345231324461 -0.2925242141182077
-1.401350040499527 1.148703628903966 -0.2945998656009027
0.04008217508472072 2.01656133637232 0.1554448272633889
0.106206327896774 -0.9845098517483086 -0.2068166843560717
-1.55576971942131 -1.566055725881841 -0.5331938353966046
-0.09544460823970967 -0.1513307353734345 0.6515931002851259
-1.322812289610457 -2.477161030424502 -0.2697167720627878
-1.528240864654962 1.370902464662622 0.6301939034324768
-1.330436238146819 -1.282545964412475 0.4556752947615458
-0.7782454012840084 -0.3827782709027624 0.7603715423889448
-0.7661154599531717 2.204815626699443 0.2306875097405401
-1.697423277628087 0.2059212132056111 0.5735583603866259
-0.2817917256596437 -1.569526860393626 -0.3385439698710479
0.1375697506063136 -0.3013036392871915 -0.002752731662899074
0.0851374570138905 -2.227477082897688 0.2250164889881647
-0.4784154350666596 2.185039362399494 0.2055650872893756
-1.774202428081828 1.13883375991816 0.4590224257683184
-0.4823172055313619 2.185671715823737 -0.03962266990416221
-1.845844920486692 -1.928749421211523 0.2317153970967064
-1.670451080026201 2.010550234277759 -0.1395981510345551
0.1464258357463711 1.411723444608034 0.2328129157495428
-0.1694097242299611 2.128003668675957 0.02389943335384777
-0.05048592171431553 0.9625714424328014 -0.4789143714743906
-0.3340048737721704 -1.749245412457601 -0.3144826919157303
-0.3128748344162705 1.742647391726639 0.5254887802626718
-0.9498191407473182 -2.528765363290234 0.1520523230758558
-1.502315163563793 -1.090785027118397 -0.2958129189978671
0.03483925522099619 -1.702685490346079 0.3987587263717638
-1.86395906654782 1.4099700098697 0.004722892829738239
-1.88269313741549 -0.8242127616919361 0.2253872355879397
-0.3416383619758012 -0.1892256909110265 0.7836048097270136
-1.867453556098481 -1.622631837895845 0.1910821336746955
-0.6844519513954226 -2.50396609155788 -0.2864946672445029
-0.126594311486933 -1.093413440424823 -0.2937760189919438
-1.842545885108745 0.4363575381955923 -0.07013597342952345
-0.2629105809183479 -0.0006736768023741149 0.7886570260993717
-1.679358588937757 -0.7554136816588357 0.586503774621689
0.09632781770515597 -0.3013642675658294 -0.1758467524744256
-0.01155935295289413 0.4363575381955923 -0.2735916559159402
-1.205343579649636 -0.7339054603336097 0.6450050731670374
-1.311639147304403 -0.8401335154246901 -0.3140726055385044
-1.343013631036314 -1.995418114044562 -0.3044706736411743
-0.0001254701100741329 -1.007567577438884 0.4713925111463569
-0.235961748501405 0.5679515952242159 0.7753867622004276
-0.02023155627857827 1.08732839423638 0.5562402297078335
-1.617520905343002 0.6241229082882601 0.6549391183792921
-0.2478118549343034 0.859720693255992 -0.3362285822276303
-1.848912539587752 -0.4378091212004241 -0.08523097656962864
-1.238143591232764 -0.4459835329290752 -0.3113163102082258
-0.3939191891354474 -2.462472516130269 -0.2199202961997833
0.1486904449085538 0.2056611351830159 0.1554771768847364
-0.7751223636310072 2.229380149817528 0.480393243943261
-0.4105440043932562 2.15167545437667 -0.07667336999209232
-1.260642033325689 1.094865249450181 0.7524339463838851
-1.867526612525747 -1.210984074969336 -0.1258041290247952
-0.2336504063934379 0.4650414659421687 0.7810110047392873
-0.2735069670311179 1.566989262333222 0.5747168396234914
-1.668875406370438 0.8667041092977412 -0.3771602055939728
-0.9394708925411636 -1.702667240296802 0.4249174876272798
-1.525649656530732 1.312908470972399 0.6482935220432666
0.1209601134483252 1.089148888675892 0.3417742640790917
-1.554907836185479 0.9055045882417486 -0.4305700602161718
-1.593277237768808 2.099198767653727 0.4589724392394349
-1.455535281503045 1.274533513002073 0.6767509826535757
0.1240791783223988 -0.173698793860238 0.3403955689693394
-0.1372210559889052 -2.418482904023247 -0.06518206795236381
-0.2776309469656388 1.087738835093198 -0.3269168317538618
-1.443792903966403 -2.442599997249511 -0.06332032697803945
-0.6042904207970874 -1.622856395544635 -0.3183832508940742
-0.4269769293392631 0.1303234543357985 0.8080879259079872
-0.278500667255933 0.8663932912940049 0.7646523651629025
-0.4871413800385006 -2.478229376675088 -0.2853085409294187
-0.3928928973262593 -2.237823452726649 -0.2981980313065586
-0.2727654237857401 1.274533513002073 0.6767509826535756
-0.9127373694976514 -2.223532146120708 0.3619388343124078
-0.3939191891354474 -2.462472516130269 -0.2199202961997833
-0.1667255664727159 1.084617295981629 -0.526986160438282
0.1310266377530329 -1.381447810260038 -0.1258041290247952
0.1245705999152666 -1.680172904243703 -0.07013597342952346
-0.9356295110619564 -1.823110593246659 0.4151619371335795
0.1320254494569953 1.548460394572347 0.08891106394333527
-1.239239310479391 0.99860513450824 -0.3034811150166835
0.1372754775292924 0.7126710415098119 0.2065492814476567
-1.449124298128766 0.7521460204710508 0.7756153376483569
-1.423763743624461 1.875755120412836 0.5129757829525654
-1.37625397120823 -1.077050347850171 0.4759664376735621
-1.405070746235115 0.2505460331266805 0.8091597748244567
-0.01945092742423775 0.721420852379574 -0.2794632705128198
0.1258774709687803 0.6221519893157348 0.004722892829738246
-0.9593976806554565 -0.307425744396569 -0.3185427666311044
0.0872103570178854 -2.205125430820861 0.1554771768847365
-1.746784275664892 1.087867221162131 0.5063290143162437
-0.9599489271820805 1.0829886780177 -0.3131535208213611
-1.67702308212786 2.076661732556063 0.2066978345149735
-0.946364037658596 -1.453918346771348 0.4454823675229153
-0.6463266899989499 -2.296593415786831 0.3386078591743546
-1.811043400049862 -2.211660227254125 0.004722892829738257
-1.217917633893007 2.210951828689244 0.4648553521621483
-0.5123871675553167 -0.8882944945511175 0.5629892915705761
-0.3899450151237781 0.3735038684619148 0.8100993750873718
-0.2844184079495717 0.4378667452801687 -0.2945481795657172
-1.822477963789251 -1.214100511526414 -0.2405376216321651
-0.4799851466605263 -2.475244315707569 -0.2206989592339196
-1.290697444158117 -1.006081205265393 0.4981965025750739
0.1525199917374333 -1.311384263060817 0.004722892829738262
-1.185085979194728 -2.427668277713998 0.2453002658346377
-1.579850818043485 1.096663888035438 0.6782671776065625
-1.30963533396871 -0.6515870311064889 0.6742495444308405
-1.876574262319544 -0.5804364272233101 0.1440728293766691
-0.4883898670189219 1.279036299081973 -0.2934914583108752
-0.3368231548070446 -1.530632461279834 0.4336583951182372
-0.3569204990496503 -2.325333951552676 -0.2958090971861612
-1.489144797344047 1.40718526738829 -0.39548363768818
0.05119425584634304 -2.004131637153103 -0.2415920346667363
0.1392351263137562 -0.1754596869695611 0.001675879866095003
-1.452955745460576 -0.9086329309269163 -0.3074656893021002
-1.403389555844947 -1.402253743850897 -0.3001840226548272
-0.922799912841619 -2.453590560300707 -0.3050383711222294
-1.256673386215002 1.683310808868919 0.5565192922533266
-0.2835498051578945 -1.627928380921848 -0.3425336634451193
-1.87163363781779 0.438175771683611 0.2065492814476567
-1.6814384971593 -1.390545828348873 -0.4525185806728149
-0.2889835868322663 -0.3732837088405879 0.7493750283521475
-1.768382880373506 2.01656133637232 0.155444827263389
-1.241023763561002 -2.046766760250301 0.3807083139209339
-1.806192158747305 1.291158913538539 -0.3216529194557363
-1.878178269029562 1.292293482638459 0.1554771768847365
-1.492674948402359 1.638496564952479 -0.2734018945971448
-1.362410184721799 -1.104218782610624 -0.3006723917468442
-0.3037099998631675 -0.7171778635217689 0.6417249544175867
-0.9325206043143046 -2.529697928483937 -0.2510956319777283
0.1645707795046935 -1.088527577481453 0.2056739061340851
0.05600090706204478 -0.7805211759134787 0.432709046954267
0.08330870518054188 -0.4302344076594581 0.3970029376351335
-1.341055460450921 1.4046587917243 0.6512041722303423
0.1415341241259553 0.9376843250115632 0.004722892829738232
-1.449955326478485 -1.448010380721546 -0.3255315498106121
-0.2385199182303654 -1.444840330307145 -0.4022721611634234
-0.6634318701970593 -2.473146734610427 0.2184865365117734
-1.322204807843477 1.926423947051938 -0.2284542255678704
-1.485714341681454 0.6225465225204595 -0.2934656557427269
-1.495769798436937 2.125304988241682 0.2833274049606547
0.1387583350154657 1.473045261238442 0.08885957847914494
-1.49741850495993 0.3520850016437605 0.7849620646704991
-1.577001249819049 1.634917243901159 -0.2754728711887453
-1.357355681860398 -0.7989088505595267 0.6043274790293421
-1.523192780473195 1.259848265117878 0.6638519760246956
-1.421566266036619 1.130380068664399 0.7322936244114775
-1.555976457534971 1.459012735436949 -0.4535848737894817
-0.6328705735880372 1.516295906895917 0.6374685121710739
0.006138039422337074 1.794471785789883 0.4180004430189724
-1.419344008852111 -0.9308594102265545 0.5247981840226572
-1.694784809616235 0.3243522819590161 0.5735891204695236
-0.4572332019130663 -2.479609494475143 0.00773623826875818
-0.1730485497991097 -1.458001403515821 0.4373903395790742
0.1348828381858553 0.7112772656430694 0.08885957847914491
-1.780500135483604 -0.6736175671362441 0.4369705666979276
-1.393463149755394 0.7162518506070565 -0.2963753264278285
-0.4645300231226412 -2.386900020985763 0.274384273099067
-1.455649209555355 1.224641627003103 0.6933790680802615
-1.869666325451312 1.474435845083315 0.2065492814476567
-0.1578529861645598 1.98281369985378 0.4987445979982965
-1.185440383300246 -1.735111438626275 0.4199912892077328
-1.747095129546421 1.025502167801498 0.5071103007829073
-1.775999589980796 -1.409674585710837 0.422920717722194
-0.475737623576414 -2.304820332705529 0.3262648458620072
-1.747287901008372 -1.950096925403681 0.37005259817148
-1.313178025950252 1.382112120677551 -0.285840567031676
-1.842409000955824 1.291158913538539 -0.1680706683261669
-1.876693797569373 -0.8242589368900244 0.2740133276873644
-1.456610090159219 1.387054963051442 0.6416301045283299
-0.3308320832308925 -1.636968452491335 -0.3123530691444534
-1.817759086049104 -1.29714136124734 0.4084693413919148
-1.785257905619447 -2.307202785737387 -0.1258044049132109
0.02521416775388236 1.472786478596427 0.4689653990896446
0.1142451798199599 0.4363575381955922 -0.07013597342952345
-0.3702747994347224 -1.410038170116164 -0.3000209316177543
0.110900121666951 1.025016449098376 -0.1681169451445202
-1.129115561255591 2.127756495390682 -0.1553899336272991
-0.3501123588334076 0.9842142858780894 0.7627270852962975
-1.845235165116737 -1.795092762267685 -0.07013597342952348
-0.01371197407464323 0.5401409724514023 -0.2736058394534127
-1.553479530417009 1.533865041338957 -0.3663353467751017
-0.1863346116580334 -2.042331833826384 -0.321740469571931
-0.4161433081865751 1.111612629330677 -0.297745653908717
0.1228301481963983 -1.858953568825041 0.1554771768847365
-1.334600862563028 0.6742408455284568 0.7948936248343433
0.1449786796838576 0.204948910010788 0.08885957847914494
-1.559499358491393 0.9638451682097056 -0.4738958500523562
-0.5357101462715753 0.7838141993890078 0.7905000410312337
-1.06440673550408 -2.488117796339729 0.2031760647719741
-1.873867533155833 -1.442745050245728 0.004722892829738262
-1.504482026697957 -2.442100869621311 0.01042284317165124
-1.870772648249422 1.349481552638043 0.004722892829738238
-1.693746132758355 -2.387178919042392 -0.2288138378807434
-1.295178753845076 0.6795787860933674 0.7958413356866281
-0.7957801009744282 -2.529697928483937 -0.2510956319777283
-0.3045369616643239 1.875755120412836 0.5129757829525655
-1.362410184721799 -1.104218782610624 -0.3006723917468442
-1.803559625398953 1.235966215372653 -0.323907282380816
-1.192293009514588 1.802192758333062 0.5308534019921505
-0.2812604190341518 -0.4384741149434416 -0.302345959607862
-0.7696826598408129 0.9569513538481109 -0.3117767671494119
0.155852674414528 -1.311020555503855 0.08885957847914493
-0.6333369900999061 1.337300577044205 0.6932384095617398
-1.268740252960325 -0.6546346924501869 0.6749038313956552
-1.247737292261244 1.806635537934152 -0.2617322477333524
-0.4192858288866499 1.607799200121836 -0.2781933134313394
0.07800242743549263 1.350757525474051 0.4086303087240302
-1.773329528319973 0.3246862165515392 0.4588003133901459
-0.5998571611190706 -1.127759371528034 -0.3105305673444952
-1.87358171550532 1.138304111596112 0.08885957847914494
-0.08436551547830681 -2.001707690667819 -0.3664581000540497
-1.867535831602541 -0.1754596869695611 0.001675879866095026
-0.9403325487590428 -2.414401508469726 0.2983096312856192
-0.5168176353050197 -1.203332801621158 0.4634954833999146
-0.768092035576798 1.726273288625454 -0.279169004324281
-1.500155250581291 2.140697285259241 0.462528332244681
-1.419344008852111 -0.9308594102265545 0.5247981840226572
0.1482833822082725 -0.579890705937488 0.1804802606912261
-1.50793023997576 -2.433038433348655 0.1562324397109426
-1.452721546420749 -2.424871738017179 0.2052034445891489
0.07833855302808575 1.915568223097635 0.2326455712415577
-0.4007821580049162 2.183629136432443 0.4644108754185157
0.09009477255102572 -2.176777043938126 0.2056708155525985
-1.736817359885765 -2.122621961914678 0.3317134980490119
0.1407206838306482 -1.564230242636856 0.2767057701065316
-0.0007605130997367857 1.546878769560184 0.4806904200896912
-1.850473143635016 0.07949403966842543 -0.07013597342952345
-0.4664205057088487 -2.467625037306492 -0.1299656434017104
0.1186943353816134 0.2063235080561355 0.3417742640790917
-1.855863969460758 -1.793958004532579 0.1554771768847365
-1.632209915655263 -2.174100125420087 0.3368537612799257
-1.558230189753159 -1.505174881961108 -0.511803553026851
-1.882504259837075 -0.1737015506122701 0.231129288686653
-0.2368337648728012 0.204524605652865 -0.2934543953326281
-1.412414760532149 2.143055837180857 0.2830778798200075
-0.3801559325616025 0.8751703198964325 -0.2966153793939079
-0.1799463159793974 -1.735620365547738 -0.5392259315925807
0.1383390323946205 -1.565995154583533 0.004722892829738264
-1.298606624167054 0.3769413075987705 0.8110280952528119
-1.59876517725962 1.734604209568066 0.4972565101557629
-0.1717749508625297 0.8602217092407933 -0.3706139782829729
-1.128028344643563 -1.247743130101946 -0.3082426207465622
-1.132145918694089 2.20007803535872 0.2044446074989229
-0.5089232857435088 2.214548293012375 0.4523609502228354
-1.283261742154908 -1.547898288556005 0.4338565078377202
-0.9496388217708012 -2.470137074865449 0.2438452268742221
-0.2742464789970883 -1.28745627661619 -0.2996955013461794
-0.6334364256849793 1.576681698795437 0.6150302496045006
-1.340832023052573 -2.237264378321889 0.3430751927008772
-1.492674948402359 1.638496564952479 -0.2734018945971448
0.09780339360979179 -1.735760405842458 -0.1680706683261669
-1.497541300454074 2.145221687547303 0.09379079856652847
-0.1419781694098779 0.3231121709869971 -0.2913516973052767
-1.354536084887807 2.165761888440036 0.3451995987523249
-1.831474466827685 1.087421491412396 -0.1680706683261669
0.09072766584591699 -2.142855764361794 0.00472289282973825
-0.2259855417249923 -1.090785027118397 -0.2958129189978671
0.06946476448038844 -1.907562808120229 0.357454245503491
-1.18245734786942 -2.494329820316636 0.006468825164676754
-0.1674647476059231 1.291158913538539 -0.5318301937443122
-1.312089977968953 1.44111838711366 -0.2842010020974752
-1.610029124204691 1.293100085131633 0.6227205075020859
0.08607248781264319 0.5395378102249178 -0.1680978860801352
-0.4424407115392972 -2.160630739088529 0.3623047855922512
-0.1380948300773127 0.07949403966842536 -0.2913516973052767
-1.862657023852347 -1.67974907600116 0.08885957847914491
-0.4464927134862451 -1.289590214804623 0.455826989641587
-0.9595263610028098 -0.1755746088233939 -0.3154782630790765
0.154395908403652 -0.8243493669564992 0.182933556370419
-1.464890990673855 -2.458238677948327 -0.2689404922509099
-1.254853440169257 0.7753707952668842 0.7889809879508356
0.01134454763902298 1.510076165682358 -0.3738504063292455
-1.369387820903963 2.155054460550471 0.2336013863203619
-0.5314442562003182 0.2634463808324947 0.8141676173327139
-1.854805160438061 0.5395954151363978 0.004722892829738258
-1.094914944649231 1.235725522763445 0.726880625576415
-0.06528225664291566 1.530257948148043 -0.371504743749395
-1.487048554489461 0.5396258366404619 -0.2934566474146479
-0.5773470748676511 -2.063483002965393 0.3806660280611246
-0.003831065623805568 -0.3013642675658295 -0.2789312543166329
-0.5350735031805601 0.6926003385043491 0.7983043600678577
-1.863830328390684 -1.678356401173454 0.2065492814476567
-1.850074554971584 -1.859664499396766 0.08885957847914491
-1.450669758323147 1.087738835093198 -0.3269168317538616
-0.6107738399005903 -2.08156440490599 -0.312023058083181
-1.862116386457007 1.549714609367479 0.1910821336746955
0.1586752176025181 -0.9049819350837089 0.2277534793775082
-1.252946518473687 1.92194188781474 0.5165449625055945
0.02458657032753188 -2.266356100773387 -0.2354486727949899
-1.3204544187562 1.789376522269512 -0.2594245579224443
-1.485225898074238 1.570162959996454 -0.2971806757187767
0.1542094158534115 -0.1737015603607554 0.2047625007666367
-1.312688618171481 -1.417889975368355 -0.3019466228429766
-1.772036972054282 1.291158913538539 -0.4459192594972123
-0.02773193627913877 -2.383987254651675 -0.2017003126767386
0.04416089716804492 -1.532944081937808 0.4123939544334239
-1.341899541046242 -2.454997305010226 -0.1816420293318268
-1.238915432327745 -0.3053612681886813 -0.3084888142291432
-0.2446971023564915 1.534071352916279 -0.3286430549306714
-1.238175381753599 -1.60877266355361 -0.3134439291201408
-0.530844029796912 1.106156979522248 0.7539955298228717
-0.5357101462715753 0.7838141993890078 0.7905000410312337
-0.3801559325616025 0.8751703198964325 -0.2966153793939079
0.08779603307350721 -0.8134799764859242 0.3922234332400315
-0.4676227592258648 1.365431996605318 0.6716413685345738
-0.370945023428388 -0.7989088505595268 0.604327479029342
-1.798894494144975 -2.079748661930795 -0.1680881257653133
-1.511203461021116 -0.9289728090416275 0.5229296637865513
-0.3928928973262593 -2.237823452726649 -0.2981980313065586
0.1415614763536894 -0.9845031772153078 -0.07646614210209896
-1.634255329638961 -0.2467857068669255 0.6434627264491696
0.02789249603898453 -1.735678461397842 -0.448529469664596
-1.794867265943881 -2.296810624828094 0.1555104192227091
0.08779603307350721 -0.8134799764859242 0.3922234332400315
0.1320254494569953 1.548460394572347 0.08891106394333527
-1.592219223933604 -0.8717494769592744 0.5512238113103001
-0.298321999122267 -2.049860586119617 -0.3002204285095865
-1.276391801806838 -2.351281320490692 -0.2987571140922868
-0.5308138401536647 1.37913585708223 0.6732554269999125
-0.2992411829394337 -1.268749895227395 0.4553782023892468
-1.845932613089172 1.547789651364722 -0.06907627264381049
-1.313669800175987 -0.9226400708155927 -0.3132554025044064
-1.671200903806891 -1.52168880264465 0.4267657914813341
-1.860069005692426 -1.73394387036949 0.2328129157495428
-1.483747491144671 -1.624312352294053 -0.4413676895793895
0.1187125102588701 -1.381455595703665 -0.168071741852421
-1.84457869267335 -1.090420378097003 -0.2014615797519755
-1.866639737683406 -1.565995154583533 0.004722892829738267
-1.883596710682636 -0.9063769564902254 0.08174984151189577
-0.02158290835972577 -0.725944075175319 0.5566271500399497
-1.414252761231142 -2.227739831141575 0.342563371825707
-0.2793791087080759 -0.04902329765075742 -0.2949882981976152
-0.08611527403610506 1.025959984776501 0.6278569671709248
0.1372696154065211 0.7126708775128412 0.2328129157495428
0.1498880308332181 -0.7133219573795904 0.1962664770773349
0.1452875374130133 -1.504750797431282 0.08885957847914494
-1.766707585413441 2.020967912691021 0.09271861650703658
-1.487830928775562 -1.505174881961108 -0.4200862445356138
-1.756044036320143 1.410095393405187 0.4751143155291693
-1.313669800175987 -0.9226400708155927 -0.3132554025044064
-0.3183132714444242 -2.277626959032923 0.3278794340671344
-0.05211615928023511 2.085801527359361 0.1556481650218334
-0.5327569923039871 1.016624303350386 0.7671814789072829
0.1645440680128864 -1.089209874274733 0.1545035280665225
-0.2992062151743136 -2.441563661819015 -0.1805200877029873
-1.361475740354049 -2.46731814599691 0.08931478454344077
-0.1182715810840948 1.293100085131633 0.622720507502086
-0.3314336809709835 1.643950971575706 0.5532705977745945
-1.833552401131476 0.204524605652865 -0.1258041290247952
-0.3493457415325638 -1.275562163106853 0.4555249016263914
0.1029134718102113 -2.077672714672938 0.206067950583971
-0.7926711942268302 -1.823110593246659 0.4151619371335795
-1.294953825855885 0.885381460521522 0.7770051175007121
-0.3936998427257578 0.6742408455284569 0.7948936248343433
-1.245983499757422 2.185671715823737 -0.03962266990416221
-1.238120768175444 1.623682759765604 -0.2791843319095055
0.07354346365904808 1.919316616124171 0.01318766114313349
-1.529918253094706 1.493498424799843 0.5871059819290725
-0.3298742711034277 -0.5851523057575809 -0.3064529398589785
-1.415662707165506 2.146514297465086 0.2071399661311553
-1.874756634234829 -1.503356973084139 0.2328129157495428
-1.28180799180254 -1.289590214804623 0.4558269896415869
-1.124183348115862 1.569866076940367 -0.2867861741819796
-1.274323371831482 -2.470659914852659 0.1549407928010334
-0.1784504936153682 -2.104555781406688 -0.2976343125796064
-1.122119782205202 0.5685507818197052 -0.3081410556071784
-1.840594826683299 -1.311500494537617 -0.1992356391777545
-0.5015818076004633 2.210001636369256 0.4016450365420962
-1.553036472680542 -1.518894037417437 0.4321740213805191
-1.845340018480009 -1.624312352294053 -0.1258041290247952
-1.733868749625629 -2.180143422526741 0.3174615882275407
0.07407456798570117 0.541204966155151 0.4041840523421448
0.02233962243934473 1.34942688160957 0.488655515034586
-1.769044732173433 2.010026068267829 0.2063122276686174
-1.125499090694168 -1.496701090950725 -0.3117134629653549
0.02868096918199153 -1.343377530595152 -0.3736557919104648
-1.863240575294748 -0.7150805283317925 -0.01281246478398471
-0.5004036064813362 -2.102584148113737 -0.304900076363135
0.1416313649096906 -1.565631726793685 0.08885957847914494
-1.543113256387743 2.122902777747443 0.3444819512132111
-1.493688730947606 -2.431369904662516 -0.1264558020008304
0.122879043294255 -1.858272786482961 0.2065053807015432
-1.294344871868562 0.7694175989595817 0.7880174992740801
-1.416344283695982 0.8696966389010148 0.7719371943427166
-1.803911805710334 0.8384432084828188 -0.2424038837407908
-0.4681555044608058 1.485023750937917 0.6332213635365789
0.0946974671964332 -2.140900727573603 0.1554771768847365
-1.497190032959592 2.001089105472952 -0.1797714693424458
-0.6293151678417388 -0.3814710856052404 0.758220234868412
-0.1736231587572913 -1.395622299931258 0.442828011621163
-1.736239286554207 -2.075824485568352 0.3413980940620723
-0.7808017514672498 2.111524672777708 0.5177947076462384
-1.485225898074238 1.570162959996454 -0.2971806757187767
-0.7978995513427724 -2.530216299564387 -0.271700733264999
0.08383506393615892 1.185526866967117 -0.2398822900702246
0.1552960053938505 -0.9063769564902255 0.08174984151189578
0.110095762913628 -2.004422428528897 0.08885957847914494
-0.5961559963508856 2.197192422211468 0.231671386743936
0.1391528508096953 -1.622631837895844 0.1910821336746955
-0.6913915375119257 -2.440844860147958 -0.3021289120524667
-1.223007273232338 -2.329710711108699 -0.3023091906419865
-0.6634318701970593 -2.473146734610427 0.2184865365117734
0.153831677170679 -0.04750589861694754 0.2324761903369649
-0.3491371519618267 1.281782925934037 0.686043874877786
-1.275657460761097 -2.438444682323944 0.2195449924988801
-0.09715096786756557 -0.7385388272004968 0.6147392672659297
-1.82147937377408 -1.314332913650029 -0.2417914771859264
-1.816007223150078 1.349421056200765 -0.2392658259985881
-1.126117980317498 -1.441314624061538 -0.3098711692497875
-0.4187815459678825 2.177229466076792 0.3450881286727475
-1.392522659891574 -1.808529225185123 -0.3129754102624349
-1.843934949486848 -1.928281622709656 0.2724597540276784
-1.44576740897109 2.143302792630733 0.3454179113965818
-1.136959388069552 -2.130830820682254 0.3714111051093461
-0.3367107768192264 -0.5661643991185491 0.7006411903795321
-0.8795288972685246 -2.53877356923453 -0.2267644572233909
-0.2383553654823598 0.3231121709869972 -0.2934543953326281
-0.9360237522500577 -2.52588464946064 -0.224716428138256
-0.2363189574530031 2.093033738243105 -0.09923829257220081
-1.812135769224945 1.185526866967117 -0.2398822900702246
0.08546395016859515 -0.2962360958969348 0.3999507787942632
-0.2681373455128548 -2.184277820010853 0.3513255098148832
0.1205214911587138 -0.7151411678021263 -0.09057778082832546
-0.3661926104805408 -2.399125656022556 0.2462821298841857
-1.628106455897733 0.08248305829881694 0.6622779466177391
-1.875303462815743 1.237781472504939 0.2328129157495428
-0.3719752220710105 1.257174230572697 -0.2885997891084812
-0.3457227934678025 2.125597688541682 0.5086651374529781
-0.7304973219006298 -2.262765529319865 0.3518328136266863
0.1206105991123888 -1.566055725881841 -0.1258041290247952
-1.300171512366466 1.474603798880046 0.6321892922434341
-1.744256079198041 0.2060403746524918 0.5090278558063297
0.1488798256976181 -1.442381477784978 0.08885957847914493
-0.7671066605285153 2.208407822094435 -0.04608351006554243
-0.05613071342360298 2.073467455648441 0.2813987053097172
0.1482735570307593 -0.5804364272233102 0.1440728293766691
-1.387869133513798 -0.2776238660201965 0.7710477938772478
-0.6647099449124927 -2.447797991994261 0.2447303152378106
-0.297032574701187 -0.7934851789609757 0.6033127363948069
-1.237715531928101 -2.487798753816207 -0.270038872719972
-0.08705309146917957 -0.4515583533910034 0.616181744859142
-0.4464927134862451 -1.289590214804623 0.455826989641587
-1.800430451843882 0.8270798561493469 0.4042654280607664
0.1383390323946205 -1.565995154583533 0.004722892829738264
-0.235961748501405 0.5679515952242159 0.7753867622004276
-1.274489364666388 -0.8068864272871171 0.6053860366135555
-1.354010724017398 -0.4418409451417876 -0.3062198091569312
-1.808191772562478 -2.241237127981412 0.004722892829738255
-1.44599142889212 1.57464998217359 -0.2818720576330961
0.06415520642248067 -2.257873600032012 0.2517018713114275
-0.07938769187357901 -1.940428409016284 0.384210382619728
0.119530892018851 1.658791715594273 0.1910821336746955
0.143338054917552 0.4380394291691548 0.1910821336746955
-1.629573868198973 -2.243288074852879 0.315690445852537
-1.233551580278329 0.8304397262488986 -0.3026052333893172
-1.733868749625629 -2.180143422526741 0.3174615882275407
-1.811839114271641 -0.7033532137687296 0.3925843127443192
-1.155795955461735 -2.495716259976956 -0.249262753832156
-1.305148385272385 0.6391381321758975 -0.3002332649499662
-0.05947189189213059 2.027330935709657 -0.1192906121715205
-1.851179748583041 -1.858272786482961 0.2065053807015432
-0.3099613366793972 -2.330384000609277 0.3027469418190329
0.1187125102588701 -1.381455595703665 -0.168071741852421
-0.3499126688355977 1.231471915012801 0.7031143598468739
0.1317664865591885 -1.734080578775432 0.1910821336746955
-0.9594874878484941 1.250442359704652 -0.3055934239179485
-1.847274971344722 -0.5815733465687731 -0.09040892140947265
-1.85370636733715 0.8254825413218375 -0.07013597342952345
-1.705928471050723 -1.293470566396479 -0.3190794187229644
-0.2482344506687677 -0.7934851789609757 0.6015423352307359
-1.837228562306066 1.349421056200765 -0.1680706683261669
-1.454054226291697 -1.28745627661619 -0.2996955013461793
0.02233962243934473 1.34942688160957 0.488655515034586
-0.3297854798719466 0.2077887029907711 -0.2964065159703767
-0.2534795985524675 -1.856028852137385 -0.4103391396096051
0.01363683750445159 0.9383418399051546 0.5079602246956476
0.08471955330678717 -2.143247285778306 -0.07013597342952348
0.1169651559279955 0.7108530605099435 -0.07013597342952346
-0.4172517896607479 -0.7254224524401576 0.6434545033159392
0.05028467198351151 1.91882009492562 0.3347352388699587
-1.808887063102918 0.3231121709869971 -0.1993369513347896
-1.095536536522965 1.183476865733241 0.7423594575445283
-1.451223866824694 1.028677436466103 -0.3258257660169296
-1.215913537733469 -0.8882944945511175 0.5629892915705761
-1.82940834267739 -2.004845694849065 -0.07013597342952352
-1.546151426252241 -1.688641403939227 0.4183736785201919
-0.0001254701100741329 -1.007567577438884 0.4713925111463569
0.07989106727369277 -2.241237127981412 0.004722892829738257
-0.2677071456466931 1.753303464923603 -0.2550942309767528
-1.801844168947834 1.919316616124171 0.01318766114313351
0.09317866848529488 -1.314332913650029 -0.2417914771859264
-0.774749004203113 -0.9000417754799773 0.5652515657643873
0.1479291844313435 1.139696546664407 0.2065492814476567
-1.394572728397211 1.743487141388479 0.5269830559935927
-1.683192044231124 -0.8909553527505887 0.5304972460342377
-0.8450320146761939 -2.545290019240267 -0.07868969240656257
-0.6913915375119257 -2.440844860147958 -0.3021289120524667
-1.833552401131476 0.204524605652865 -0.1258041290247952
0.08418036443777488 -0.7151411678021262 -0.2159121287650215
-1.722121781001774 1.289047156739338 0.5292488206840655
-0.5197072865947358 -1.433121228514357 0.4448385170128889
-0.140386576018089 -0.5815733465687734 -0.3012351088782715
-0.8845094196120695 -2.485449385340349 0.2429360588351281
-0.3477038715375268 1.13361542755755 0.735297842001351
0.1584588988350348 -1.090286313756165 0.003230107533345208
-0.5992822441327459 2.148600652572255 -0.1307045097330564
0.08050000189506722 -1.204068919033957 0.415075936998705
-1.759571002148293 -1.762034906491335 0.3937915260423033
-1.451387956393594 -1.394660515652352 -0.3190443212064891
-1.30963533396871 -0.6515870311064889 0.6742495444308405
0.1439620905429269 -1.212283803420581 0.3317790920285429
-0.2723401517158552 1.329077316284451 0.6598290800010533
-1.865389750653513 1.137940847744982 0.004722892829738225
-1.33580807499115 1.659880445193053 0.554743118605954
0.1221724383462299 0.07949403966842544 -0.07013597342952346
-1.363606259530489 2.140298692843504 -0.07527371811158579
-0.4639177179121613 -0.1895821577473279 0.7862326587848851
-0.4956116758152539 -2.40477358461032 -0.2975373933130772
-1.251283733295459 -2.361007764823567 0.2983349503374455
-1.723858533739137 1.743191485977437 -0.2380819716088786
0.09230000007221222 -0.5815733465687731 -0.1854631481456422
-1.559760061874879 2.11159898626949 0.2827119527630403
-1.652824428302455 1.753216942751388 0.4773714615572636
-1.60111583741439 -0.9847819483235651 -0.2995268437518379
0.08474279281060061 -1.930554434585686 -0.168071741852421
-0.2482344506687677 -0.7934851789609757 0.6015423352307359
0.08769922402369146 0.4363575381955922 -0.1680983215797094
-1.297978999950478 -2.046299246171249 -0.3040776711318148
-1.880682112825566 -0.9844425301014266 -0.0005018557076374598
0.1413594847110904 1.474435398721582 0.2328129157495428
-1.102808698019862 2.21712733860034 0.4964907264611818
-0.2339435669412952 -0.04932453100920008 -0.2938931304621402
-0.2716906151295661 1.387054963051441 0.6416301045283299
-1.25934660729524 1.309338685398533 0.6890529175449494
-1.126117980317498 -1.441314624061538 -0.3098711692497875
-1.41678919081733 1.508186796427975 0.6053005001701839
