0.5899265793464895 -2.088063866689458 0.2018878585960889
0.9365632401553297 -1.751306444283599 0.2399317088373582
-0.2498301850998216 -0.2480141235141071 0.1923922015169494
-0.7759970953871949 1.406838328317537 0.9756027347201834
0.01136778235868679 2.380216827493497 0.7550478751826101
0.7082877450920858 -1.156457473673248 0.1776521624033753
0.9894192830762225 -1.478849434104392 0.768040265462268
-0.7706316571484446 -0.5721659167584475 0.9162182645587309
0.9885521158066539 -1.173270491535728 0.7851432637724092
0.1391424175198902 -2.271774633938241 0.3072669576715832
-0.8354460577425438 0.7059336003701078 0.8508340129055532
-0.4946627636370021 1.171040454004848 1.275385581265442
0.9658333212256289 0.6320535448105518 0.7084843474677118
-0.4901032549149765 0.6329342877636187 0.1841801673689553
-0.889953692823833 0.2072016631025136 0.4351841713280466
0.6968254284888815 1.146317338089066 1.181765073856483
-0.875425917014435 -1.08515081384846 0.239592337747522
0.08943434406522102 0.5868652603362987 1.387940055669394
0.6025112427564039 0.05991514932342704 1.356483180862455
-0.8983497571789813 -0.7830843928006465 0.4332728840459338
-0.859705972635906 1.840722966272846 0.3368468937331304
-0.7178669898647722 -2.00031895939442 0.200731648207469
-0.05288941962465058 2.35614590041232 0.7996057459840581
0.9660965793972528 1.690405742214663 0.4396688768401431
-0.8785792565110985 0.8490408808342844 0.7700025937967847
-0.4955305026043453 2.231412511156579 0.9962081256320672
-0.8970703919684877 -0.1421862760549678 0.5793555633098276
0.9842633842075568 1.516261283671754 0.5114679438440367
0.9648188689294481 -1.605070454833073 0.8682500417481093
0.7263298915078329 -0.7070439642479203 1.055286827430408
0.9286527018663962 -0.02255717724995294 0.2255432339670696
-0.8962717678219833 -0.3394976653146605 0.433484440932041
-0.9042783534567969 -0.9418915519070463 0.5050348708789838
0.7348443964476735 -0.5910466169708913 1.071996525899017
0.6084623669645982 0.3993055557847945 1.362091721727793
0.8701600669864802 -2.066359643897978 0.3640684768167491
0.2570168459707698 1.661450330536237 0.1991249519091014
-0.752705694920331 2.096755981797799 0.6543955972580026
0.4141229339847531 1.516261283671663 0.1937219416275522
-0.8947375964603603 1.019513135918671 0.5111486208955529
-0.8963732095281025 -0.6494185910699478 0.699779136705154
0.5378865300087667 -1.341394663555713 0.9660766674491099
0.9834544521034746 1.215622696124971 0.5112535230280723
0.9306327486852891 -0.3394976653146605 0.2258990191048537
0.2912803201276564 1.995193753188017 1.0597562200082
-0.8931191315136986 0.316465575570247 0.5798341568215213
-0.4850169524023705 -0.1679618039960946 1.338534760301018
0.2221367850967888 -0.9418915519070005 0.2001885958571797
0.8688205066165351 -2.037008133172306 0.7627581322665937
-0.7536682841226722 1.215622696124971 0.02983324805668633
0.9510716022567028 0.7082603502706285 0.328808172859886
-0.3482286857180417 1.006941419361292 0.1937013063169476
-0.8399003610828113 -1.738588380727927 0.1759614899965597
0.7290084300731949 1.516261283671754 0.04279621411712003
0.08963580792254081 -0.7026246927938689 1.09448592844819
0.6759781084753989 -2.077508147468383 0.1979419053011057
0.9821657769999784 1.573323634206922 0.6437295511118835
0.9162060135804691 -1.815899229284617 0.2362848708158272
-0.01749911268107918 0.6329342877635605 0.196564490540177
-0.5461848002352736 -2.202638094579208 0.2855824238022934
0.2566826873370732 1.621074602232312 0.1965851363531046
-0.877568055112477 -1.427932847499345 0.1355594953954316
0.502084598187553 0.1806684109616026 1.382496160627814
0.08928798043946362 1.171040454004648 1.296193862043133
0.3087104364024008 -0.4184242233691314 1.252425514727047
-0.2125498922858489 2.397889235396548 0.3564139315937728
-0.566757395203911 1.842672715556403 0.1878064730313611
-0.6127613789641626 1.341501977084378 0.05595152515998917
-0.2653673295446807 2.412237186058571 0.5123669596573001
0.9744007938288394 -1.692410981423693 0.6657863515700218
0.6470606750173493 0.05550804349852842 1.323408755566484
-0.281063105798565 2.393479330674175 0.3500137302177394
0.5054697814194328 0.3993055557847896 1.383214867752147
-0.5296281237740471 -0.1679618039960946 1.32583557188326
-0.5921716996150422 0.6467607241234554 1.318993402028038
-0.9117571809703235 1.341519050340537 0.7068886032031871
-0.2315192208939962 -1.547047008826521 0.9477895534858634
-0.7699666845728826 -0.4231832975889295 0.9271057650531844
-0.613280940388215 1.339730627943023 1.134616972530472
-0.3103396299345906 -2.097953222797236 0.2133429537723204
-0.568735821368954 -1.087082092730925 0.9844761216060326
0.07187346650790703 2.27031811881652 0.9949803026101077
0.9559119481660361 -1.376389283671816 0.1391440367806852
-0.1826435460776856 1.661450330536237 0.1991249519091014
0.4101068382128653 -2.243020951641414 0.5276243038254306
-0.5725809400500789 -0.066893426285418 1.313139107414201
-0.8766983023635986 0.7082603502706284 0.328808172859886
-0.7740021217583013 -1.192495047853687 0.9677607522639238
0.2972070919790326 -2.015893115722614 0.2158004610505086
-0.1413591323833064 -2.237364406617049 0.6295963900481795
0.9074957626986214 0.8485636507714653 0.8536499001384017
-0.8938618052448002 0.2071779631860915 0.6479639024326094
-0.8279870348615298 1.981986774831625 0.6905702958830758
0.4022819533539602 1.847573933646348 1.076454937328283
-0.8345398611778101 -1.166950120174205 0.9543728330964487
0.9787067886527197 -1.633561711262334 0.606335230036001
-0.6900694030673824 2.102134357231551 0.2494624155764268
-0.9115898973410556 1.516262509004521 0.6933546255639007
0.5417061851582625 1.927149168899508 1.054633716414304
-0.9215624958638169 -1.376389283671816 0.6397617224525913
0.9423352754087978 1.842282765699691 0.437950758345149
-0.8797313724144611 0.7068281445511453 0.7685943866417656
-0.5518725089654555 2.053870157893431 1.029372756884678
0.8428154196931905 0.5716958506393497 0.179709943991206
0.9152390728878639 -1.052612403766289 0.9274356317778942
-0.1206376188010648 -1.392311636323478 0.9709167478545752
0.6672478795423262 0.5716958506393498 0.1778127347735817
0.3296620899718724 -1.880053900108799 0.2141054028931327
-0.534971626171213 -0.3434843864419307 1.256786527639856
0.5378819859441965 1.995193753188166 1.045135311479542
-0.8947284644319238 -1.176437580257405 0.2472903834418989
0.6870966242626987 -1.376389283671816 0.07693553306877979
-0.730579061791734 1.662523214752395 0.1191635619635326
0.5707394026371385 0.5868652603364086 1.367131774891698
0.08850361203082077 1.426358278478496 1.195838894904973
0.9717835244649256 -0.1421862760549678 0.6478843229717505
-0.6708253082255473 1.15430760199157 0.06105358533780801
-0.8830742830029061 -1.878139917885465 0.6958734696809308
0.4488135479389567 -0.142186276054973 0.1891856602981852
-0.740161791263985 1.091614164003891 0.9736820457273804
0.6188696581921618 -1.853462176406118 0.8780550000487842
0.3696891206194439 -1.822951383974597 0.213283133482019
-0.1413898470167593 -2.263138442339466 0.6993853489719639
-0.03635269510205295 -1.236767720536141 0.2064869170202586
0.5468495346528777 1.847573933646406 1.065000222505619
0.2573931488101706 1.341501977084243 0.1871715755694522
-0.5938329483202417 0.095688822420353 0.1777208585973125
-0.8310514898836028 1.763060391431176 0.8227679711359034
0.9744007938288394 -1.692410981423693 0.6657863515700218
-0.8975469947314989 -0.2480141235141001 0.5088229775538263
-0.4900932980937102 -1.376389283671789 0.1848410738736779
0.3552171478815722 -0.941891551907018 0.1978445715118011
-0.1408225833470261 -2.260282818782429 0.5360099438817285
-0.4404381211265857 0.7132804738239549 1.366532724119562
0.7566899618942798 -0.5805433673429787 0.1742582890631741
-0.8917232795041482 1.690405742214662 0.4396688768401431
0.9501309086796836 1.341501977084378 0.1229774537235859
0.7264565855406768 -1.822888997601835 0.1927729556520062
-0.3394712685624084 -1.630147041251692 0.2029038475003086
-0.9057202048697529 1.215622696124971 0.4393673571180874
0.9476117209490326 1.842672715556403 0.6878107911433453
-0.5058893046315585 1.068307309402515 0.1853696315320112
0.6474165287771819 -1.630147041251764 0.1575525090440271
0.6056335158789359 0.8498049497704698 0.1848733887883071
0.9529525564042028 0.8490408808342844 0.7700025937967847
-0.5696845229427576 -1.238110110766301 0.9717504751776216
-0.6565888768022474 1.71649019976661 0.1682358135375842
-0.8989041939930571 -1.24582902434541 0.9119720774341857
-0.01408584035841633 -0.1679618039961324 1.359343041078668
0.002499833385156712 2.27031811881652 0.9949803026101077
0.9640111629056654 -1.820375090677489 0.6437049319585735
-0.0141972285617103 0.2922544775818295 1.396486034605222
-0.1857873960115636 2.356094884659655 0.7940955279328225
0.003131617924638945 -2.226184488489258 0.7678251806517484
0.6851706448396679 1.66155459791032 0.1409243246389105
-0.119630770263556 -1.493727533255784 0.9582300239500525
0.3401641607187997 2.404583626298666 0.600614886479665
0.9852316258653121 1.459062337752267 0.5114221754114678
0.7919707342828803 -0.9994666811275685 0.9831517894183232
0.0871252136594103 1.714621890846505 1.100202951349602
0.9745563001476064 -0.3394976653146606 0.6448588751172979
-0.5914902672026481 -1.156421309269577 0.1908165532540879
-0.4053598581435549 -2.035668098756782 0.8363493754131816
-0.4310964815263284 0.3993055557847896 1.383214867752147
-0.8434124134609689 1.341544016733506 0.8600524728790233
0.2453368243765487 -1.075724633491804 0.2050529040552151
-0.5805620063135427 1.231080640682003 1.217442346087864
0.6870966242626987 -1.376389283671816 0.07693553306877979
0.7566899618942798 -0.5805433673429787 0.1742582890631741
-0.08220655100235502 2.400247317088881 0.6926904187358257
0.8738703607822979 -2.067631435036522 0.4217965810552514
-0.1824871651633708 -1.713236588585845 0.2099786280362849
0.9868956241076943 1.459063869418225 0.6451217837944213
0.9476117209490326 1.842672715556403 0.6878107911433453
0.9990278100545592 -1.324638222201348 0.6860895206277179
0.3061798300138684 1.426358278478616 1.191840211790168
-0.8662622312969781 1.027123324877743 0.2339212746268999
-0.8854141300436424 0.09568882242035307 0.3285864956448329
0.08879814211217593 -1.442811723405697 0.9667253447414731
0.6511749507408546 -1.742353028411401 0.1891048693460146
-0.6799887303981804 0.7837797149486698 0.1744610503195457
0.9363367829477169 -1.93077552657307 0.3757419213726709
-0.8727889272818157 1.842672715556402 0.5800384218226219
-0.6217716242147817 -1.276000099476343 0.1051065601773759
0.08834283477299421 -0.06270551765065227 1.379455137154305
0.003740542226078149 -2.271774633938147 0.3089216164410564
0.3243123782124617 0.2072016631024853 0.1923404236452527
-0.7859216969986651 -0.6419751057530676 0.9080568195828181
0.1097494833054577 1.279500320080321 0.1888042387491288
-0.4908438816040394 0.5074206162112368 0.1839887076953511
0.9644691712789644 0.8494311750339614 0.7094539638600308
-0.02874558989726025 0.9008555138930648 0.1974431536497305
-0.4909309012254405 -0.1421862760549689 0.1839662139478595
0.2740705323852067 2.399272271051379 0.6843047786795905
0.9805107624554166 1.573323634206922 0.5115161710157191
-0.8345398611778101 -1.166950120174205 0.9543728330964487
-0.8990433857761153 -0.2480141235141001 0.7088804425237714
-0.5340060227750675 1.543788405036965 1.111415505724691
-0.2775722940781343 2.142278330639651 1.036275365145347
0.9869654887420805 1.459068464416101 0.6973108327046279
0.9963773059409884 -1.228302746597088 0.5061302269577743
-0.7592830649892953 -1.19006895957515 0.1398613071351313
0.5580367215337035 -0.06270551765058895 1.358646856376697
-0.6314814229783065 -0.3682585568415569 1.156511725016535
-0.7759970953871949 1.406838328317537 0.9756027347201834
0.8508926862877948 -0.4290343790308004 0.1798704547301329
-0.4686872960291712 -1.141796771384664 0.9866674237779853
0.001806682287266735 2.282112970220345 0.9586850695961385
0.7305086785908641 -1.741988316967952 0.1533220427889294
-0.8997252173880153 -1.692410981423693 0.586420830460647
-0.6811297728421836 0.5716958506393498 0.1738683028927876
0.08910538214917613 -0.4635568185572259 1.234592811919348
0.4486918898169653 -0.2480141235141031 0.1892260078109254
-0.6575432692518715 -1.087082092730925 0.9805316897252384
0.6674537197200898 0.7082603502706283 0.178159954213921
0.982144844425396 -1.580253922035221 0.5643045481904704
0.9719202946246037 -0.2480141235141001 0.5088229775538263
-0.8363874331897199 1.153308008286627 0.07985607680594721
-0.4283992357712156 1.42635827847872 1.183454571733873
0.9978751551043885 -1.228302746597088 0.5752332769756416
1.000681637881854 -1.274321387056949 0.6868323175715607
-0.8035549512837894 1.66916994968078 0.1328313991355108
0.6282286720600119 -2.192632015729061 0.7110207615903885
-0.3733407011610147 -0.5482649542062054 0.189550344525599
-0.873187411188379 1.842672715556403 0.6427601924174913
-0.4893081471412451 1.341501977084343 0.1712759505225791
0.9711549362924334 1.690483732186005 0.6431698613193227
0.5606896162469138 -1.630147041251737 0.192345107884451
-0.8354460577425438 0.7059336003701078 0.8508340129055532
-0.5220036470378583 -0.9418915519070439 0.1894589314554542
0.6255523769486792 -1.733930484450943 0.9027887906875173
0.4484699047312542 -0.3394976653146614 0.1892996304465612
0.9647974893965527 0.9008555138932026 0.579856417661587
0.841540676574092 0.6329342877636213 0.179839160716201
-0.5760099012879116 0.2876128732582093 1.330169442359982
-0.7702605282541034 -0.1355505723055311 0.9436482241129437
-0.5000649522080199 0.7132804738239592 1.358108766512963
-0.8830742830029061 -1.878139917885465 0.6958734696809308
0.7333893616014567 1.341501977084378 0.01045573327837669
-0.547419793221575 0.7132804738239593 1.345409578095205
-0.85057675882012 1.043518320561862 0.1638400457546874
-0.8340434354805004 0.7820493760648954 0.8522872807634809
0.9135080556140589 -1.992671707266247 0.3718745866317425
-0.1220807538568578 -0.5685098044903324 1.168038206139975
0.6532441289549702 1.359803033038181 1.169763174758981
-0.8925827876734767 0.9535500831981658 0.5798603503113645
-0.3384257813260254 1.543788405036914 1.139262821879145
0.0882240819354852 1.486013958623927 1.169539863455642
-0.01755213453429373 0.5716958506392884 0.1964323264171649
-0.4165146642797909 1.775034935512798 1.079971834292667
0.3671195024061078 2.375716814133337 0.736428283539323
-0.7944472067234305 -2.037008133172307 0.7627581322665938
-0.4847041897625385 0.1806684109616071 1.374072203021221
-0.854437784573816 -0.1421862760549678 0.225576344463157
0.9612701366728147 -0.6492060001245961 0.7566840090529046
0.9867088607627625 -1.427932847499345 0.4345699876067856
-0.3279086534608556 1.847573933646348 1.076454937328284
0.6580569411972893 0.4954548950597225 1.32682728045229
-0.3482917860566335 -1.236767720536198 0.2024882339053978
0.1657494114988522 2.398637526541779 0.364799571650108
0.9620709183429498 0.9538242609520649 0.4364405363029505
0.2145426869069748 -2.260886344051436 0.7300273108189961
0.9635381968409679 0.9008555138932026 0.5111131554405193
-0.4877890162290963 1.401219127165554 0.1739893436238485
-0.8917232795041482 1.690405742214662 0.4396688768401431
-0.4893340855705216 1.689576990092598 0.1936764002110557
-0.893176931520077 0.4195734720034566 0.6479342574608125
-0.4887152320722 2.328952978276107 0.7302363175207809
-0.1206816698604684 1.300567108861235 1.248936604799947
-0.0136284367451255 -1.669575458005391 0.9329970055017935
-0.8900455489999822 -1.478849434104392 0.2442117850379489
0.9548428877972944 0.9532393817003712 0.7709663338055128
-0.6298634797046797 -1.208483566901434 0.1399352176420993
-0.8418327136873645 -1.815899229284617 0.2362848708158271
0.9021389321047943 -1.681593908391242 0.1147079678767181
0.7002875379963613 -1.236696308694058 0.122278829913504
-0.7395952154925707 -1.630528605840808 0.06884701332518842
-0.854437784573816 -0.1421862760549678 0.225576344463157
0.5622211745143932 -1.427932847499317 0.1845273584829102
-0.8070550920345627 1.910745354056446 0.8141521084786273
0.1950908802879239 -0.4184242233691288 1.254769539072348
-0.342764477550506 -1.733930484450898 0.9142435055101785
0.6494060874980785 -1.713236588585974 0.1774623367861069
-0.8431099694301143 -1.992853391714611 0.4260868528166986
-0.7534392136719117 0.958446814698247 0.9709522802719495
0.7581449992078865 -0.9418915519070462 0.1792792311022983
0.6313400124518317 -1.605913427570197 0.9243321690795263
-0.9121193250113834 1.459062337752267 0.5799405060160066
-0.533467547981837 1.65794734426047 1.08406149157165
0.8268750260963519 -1.818433458403814 0.1969802077102467
0.3933132760417567 2.354337859330474 0.7826408131101938
-0.8313303714476269 1.62702945051061 0.1095796751202442
0.5363960506909621 -1.392311636323611 0.9601870834529581
0.7586572110618483 0.09568882242035301 0.1737764267165184
0.5690360635301066 1.171040454004848 1.275385581265442
-0.8972882616003332 -0.1421862760549678 0.7094271198818939
-0.8812014240977419 -1.820051092785269 0.3900568714566851
-0.6894165088184728 0.875808164933533 1.098784997415989
-0.7754274946699282 1.014836461283492 0.1659702283294847
-0.7676881201029561 0.572639104550056 0.9634027576519028
0.7112854275303913 1.068237934187592 0.136987997096691
-0.5492624192082951 -1.93999058037326 0.2002520692553851
0.1864977367807535 -1.933599269606633 0.876598487433786
0.6682072265047468 -0.1421862760549679 0.1777309454754974
-0.3405395004195762 -1.427932847499278 0.1979519808154396
0.4488419364606636 0.4198008660976551 0.1891762455080958
-0.6942284729867582 0.2348682188811504 1.098077148978918
0.902389845011528 -1.631398296655844 0.09317667348940953
-0.6837716993147819 -0.9418915519070463 0.1792792311022983
-0.1840109684501793 1.279500320080355 0.187149579979641
-0.854437784573816 -0.1421862760549678 0.225576344463157
0.08765770179571585 1.600928736618055 1.126791204545296
0.01440950606250035 2.400247317088394 0.696689101850561
0.961200844030541 -1.199814364240666 0.9160665761620915
-0.1192459102354994 1.426358278478545 1.194184236135511
0.3072752613330609 -1.940401944824429 0.214872977784089
0.4477140010541192 -0.5482649542062056 0.189550344525599
0.7007949426664195 2.244462917469695 0.7217545701628814
-0.1210803220251286 -0.4635568185572296 1.232938153149926
0.1092496068385504 -1.713236588585809 0.2116332868057691
0.9548568280340063 0.6311338747105095 0.7678355296531325
0.9744007938288394 -1.692410981423693 0.6657863515700218
0.411003121742811 -2.214121887394739 0.2444510158300096
0.4253594750614824 -0.5685098044903547 1.162527988088744
-0.2493092025204351 -0.5041095428867926 0.1926399405880102
-0.9238798872867722 -1.228302746597088 0.7263005905160126
0.7131314281170236 0.5620218130932737 1.239029153454912
0.2568604650564549 -1.713236588585845 0.2099786280362848
-0.8947375964603603 1.019513135918671 0.5111486208955529
-0.6822293964392098 0.5074206162112396 0.1738090073421949
0.4520027031979752 0.7082603502706144 0.1896146690366098
-0.652451507460114 1.768261684947297 0.1800363090144193
-0.6822293964392098 0.5074206162112396 0.1738090073421949
-0.6827146361269172 0.9807495114153633 1.095355193556252
-0.88919372303788 1.279500320080484 0.237688588293854
0.07124858095845472 -2.23736440661682 0.6335950731629885
0.9141043011503938 1.279500320080484 0.04396381174484677
0.4074534401299098 1.714621890846719 1.093038074528803
0.5419699540604553 -0.8601563452314173 1.021619349118073
0.8263957929631561 2.099251275438719 0.5101921181149745
-0.3944798398342029 2.34914658464518 0.7786963812293997
0.5627537212866134 1.661450330536351 0.1898597831885062
0.4274071636516372 1.068307309402476 0.1922324565770217
0.806216284676089 -1.739423092111092 0.1480478091712089
-0.6366073345195658 0.9080999792307634 1.215655756262846
0.7573539619537795 0.9008555138932026 0.17487913012536
0.6607038887269912 1.099733231499693 1.254363570506528
0.8483754216514057 -1.192495047853687 0.9677607522639239
-0.03761902285752015 1.042102489585051 0.1973117654748861
-0.4889155459716732 1.364404719194706 1.202977492625728
-0.7453354356801454 1.401219127165591 0.00677287515332523
-0.818050526793678 -1.931675224763021 0.2317851840298858
-0.3408217610553873 1.661450330536296 0.196780927563721
-0.8497931446209996 0.4198008660976701 0.2255437902969164
0.5291438892488729 -2.241690313457532 0.4733204023295148
-0.1206376188010648 -1.392311636323478 0.9709167478545752
-0.4279704309201748 -0.1679618039960962 1.346958717907614
0.06673567887955874 2.356145900412113 0.8012604047534837
-0.905851310079378 -0.9418915519070463 0.6924782779063565
-0.6927352424395395 -0.1146410426651744 1.082237054216388
0.713326996477796 -2.156939871093078 0.7132247724582679
-0.6936722034026965 -0.2206509348297652 1.072301092724396
-0.344735973895608 0.3993055557847695 1.388434314102442
-0.6282230860847129 2.234051868496191 0.5922699446858353
0.8127922845225857 1.916307509220744 0.9247032850974636
0.9606051945163395 0.6329342877636213 0.4352317311946786
-0.308416872635556 0.9008555138931356 0.1934444705348642
-0.3397496340916525 1.516261283671663 0.1937219416275521
0.7290537019514611 1.661971667406037 0.1222542432874079
0.5733358750165633 -1.236767720536229 0.1933542518583738
-0.122806470989231 0.6513926170921128 1.38211038014348
0.6503832011810162 0.2876128732582093 1.330169442359982
0.50898204674214 1.235688356888256 1.262396351783341
-0.7706316571484446 -0.5721659167584475 0.9162182645587309
-0.7768746076807083 -0.3394976653146606 0.179774175139344
-0.7647794075114123 -2.009136266332049 0.7992293468121989
-0.9108583259722076 1.459062337752267 0.5114221754114678
0.6580569411972893 0.4954548950597225 1.32682728045229
0.9167210484537814 -0.02218131473839248 0.8414060602651119
0.8372303430210927 0.7106048222149316 0.9659479601572452
0.6907925861078165 1.279500320080484 0.0613022135700368
0.972643429571201 1.215622696124971 0.3478490226400366
0.3008556666725117 -1.793640727648549 0.9054890465760466
-0.4127013536357921 1.847573933646395 1.071235490977976
0.8090408406142589 -2.095753960010424 0.6143929256282636
0.9885393543906632 -1.222605070125803 0.8541210832397329
-0.4351841143003562 2.232041218180004 1.001272842606173
-0.008780841520958498 -2.098758711899994 0.2205078305931978
-0.607440350164709 -1.675440817723808 0.1252485821005142
0.1089913680821703 -1.529345596848534 0.2028120414829213
0.01136778235868679 2.380216827493497 0.7550478751826101
0.9866198373844346 1.279500320080484 0.5799058486874862
-0.7754274946699282 1.014836461283492 0.1659702283294847
0.260173731660314 -1.276014381844691 0.203387398575263
-0.9058068591935702 -0.9418915519070463 0.6377416588757614
-0.03468959456405122 -1.478849434104248 0.2023778942590108
-0.8743316394139485 -1.478849434104392 0.1358229898118276
-0.6176697722705202 1.902585944333525 1.041083843782897
0.9509858715443678 -1.791906918521924 0.8356604528707525
0.7125159181624381 0.8412680993489343 1.223169178600362
-0.3357335383197608 -2.243020951641414 0.5276243038254307
0.7495149977618133 1.104023491256688 0.08988219726488013
0.9692686394545502 -1.75604929674941 0.6110925294452961
0.962406601192376 -0.247911342862923 0.7667232665570929
-0.486313257285164 0.292254477581949 1.375677753827618
0.7681776603058461 -0.4748532314213466 1.029284241264258
0.9642453361997968 0.8498049497704747 0.5798526938673175
0.6615729387941981 -1.822938906700116 0.1972998468261303
-0.7506443868549877 2.104389264187821 0.7042301074440422
-0.4482802056131588 -2.230327044676418 0.2901469909746522
-0.4909751205830004 0.2072016631025111 0.1839547835889037
-0.3414869231171621 1.689576990092543 0.1989932479758251
0.5363960506909621 -1.392311636323611 0.9601870834529581
0.9561945329048205 0.5052731345915486 0.7674069652114868
-0.2494651040962166 0.6329342877635918 0.1925658074253069
-0.8975469947314989 -0.2480141235141001 0.5088229775538263
0.9436213573416312 -1.925142939117531 0.7546991192857904
0.4581896449415219 2.229727841736611 0.241740257189406
0.2146755839178348 -2.283166133838849 0.4879413108581736
0.4210656389725395 -1.156421309269533 0.2049055040940813
-0.5686892930032733 -1.28985429337217 0.9659819979106645
-0.6803206145021907 1.369480374417171 1.067753031921263
-0.218622006923845 1.927149168899364 1.069254624942961
-0.2491481268644808 -0.5482649542061996 0.1927165382316196
-0.0143392921849793 -1.940401944824326 0.2188716608989485
-0.4053598581435549 -2.035668098756782 0.8363493754131816
0.6952149451606998 2.245193297637927 0.4238852741613128
-0.1215577113273808 -1.289854293372036 0.9829469307846271
0.9842326840482374 -1.079067696403546 0.505591419093282
-0.8283572729374699 1.980460118353621 0.6449598186881862
0.9084167353736046 0.7820493760648954 0.8522872807634807
0.9050789614390863 -1.478849434104392 0.05308653901875034
0.8494105503080355 -0.5482649542062097 0.1800292493951884
-0.222833792085932 -2.015893115722614 0.2158004610505086
0.1954821313917969 -1.341394663555587 0.9768063318507263
0.8924238266867823 -1.931675224763022 0.2317851840298858
0.9599340457116755 -1.691562487329485 0.3306680681363769
0.841540676574092 0.6329342877636213 0.179839160716201
0.9399030655460505 -1.68768234205343 0.1661459229479523
0.5525487277137213 -2.145327461489764 0.2092481518964529
0.942005758232574 -1.632615983388281 0.1553968249832186
-0.03634065718465217 1.006941419361223 0.1976999894318148
-0.8949866078292478 -1.75604929674941 0.6526639420359417
-0.3333771204884675 -2.280656435316538 0.4238297008772621
-0.7825088220031048 -1.019910952933248 0.9659195602082903
-0.4277112982944487 0.1806684109616026 1.382496160627814
0.4498140695083803 2.362796308249941 0.7324838516585288
0.189664435845473 -1.854026265536151 0.8950199329227695
-0.1206816698604684 1.300567108861235 1.248936604799947
0.9098193576356481 0.7059336003701078 0.8508340129055532
-0.272539602803778 2.393336582284694 0.6780695102072388
-0.4604605892279736 -1.442811723405889 0.9543410215704099
0.7680455032958012 -0.2206509348297653 1.072301092724396
0.1537822059958658 2.420020278707661 0.4408044109312789
0.7015216520219589 -2.131918876290655 0.7436600297574765
-0.3506909899866489 -1.442811723405856 0.9595604679207095
0.8483754216514057 -1.192495047853687 0.9677607522639239
0.7160299230981053 -2.179129894393797 0.4686133128548098
0.7280490500576566 1.621634220302312 0.09359223972330519
-0.1115784715370235 1.927149168899274 1.071598649288307
0.3105236179233988 2.228726571163167 1.017204838386201
-0.4892457163913958 -1.742353028411372 0.2042345842372987
0.8391527074045169 -2.009136266332049 0.7992293468121989
-0.6850007438265549 0.9524515496564705 0.1742806973056811
0.9611784484174075 0.5716958506393497 0.4352038413579791
-0.2499362527927344 0.09568882242032997 0.1923417671260235
-0.8812014240977419 -1.820051092785269 0.3900568714566851
0.1119923227505839 1.042102489585051 0.1973117654748861
0.3017457389268199 1.600928736618187 1.122792521430489
0.1974659729699515 -0.860156345231361 1.03234901351968
-0.1329019815276101 -1.880053900108741 0.2164494272385084
-0.1294245618013953 -0.5041095428867877 0.194983964933388
0.5314654780820589 -1.547047008826623 0.9394039134295873
-0.4900932980937102 -1.376389283671789 0.1848410738736779
0.7930111470150333 -2.118776528966714 0.2850400175297255
-0.9220040060478838 -1.228302746597088 0.5061302269577742
-0.6464741159423237 -2.080058441384344 0.7792385000589246
-0.516606699082849 1.927149168899508 1.05068928453351
-0.2775722940781343 2.142278330639651 1.036275365145347
0.7644427029604868 2.102134357231551 0.2494624155764267
0.6494060874980785 -1.713236588585974 0.1774623367861069
-0.03487630694548659 -1.713236588585809 0.2116332868057691
0.5012994716445989 0.05991514932342334 1.377606326886807
0.3102913312410577 1.171040454004751 1.292195178928332
0.1918906244671779 1.543788405036769 1.144773039930479
0.8814283919276672 1.910745354056446 0.8141521084786274
-0.2324683151270817 -1.49372753325585 0.9558859996047224
0.1966326980043592 1.037813279131258 1.327110771850738
-0.581537840768244 -1.324638222201343 0.1471978178638238
-0.01241854510555612 -2.015893115722505 0.219799144165368
-0.5108317191706944 2.274967712831132 0.9371344047309891
0.8482378586756585 0.3164655755702469 0.1796135492189917
-0.3474735138173619 1.235688356888222 1.267615798133646
0.9587305259983432 -0.5802494816201181 0.760361132651336
0.4195913173028854 -0.3434843864419312 1.283129120014504
0.8442042539142614 0.2123961988651837 0.9547502028148183
-0.2498677325887278 0.5074206162112066 0.1923743477517016
-0.3530702881116509 -1.341394663555685 0.9712961137994107
-0.2342753866483557 1.3005671088613 1.246592580454604
0.3095555199821271 1.235688356888164 1.270781991839634
0.5653484204761049 0.2072016631025111 0.1839547835889037
-0.4959848652553318 1.104347066446941 1.293486122669736
0.4828166876712079 1.927149168899496 1.060868984886662
-0.8477626796532053 -1.99122277423457 0.5274356419553378
0.9654782859586196 -1.75604929674941 0.4609015676025643
0.3005267204173808 -2.257434247896042 0.7268611171129964
0.2577778513584438 2.340602640746174 0.3000265789599981
0.608379322668172 1.543788405036965 1.111415505724691
0.4252275498057686 1.104481241785616 0.1905552738851641
0.6055340810485812 0.292254477581949 1.362978565409859
-0.1200244208030345 1.364404719194529 1.222131114633964
-0.7786045368629264 -0.9422773526404074 0.1853612353241147
-0.8341121856783786 1.401219127165591 0.04024258372102227
-0.2484677249665386 -0.6494185910699342 0.1930401320183506
0.5226535055062632 -2.230327044676418 0.2901469909746522
-0.2496753548557442 -0.3394976653146625 0.1924658241525854
0.257763483317311 -1.376389283671714 0.1999949221775104
0.4205466575281105 1.300567108861361 1.243426386748616
-0.8891648969478634 0.9008555138932026 0.5111131554405193
-0.8562594487921846 -0.3394976653146606 0.2258990191048537
0.8397647606545985 0.7837797149486698 0.1802894730371099
-0.8345398611778101 -1.166950120174205 0.9543728330964487
-0.2331452158332155 1.364404719194597 1.219787090288621
-0.6266695465760404 1.15438084207621 0.09397708149275191
-0.5357740120523408 -1.930608622808381 0.8596009634179844
0.2974938456922485 -2.268322537783019 0.3017567396202178
0.8390986247422385 1.696052658501568 0.9508489617048574
0.5291438892488729 -2.241690313457532 0.4733204023295148
0.6488391168344133 1.459062337752259 0.133839142931599
0.9735277274291118 -0.2480141235141001 0.6467390226477119
0.3053790250275086 0.05991514932338355 1.385991966943051
-0.7388307266295053 -1.677245454316066 0.09431635496217794
0.5631632694409974 0.3993055557847945 1.374790910145551
0.9565646112729598 1.151301684699578 0.2397168650290561
-0.7422734228833383 1.623036358799062 0.09056026195407843
0.5306169021994855 -2.218806998401108 0.5213890353530734
0.2118167507130525 2.400052323543466 0.6895242250298742
0.9719202946246037 -0.2480141235141001 0.5088229775538263
0.6383030771878469 -1.879971627218639 0.1994844943644288
-0.374468636567559 0.4198008660976551 0.1891762455080958
0.2043223926571338 2.419733827463816 0.5238216744799676
0.685612888419822 -1.742280086122716 0.1678379774863024
0.9602726715234242 1.086013063583128 0.7717572431481081
0.5654708861047815 1.300567108861406 1.229782982791713
0.7160299230981053 -2.179129894393797 0.4686133128548098
0.4520027031979752 0.7082603502706144 0.1896146690366098
0.7309621766953518 1.71649019976661 0.1682358135375842
-0.7647253248491339 1.696052658501568 0.9508489617048574
-0.8868783544887582 1.763060391431176 0.6884778949012752
-0.7662315926318034 0.7082603502706285 0.1800494201862679
-0.2496753548557442 -0.3394976653146625 0.1924658241525854
-0.7768746076807083 -0.3394976653146606 0.179774175139344
0.4903085431167991 2.327054936426931 0.8298982529617218
-0.4923202741683768 0.5000903584836711 1.371645124251012
0.850443617764125 -0.7830318479976733 0.1815534457999035
0.003124718934609009 -2.23736440661682 0.6335950731629885
-0.120261008110088 1.910745354056278 0.205765831387193
0.9561945329048205 0.5052731345915486 0.7674069652114868
0.8972086839022035 1.981514831902397 0.4362410723654304
0.5496524839942397 0.9524071998747452 0.1904071995358432
0.9497992169075397 -1.08515081384846 0.239592337747522
0.1092496068385504 -1.713236588585809 0.2116332868057691
0.7264565855406768 -1.822888997601835 0.1927729556520062
-0.4837565736548082 0.05991514932342702 1.369182369280213
-0.5113174170888036 -0.5685098044903626 1.149395278263199
0.8409486901021626 -1.738618223587112 0.8936678345527789
-0.58193745154738 -0.4229782173422259 1.195688844238521
-0.119630770263556 -1.493727533255784 0.9582300239500525
0.322841024859639 -0.6494185910699343 0.1930401320183506
-0.120261008110088 1.910745354056278 0.205765831387193
0.5246641690237598 -1.733930484450935 0.9090240591598739
-0.4700045862851844 2.145826831294376 1.020431786469061
0.8340624750322774 1.045034631208095 0.1410069835028941
0.08967163715925583 0.6513926170920907 1.383765038912944
-0.02904360207070873 2.419951494677273 0.5293318925313139
0.9803754342971714 -1.580253922035221 0.4970876618638782
0.4158588389707958 0.05991514932340865 1.382825773237094
0.8391527074045169 -2.009136266332049 0.7992293468121989
0.1073439516818075 -1.774083349829603 0.2159353107600275
-0.02904360207070873 2.419951494677273 0.5293318925313139
-0.8934266147115214 1.215643040781306 0.7709486165351468
0.2041625217926801 0.09568882242031568 0.1946857914714036
-0.7671673766809877 0.6329342877636214 0.179839160716201
-0.6751416978687088 1.104023491256688 0.08988219726488012
-0.4522623359988784 -2.191651782941116 0.2380606320304265
-0.8416090370825332 0.09576399492266516 0.8427155722047772
0.4285502428877164 -1.289854293372135 0.9774367127333185
-0.873238421055928 1.842672715556403 0.6878107911433453
0.2841573621980904 2.057111781248944 1.050841138065227
0.7430294335327858 -1.275942970002588 0.07163794830263122
-0.01461308657857399 -0.4184242233691269 1.256424197841779
0.3127245553575916 0.7132804738239078 1.374918364175865
-0.7186378471219288 -2.118776528966714 0.2850400175297255
0.3120446589516658 0.9328743376569303 1.345315504164275
-0.7834685260319401 -1.447504303346384 0.939174644059487
-0.6368359186742313 -1.924400260904123 0.8555261669698822
-0.1230400552042877 0.7895723358910524 1.369870097090236
0.7991907563845522 -2.104794690510672 0.7301356457838121
0.3847626706289538 2.228726571163258 1.011985392035905
-0.3944798398342029 2.34914658464518 0.7786963812293997
-0.6021178996040136 1.042102489585181 0.1756314086665121
0.6084623669645982 0.3993055557847945 1.362091721727793
-0.5929982161252794 -0.4290343790308004 0.1779346541143756
-0.3431365781906534 0.2922544775819245 1.389321157784502
0.7280490500576566 1.621634220302312 0.09359223972330519
-0.01447418751188273 -0.3434843864419331 1.290293996835241
-0.7520224930700517 2.099251275438718 0.5101921181149745
0.685612888419822 -1.742280086122716 0.1678379774863024
-0.1183938019522879 1.486013958623978 1.16788520468618
0.920159291006299 -1.992214230431982 0.4758685606760923
-0.3064375764700629 1.768299966147401 0.2012885285820544
0.9906403144809601 -1.427932847499345 0.5050511529072369
0.9749172144055827 1.150758724835695 0.4390958321191503
-0.1105811237291108 1.995193753187925 1.062100244353547
-0.2276225393897477 -2.239540179315515 0.5815761007164949
-0.8624539812296908 1.842672715556403 0.732944674884454
0.1936192101285835 1.426358278478546 1.194184236135512
0.9074440206697395 1.459062337752267 0.0497355978218506
-0.3541769429946119 -1.289854293372135 0.9774367127333186
-0.1860575714809358 -1.156421309269504 0.2072495284394577
0.3243123782124617 0.2072016631024853 0.1923404236452527
-0.8397310012572892 1.279500320080484 0.04396381174484675
0.9847145149160059 1.215622696124971 0.5798945752400627
-0.02010529115087079 1.842672715556194 0.2064260646749385
-0.5483054672402269 2.228928189996108 0.9809909329530754
-0.1215114709516986 -0.4977307672149419 1.212945260671663
0.9471622271749201 1.842672715556402 0.5800384218226219
0.4175098780837579 0.2922544775819245 1.389321157784502
0.3017457389268199 1.600928736618187 1.122792521430489
0.9715871404066074 -0.5805433673429787 0.4330346269188219
0.2156962691601189 -2.226184488489413 0.7638264975369276
0.7004239522911688 -0.08516094731151172 1.22436935925712
0.5142571964535608 0.8660563052761989 1.348787857246089
-0.8938618052448002 0.2071779631860915 0.6479639024326094
0.9817722886336261 1.573323634206922 0.579966145727317
0.1483971539896203 2.228726571162845 1.022715056437501
-0.1561796381548816 -1.822951383974541 0.2156271578273947
0.502084598187553 0.1806684109616026 1.382496160627814
0.1411260454214922 -2.247324397003804 0.6687311821324831
-0.06476911762679978 -2.271774633938242 0.3072669576715832
0.986313266462446 -1.473149661654205 0.8329556325329031
-0.5744161931375292 1.571531544034174 0.1487536681922078
-0.3368660019411587 -2.22010253947601 0.6212107499918805
0.5029823120375371 2.270802104527351 0.9718848378818039
0.0888474874049465 -0.3434843864419331 1.290293996835241
0.9852316258653121 1.459062337752267 0.5114221754114678
0.2263465542322591 0.8498049497703802 0.1956030531900362
0.7582944258845666 -0.4290343790308004 0.1739902222335815
0.9154909974408413 0.2068868338454169 0.8442571567033897
0.1928179035059101 -1.605913427570019 0.9412971019534975
-0.2497430339722256 0.5716958506393199 0.1924336433022952
0.9743203766276902 1.401243876081967 0.7613204778388517
0.4049370960410922 -1.774083349829695 0.2119366276451677
0.1946674659678454 -0.3434843864419326 1.288639338065795
-0.1183938019522879 1.486013958623978 1.16788520468618
-0.3397496340916525 1.516261283671663 0.1937219416275521
0.08878334608177169 0.3993055557846722 1.395599190923186
0.6040014236671516 -0.1679618039960946 1.32583557188326
-0.4232001466444006 1.543788405036955 1.134043375528838
0.7543620302912848 0.7837797149486698 0.1744610503195457
0.8721574628128608 -1.992900199513609 0.2308770962135732
0.5817804010679586 0.7837797149486662 0.1846407506727019
0.1943977206961186 1.364404719194529 1.222131114633964
0.8491797601569341 1.578897336144862 0.9663420425235646
0.08924681851697403 -0.4977307672149361 1.214599919441081
0.3236825024135355 -0.5041095428867926 0.1926399405880102
-0.5281379428632992 0.05991514932342704 1.356483180862455
-0.575032787604974 -1.713236588585974 0.1774623367861069
-0.1194498955669 0.2922544775818549 1.39483137583578
0.6182155364212818 1.037813279131413 1.295257961424763
-0.2525023036119731 0.7082603502705952 0.1927808627426347
-0.8692480574485267 -1.925142939117531 0.7546991192857904
0.9181978035724681 -0.4289256083246488 0.8334081213804599
0.8635821185240812 -1.294546933877842 0.957076809376249
-0.8766125716512633 -1.791906918521924 0.8356604528707525
0.8232901337368014 -0.8849866564121258 0.9835938170444549
-0.1869809247626018 1.154399152097252 0.190790653415181
0.9574778593990333 0.2070078737124445 0.7671348955210011
-0.3405329166295124 1.486013958624119 1.162374986634846
0.9672924576270872 0.9535120851966205 0.6482395535449776
-0.3782720553496876 -1.880053900108853 0.2109392091871135
-0.8205567145662827 1.060963623081363 0.1284116083986586
-0.6390219479905802 -0.5204429422861278 1.101167557813236
-0.01241854510555612 -2.015893115722505 0.219799144165368
-0.4868432785868442 1.516261283671715 0.1817331590801786
-0.8906414263627502 0.9005925783668182 0.7096395255331662
-0.1477634852037047 -0.9418915519070006 0.2001885958571797
0.9827009505937825 -1.580253922035221 0.7021529466215573
0.2381718341505475 0.900855513893094 0.1957884948802438
0.9944399728669378 -1.31893908773789 0.8465922947388144
0.6133831947398887 -0.7026246927939233 1.075045578379494
0.7033655071448627 0.2673663464181645 1.241397240573808
-0.4951368517999485 1.215622696124939 0.1743248790537684
-0.1824871651633708 -1.713236588585845 0.2099786280362849
-0.9240625644110823 -1.228302746597088 0.6403532061806111
-0.7395045858245362 -1.529345596848685 0.02963468084932387
0.809741840985167 -2.102967584576351 0.6547703279537703
-0.8973378520640534 -0.4290343790308004 0.4330530742421496
0.8459144838647795 0.9579710240190873 0.1796437828189816
-0.8999130561662281 -0.7829546878510012 0.5046514229115917
0.4473911403196405 -0.580543367342974 0.1896574357666541
-0.7395045858245362 -1.529345596848685 0.02963468084932387
-0.9076276746030811 1.279500320080484 0.4394789516007265
0.7004517222197622 0.03628439147063709 1.233479314026208
0.1081694672379218 1.716681605767424 0.2042342328526075
0.7290537019514611 1.661971667406037 0.1222542432874079
-0.7323688175628289 -2.112352853642554 0.5188964046017481
-0.5804920404989034 1.279500320080478 0.126930700723778
-0.8776850808469231 1.279500320080484 0.1256768781998381
0.850443617764125 -0.7830318479976733 0.1815534457999035
-0.7698309540211568 0.2123961988651837 0.9547502028148184
-0.1215114709516986 -0.4977307672149419 1.212945260671663
-0.03472307278822524 1.516261283671568 0.1977206247424204
-0.7338251508848948 -2.099830001396104 0.5684314990250192
0.6431091212620583 -1.087082092730925 0.9844761216060327
-0.7300335587940922 -2.128926327835738 0.4701157786252657
-0.9003050400627686 -0.7829546878510013 0.6372509903992146
0.9050789614390863 -1.478849434104392 0.05308653901875034
0.9161900985037677 -0.503576089438895 0.8315787599633606
-0.7754274946699282 1.014836461283492 0.1659702283294847
-0.1226972505872224 -0.7026246927938803 1.09283126967875
-0.873187411188379 1.842672715556403 0.6427601924174913
0.9187488237898502 1.910355404199734 0.3348179608749462
0.8066096983056178 1.687161222087607 0.143590200303193
0.9176747379537106 -1.759065988975933 0.8753893752438087
-0.9078324275157825 1.573323634206922 0.6917279098576263
0.3093832111656161 -1.341394663555638 0.9744623075053918
-0.7957867670933757 -2.066359643897979 0.3640684768167491
0.9505334896400586 0.7837797149486698 0.3289321349730512
-0.9185053349926415 -1.427932847499344 0.6841245270428589
-0.8035549512837894 1.66916994968078 0.1328313991355108
0.3117107058650409 0.9845222424067698 1.335277810165191
0.5023437308132794 -0.1679618039960962 1.346958717907614
0.188503492831666 1.775034935512591 1.09070149869431
0.9287012800779222 1.516264300820482 0.8425661802106702
0.06300551753437697 2.380216827493497 0.7550478751826101
-0.8899538158332827 0.6329342877636213 0.5110482076609592
-0.2361503180302944 2.228726571163167 1.017204838386201
-0.7432376606994607 1.571923895347502 0.06141198243527634
0.8567735830058451 1.983263102155534 0.8134944943392595
0.1936192101285835 1.426358278478546 1.194184236135512
0.8139685153856749 -1.630528605840808 0.06884701332518843
-0.8937498698079625 0.2071068634368254 0.708736821217768
-0.8871998120131039 -1.755815568339397 0.4010587296726361
-0.8674064588445958 -1.145057441230192 0.9204936283393419
-0.1297892218995959 0.09568882242031566 0.1946857914714036
-0.9243215997752396 -1.324638222201348 0.7768731706133973
0.08871259207804304 -1.940401944824326 0.2188716608989485
-0.8268899812136084 1.980959177081805 0.5115590661881209
0.311058539889808 0.5868652603363553 1.38394137255459
0.9594926561549331 -1.82037509067749 0.4457323802891684
-0.5604879885901458 1.99061426485596 1.038607218304559
-0.01506026919057806 -0.5685098044903243 1.1696928649094
0.7211378229460728 -2.144567685905248 0.6478629861400225
-0.2288341453848847 1.543788405036844 1.142429015585135
0.8482378586756585 0.3164655755702469 0.1796135492189917
-0.5685968112730145 -2.125965298261529 0.2051780628707147
-0.4808749110007757 1.600928736618312 1.106229151295197
0.5823079664954287 -2.027439894588157 0.8298859689480362
0.9761679914803039 -0.9421202891479308 0.7407469819890095
0.4907939379609232 2.142988030770666 1.024731763928121
-0.9241317677598321 -1.274321387056949 0.5063349108190887
-0.3103893707358494 2.228726571163258 1.011985392035905
-0.7318429847829846 -1.739423092111092 0.1480478091712089
-0.03061931202646355 2.420020278707537 0.4431484352766426
-0.8624539812296908 1.842672715556403 0.732944674884454
-0.06652865841489278 -2.242992275470718 0.5870863187678306
-0.8399643779784416 1.690483732186005 0.828777618082309
0.7115236157636472 1.690026569798481 1.069971532200239
0.8568821218962093 -1.019910952933248 0.9659195602082903
0.7516964437416391 -1.34139466355572 0.9558969670959604
-0.1293308885073824 -0.5482649542061931 0.1950605625769967
-0.9118920470724968 -1.529345596848685 0.6788620206306383
0.9731148445304575 1.086011258556391 0.5111773417063635
0.3738432030404333 2.299781175040492 0.8983130240197769
0.9852316258653121 1.459062337752267 0.5114221754114678
-0.7338251508848948 -2.099830001396104 0.5684314990250192
0.5274561477016166 -2.256442482076232 0.417594432404904
0.9365632401553297 -1.751306444283599 0.2399317088373582
0.4131008156796445 -1.854026265536299 0.8895097148714444
-0.4359622562668069 1.171040454004839 1.28380953887204
-0.8917232795041482 1.690405742214662 0.4396688768401431
-0.8891648969478634 0.9008555138932026 0.5111131554405193
0.9532599983910294 0.9003180220610759 0.7704779696394768
-0.9239887970937992 -1.324638222201348 0.5755704921812317
0.1934521259002897 -1.547047008826453 0.9501335778311941
-0.5725428033249633 -1.529345596848678 0.1422056941620042
0.4158588389707958 0.05991514932340865 1.382825773237094
-0.9213522640935604 -1.376389283671816 0.7739960355358067
-0.6912283586411185 1.718328363763822 1.034784151299047
-0.9029796799281455 1.630035053096156 0.6434670614166337
-0.9117571809703235 1.341519050340537 0.7068886032031871
0.2272474454791559 2.229721291941012 0.2563087102202628
0.1090432677166716 -1.630147041251609 0.2069025306151695
0.8790788516239165 -2.05320477978153 0.7177304850920053
0.7060524825012098 0.3744315784925287 1.24212451763963
0.1054693309729917 -1.075724633491786 0.2067075628247002
-0.5463115990497747 0.6513926170921951 1.350257569717475
-0.9256296801356946 -1.274321387056949 0.5754020735845961
-0.8851193562618283 -1.82037509067749 0.4457323802891684
-0.8902116059122707 0.8497115060863463 0.648145669244192
-0.880279213086849 0.5074206162112396 0.3286029432309738
-0.4875565967080437 1.621074602232424 0.1855746339098873
0.2677503636656127 2.088496370396129 0.2244964775957746
0.9788377645078288 -1.633561711262334 0.6467454991783369
0.9745563001476064 -0.3394976653146606 0.6448588751172979
-0.6316791826081052 0.3744315784925287 1.24212451763963
-0.7765193863946904 -0.4290343790308004 0.1798704547301329
0.7412556601896866 1.215622696124971 0.03538793409070957
-0.1709635244834645 -1.075724633491804 0.2050529040552151
-0.06675274552840806 -2.247324397003804 0.6687311821324831
-0.6842839111687435 0.095688822420353 0.1737764267165183
-0.8680155013920694 -1.366557377680403 0.9336748957787928
-0.8965463571472294 -0.6494185910699479 0.5703861464704745
-0.6828159954030744 -0.5482649542062098 0.1741511978221192
-0.1890736184880605 -1.188403515064769 0.2063281700880943
-0.7464993968794436 2.102029549541677 0.4305678814091575
-0.464933068978556 -1.289854293372163 0.9722172663830196
-0.8880333012992714 -0.247911342862923 0.7667232665570929
-0.1843961202157204 2.14227833063953 1.039441558851331
0.9928189152283462 -1.173136623827972 0.6882446177301871
-0.6894165088184728 0.875808164933533 1.098784997415989
-0.8893714456400353 0.3164655755702469 0.4351830374673766
0.9482917166266629 -1.877857382213863 0.3810678658147377
0.2589170274070967 -1.324638222201252 0.2011297166086088
-0.8700107594610507 1.093015963531709 0.1544611738707762
-0.01502828539799964 1.104347066446745 1.31429440344742
-0.1403022840247343 -2.283166133838849 0.4879413108581736
-0.9112032814886938 1.341501977084378 0.5799171385798803
-0.9115459302187285 1.516261590004946 0.6441344334446713
-0.4052887056403517 1.995193753188153 1.0513705799519
0.8391026872804138 0.8498317994825411 0.1805568477411921
0.3127245553575916 0.7132804738239078 1.374918364175865
0.9509858715443678 -1.791906918521924 0.8356604528707525
-0.7189235229328289 -0.6207048022996156 0.9963520878076654
0.944726268740818 -1.93083203370739 0.5314133771477512
0.9932739910790415 -1.324638222201349 0.4368294758685294
0.5674024321903503 1.235688356888265 1.253972394176743
-0.02915213710459579 2.412297934917205 0.6175798193536176
-0.7701836819951398 0.3198846482490032 0.9575635850583392
0.2574036699201107 1.689576990092483 0.2013372723212054
0.9862653469656014 -1.529345596848684 0.6788620206306382
0.2381718341505475 0.900855513893094 0.1957884948802438
