-1.020281304163873 -0.06763990839099549 0.4204514163262768
-0.4362983247453638 -2.365770718944944 0.4829132347293872
-1.023531203367982 -1.201290795395314 0.4847770508314825
0.9287854082301774 2.067473116114226 0.6831340704926522
-0.7444806286284491 -2.068879707118493 0.1798199445892804
-0.8769991875359599 2.079101113787874 0.6755722382053166
1.064019173395924 1.156817281081937 0.662392251463674
1.023740119614767 0.4616513617433689 0.192414074011962
1.044094094542996 -1.145650200930004 0.1975515788418963
-0.4048977360164929 -1.499915730665131 0.9052880342343557
0.8340997877788 -2.107758555133399 0.6054368033545409
-0.9037220373675632 1.302304571022801 0.905877981859738
0.821632481837256 -0.4330039015994897 0.1563800380755173
-1.015275174854502 0.8219026931211116 0.5809616018182107
0.5401301611637238 -1.775130458918811 0.8588804837838182
-0.6494293409335731 -1.33818345693159 0.9042278864915931
0.1844421718068611 -1.697083271624197 0.8791934621767314
1.036619022097498 1.883924902500846 0.5811540562192061
0.3042366843008795 -2.155892299889943 0.1905269153400159
0.9136202457114839 2.084445205113329 0.6334385136913533
-0.3900232965425599 1.50180932225701 0.1244136548578613
-0.1484085809465588 -0.7105818997088973 0.6834701027121033
-0.8845098759610857 2.010387072387277 0.2268583785737955
0.5535285309263914 2.236819412601803 0.2970699483289658
-0.7951594546209384 -2.107758555133398 0.5445923161413051
0.2145051748443728 -2.393384969055182 0.5532858024035001
0.7167859995706549 -0.6765921784046212 0.154111267411601
0.7563185009523913 2.158919104171877 0.6126836728429944
0.8023464294678291 1.56194799946622 0.9633404649683028
-0.8137408899015568 1.109977401765597 0.9216206451423501
-0.2062427509703108 -2.334258075061623 0.2335609040956795
0.8240343498449695 0.7431074188294324 0.1562018570715541
1.066511562902335 0.06111644102796564 0.7480618137398041
0.2235410831830448 -2.354515233909567 0.6556245174546758
1.053572333170657 0.821957790900427 0.4207511177115863
1.02609751653969 -1.07478242689559 0.1957033685035729
-1.021861788710269 -0.06763990839099549 0.504275759085953
-0.103058725952958 -2.318959397916395 0.6811460148362025
0.8818276388561905 -1.651562882383169 0.02170597088754709
0.7876474200617313 1.629336212448891 0.0188541753303226
0.186361221529741 2.282426885926998 0.490093816114427
0.4977878447371598 0.8837784724655091 0.1327587411336318
1.055012681779461 0.461651361743369 0.3024353828200268
0.8622589631832122 -1.780326680117033 0.8074696143567437
1.020130084329293 -1.061850661054336 0.8200011008396103
-0.4071752845550576 -2.351419598484212 0.6524815016585519
1.018836637338312 -1.513137656027384 0.7876347682744885
-0.7605288552915214 1.679007360885639 0.9537837783349271
-0.5552643603896461 -1.595832233064517 0.1187501365447859
0.0790933323637998 0.594905928521519 0.1297362229497179
-0.9760404033824335 -1.792940386944149 0.4251324139766186
-0.5206100502662334 2.202308753725081 0.6418510730458878
-0.03361773571605035 1.586585876601594 1.026717518035781
-0.9951250575136064 1.883924902500846 0.5811540562192061
-0.6090019280904302 -0.9369326629547531 0.1432788180306812
0.8698475092605736 -2.010544830875986 0.1948346096880458
0.44049512903128 2.22935867370387 0.6102151694106278
0.5527375647377329 2.185360471410792 0.2405676418712794
0.9233045950707164 -1.133275687654371 0.9350675773884191
0.7147506917797295 -2.155016000685149 0.2086713848070886
0.7837697551941422 -1.539399177625682 -0.001259294841219827
-0.7479940902245068 0.6843821464885309 0.6002041967788255
0.5971698448701874 -1.651139909214678 0.1228800083798627
0.3068694688728974 -2.110164231805934 0.1711005588865326
0.295936416201552 2.172633870536736 0.8692608839387468
-0.3887193685773858 -1.595832233064516 0.1253481673451726
0.8092544309702185 2.154251149508692 0.4941891191185485
0.9632871442757708 2.004625516948667 0.3212183327324202
1.039299793019247 -0.4330039015994896 0.856162877220143
-0.7864616502294161 -0.6443328628637879 0.8492569460844486
0.6062949499773404 -1.914139557666764 0.8190271169819208
0.7973707038979141 2.150782285447109 0.7749852409491622
-0.1319430972265418 -2.233039700469917 0.2132965522105242
-0.5207892095730964 2.22837896583876 0.5646382607132389
0.7672920617541987 -2.088919518489331 0.6995935698849551
-0.699735434159287 1.435611480767751 0.02707348789890039
0.2151194226744025 -2.385821651066729 0.6013806599540305
0.08693363615614322 -1.873807647548949 0.1398189373403069
-0.9353701303682502 2.004924482521844 0.5056038840109246
0.440354873476887 2.206888218551315 0.668000822670751
-1.005548039488635 -1.654925149866485 0.4920631215471268
1.018336526524322 -1.792940386944149 0.478921154242327
-0.4129804244513032 -1.165611349791352 0.9882888825924764
-0.6933140840660843 2.176703060958767 0.2822085677334953
-0.9452714421717426 0.7441192251334171 0.8923728901454691
-0.8294570245538163 1.397910645053319 0.9381109301507762
0.4329525877523473 2.210314621167545 0.2482263063124919
-1.014176543425419 0.461651361743369 0.4206038729871192
-0.03440179610896207 -1.388681027833548 0.9149625454324972
-0.6290888126729169 0.9751303375254419 0.1418043366626577
0.5826017112758816 -1.812931551720096 0.139612314314988
-0.7143156826010876 -1.214990675832466 0.08356814294341736
1.055012681779461 0.461651361743369 0.3024353828200268
0.3331109474839049 0.4616513617433684 0.129728031527052
-0.751548399381796 0.6790174857322633 0.7288249821920961
0.7805460879334313 -1.624463520499635 0.8588988669541715
-0.3785684373047538 2.175500931389379 0.8636077360625583
1.062193550495395 1.296074398650228 0.658464666361537
0.6736331273601166 -2.223624356605586 0.2435149710967591
-0.8899475843746241 0.6888432733356473 0.153523438571873
-0.705658635776717 1.69557230420301 0.9679683372663944
-0.8982807017685862 0.9823396702823213 0.1523344250645158
-0.968620330777286 0.1955139305375243 0.8788321707291655
-1.014771652450527 0.7778751983871995 0.7471928269160663
0.4444673562321393 1.460999699894525 1.067746754364124
-0.9815838137470919 -1.653876788653444 0.09701955389253215
0.4598897633147485 0.9749401632066792 0.5132715770192082
0.5300478221368996 -2.333696490129057 0.5762359037625371
1.06047443453862 1.156980867665333 0.4244652796477618
0.3118097471003385 -2.010944345076053 0.1501577037442246
0.7666495949284383 -1.044353297211268 1.022245463243263
-0.03422922062838146 -1.443474378303697 0.9112820635361301
-0.949491675849805 0.689638809638244 0.892416291916156
0.1908771732519484 -0.7354253511799778 0.8926147097454815
0.9864798460271227 1.565929858492248 -0.001027199580464068
-0.2916016140585277 0.1892635973100497 0.1297354779245263
1.05700454998457 -0.8664467456680474 0.5687298945861886
0.5513571606117189 2.185191605291853 0.7512854186640199
1.050804019654504 1.086805711919887 0.2009702056045018
-0.4891084150982453 2.208737026684995 0.7935857383145644
-0.5220943552605538 -2.01094434507613 0.1611124188473601
-0.9459702695402922 -1.870951766866671 0.5658588627333038
0.1923902077948586 -1.105398800324703 1.026101709950011
-0.9734232442012052 -0.4330039015994897 0.1929937069060657
0.7247162033608409 1.133019999542781 0.1218597620326513
-0.2142853319139011 -1.651139909214676 0.1282061127042423
1.037114644558593 1.883924902500846 0.70138707847587
0.7038286870126285 1.699369889494149 0.9759351231721877
-0.2916169829000137 0.4616513617433683 0.129728031527052
1.005985424488801 1.948140454326036 0.4247547119798918
1.053572333170657 0.821957790900427 0.4207511177115863
1.058862620440364 -1.069570566557146 0.4093022448645788
0.6074635348898414 -2.2865226738019 0.5716027073756566
-0.5025693560624973 1.90857632257601 0.9655127912287722
-1.013415374394898 -0.7799358045045057 0.4969289663011433
0.7412293987431786 1.435611480767751 0.02707348789890038
0.5513571606117189 2.185191605291853 0.7512854186640199
-0.4189892951048525 0.8316586983530478 0.5051385512692485
0.7735082144972164 1.10504192740054 0.1316692510144089
0.8671314664500401 1.958870701362411 0.177865549546722
0.8905622486904787 2.093260017419499 0.7446372299513555
-0.8346482998143894 2.109922675641768 0.2670049454659539
-0.9724241890782022 -0.5580153171899825 0.1932148956933064
0.9494239302515388 -1.943597725494397 0.5590116595225392
-0.8721262811275925 2.084445205113329 0.6334385136913533
-0.8622705226415748 -1.258269789872618 0.01964839847518463
-0.3335717824737876 -1.87380764754895 0.1398189373403067
-0.9817587545210353 1.882430074634963 0.3179148457718553
1.063540999569679 -1.140123004493203 0.7221670234539177
0.9530646341041464 1.507431034165895 0.8834709575926665
0.09866570324193458 -1.258575668930015 0.1261437350709676
0.8177733058967238 2.141255492858242 0.5652604472664444
0.7395424588603994 -1.77544198190202 0.1308190438491574
0.09782348643450679 -1.369843568212051 0.1223830965520646
-0.7533528127962726 -1.342969121783947 0.8938401507619032
-0.5189972988926979 -0.7213487713628721 1.06636547383565
-0.398860908892996 2.197077879671305 0.6978141969219844
0.8698944559731137 -0.931070606232683 0.9834668677225268
-0.3996809677750085 -2.243390292505377 0.7178544572044757
-0.5522826091609349 -0.5411555166312152 0.5473221475686372
1.028744575951919 -1.718351862000706 0.194203086217305
0.07273020884863872 2.059658228918728 0.9355161386066588
-0.9486480871320395 -1.772001689936908 0.123433991333696
1.064022279103716 0.1892635973100502 0.5046838210864155
0.6742968652505706 -0.9992151814479987 0.1436212357089774
1.058878058250831 1.435630406866926 0.7217957742729341
-0.09136451854902486 -2.402164521424764 0.2704088661016323
-1.019081217898074 1.366898688091114 0.725050781910099
-0.6519871005469867 1.849454885398585 0.1461838461322048
0.4309750530940492 -1.701234723140707 0.1310306099016197
0.3186803745344442 0.7769094980602902 0.5055642758533467
0.5626727837723671 -0.729484752427811 1.165410767252374
-0.938569590572185 1.95322763332777 0.7769648860772392
-0.7480199134418735 1.821372571906695 0.1294518269834452
-0.5920621291753274 2.176371549958919 0.8078194613032899
1.034025588195349 -1.71922035107964 0.289116992883896
0.07674296381715499 0.8677586927725581 0.5054590194351445
-0.214115575925075 -1.539399177625678 0.12367171093152
-0.866916764571151 -2.009890108393047 0.587476455609025
-0.5800616873247415 1.104975846916303 0.1310260412047697
-0.03237430041614803 2.174595121016612 0.2216940456379187
0.8594918655900399 -2.06714836846185 0.3464232926505242
-0.03244810482976313 2.198569274558926 0.7528289660622444
0.259562554059445 1.296071387571712 0.1230531835840571
-0.3927989882098891 -1.697083271624258 0.8781558107369265
-0.1500459148762008 -1.22842954403474 0.9528850882861562
0.625954160180956 -0.8664467456680468 0.1428967827129383
0.9809760625992712 -1.539399177625681 -0.001532773900444473
-0.9740509289247086 1.565946581387846 0.8147867960486868
-0.3900232965425599 1.50180932225701 0.1244136548578613
-0.7844967422576848 -2.107944685721988 0.34440997624093
0.813465625550136 -2.010892620895605 0.1709600985952778
0.3015482991753142 1.984351369551721 0.9563974007860672
-0.9768425619404307 -1.792940386944149 0.4789211542423268
-0.2598512213524333 -1.775130458918766 0.8637266690745793
0.8252848073859531 0.1284203794123973 0.8288860303239377
0.7919797625897423 -1.369843568212054 -0.002481925551054118
-0.08846124112668408 -2.409993606529644 0.381423250268952
0.7493875943427841 0.9751418545342432 0.1532977412168687
0.3137546161936484 0.4135122514795631 0.5060157873774605
-0.1500626378160221 1.173219443799759 0.68291683605319
-0.9788931898962825 0.6888432733356473 0.1924497769187731
0.9086892298411603 -2.009890108393047 0.5530319932211074
-0.7710613864614897 0.8843945839588161 0.8367860692364939
0.5588778827631374 -2.300766055106418 0.2510552158048225
-0.7820901872899116 0.8219026931211118 0.1565139134998685
-0.8794543365248291 2.072870617238565 0.7317044756218154
-0.05587523128309062 1.690604573875484 0.1309523890280326
-1.020169216992285 1.224993373169595 0.5048856102873784
0.7896814812954172 -2.152188845149166 0.5726686155117758
0.5826017112758816 -1.812931551720096 0.139612314314988
-0.7435380469218698 -1.743714780598701 0.09172430764740733
0.5592963608990409 2.24876503747489 0.4089525179412473
-0.9754231837764034 -1.792691341494718 0.3656442815609725
-0.3785684373047538 2.175500931389379 0.8636077360625583
0.3313249440470968 -2.31895939791655 0.6809853849074148
-0.8490682841065875 2.093260017419499 0.7446372299513555
-0.02757048130024021 -2.058117591493068 0.7926213715527642
-1.015118454799917 0.5946538569108755 0.6623702940499286
0.5510585051224435 -2.110164231806114 0.1815915262874291
0.5070848341447055 -2.312688480596055 0.6636998412165489
-0.9619593576831595 -0.1952961893113965 0.8755954475772431
-0.3996809677750085 -2.243390292505377 0.7178544572044757
-1.016770083285734 1.435611480767751 0.5810449702348479
0.8303860068997024 -2.107758555133399 0.3993722879984514
-0.4326220788141384 0.3192292402597017 0.1320151988655623
0.8253256558539301 0.4616513617433689 0.1561060899560128
1.064750191826734 -0.06763990839099549 0.5805108979303535
0.9383716940666808 0.1892635973100501 0.1534892622423811
1.038962897274338 -1.318552034603309 0.7775711725398615
-0.9777768679070645 -1.792940386944149 0.530166920277779
1.059002757164989 1.629337570758593 0.7067930471624415
0.7404030144813278 1.455898624401841 0.995601592312647
1.024952131243226 1.75643836050761 0.1162273538873873
0.05862886802897922 -2.354515233909414 0.6556245174546317
-0.5596288619327753 -2.225725326167096 0.2357473308808763
0.4333626705889758 -1.369843568212053 0.1223830965520633
0.1883637718722208 0.284160380932315 0.5060575692463725
-1.010708835974064 0.6888432733356473 0.4206130646438134
-0.6571316645841585 -1.743246593414523 0.1223354281719429
1.054711962150566 -0.8664467456680475 0.7525552002800788
1.046158202146568 1.755457066236293 0.325893377999632
-1.017554661615899 1.225302166731297 0.2042908189638282
0.724991541443471 0.5534813950212276 0.5219650156645462
1.053662746905466 -0.6765921784046209 0.7919991354486033
0.5998191305503684 1.070305222085473 0.5477424480357874
1.062076674988797 -0.0676399083909955 0.3024574454146641
-0.7174253774609677 -2.110096069934724 0.1903902123012836
0.2477367155541846 -2.334258075061623 0.2335609040956795
-0.8980270580396124 0.06111644102796561 0.1534892622423812
0.259562554059445 1.296071387571712 0.1230531835840571
0.8743004932474602 1.466018878574134 0.9340627148121545
-0.05796834282444235 -1.183411998383778 0.1283155387477744
-0.798459469895374 -1.999347875838721 0.7267257935549012
-0.393029959600276 1.366881210538273 0.1213814132532732
-1.020699585911503 1.296074398650228 0.658464666361537
0.1992903218477109 -0.5580153171899719 0.1302589554855108
1.061370225395415 -1.323605978792997 0.4079419925251036
-0.2792629176111615 -0.9034286521231709 1.132504422378021
-0.1465591631703961 -0.004090992350026173 0.5068512364840462
-0.4029733916482483 1.460999699894525 1.067746754364124
0.8340997877788 -2.107758555133399 0.6054368033545409
0.1311053081209136 -2.400999390543424 0.474172500880297
0.8165131363226064 1.172361088869388 0.06858310803805465
0.2560449875076239 1.565929858492236 0.129039581159632
0.8268411597683554 -2.076855309954555 0.6740058887626965
0.9867722172214607 -1.870951766866671 0.5232499784599536
0.9388069346259516 -1.942413935894165 0.2715434221064297
0.190090421912768 -1.388681027833559 0.9149625454325048
-0.2791755232348433 -0.7770566141947972 1.191126091680764
0.4387496558038694 2.190571007799413 0.7305687433388769
-0.05585075482282308 1.629336212448878 0.1312654332682687
-0.5155890614374895 -2.068934560771386 0.1705070922867336
1.065753264337613 -1.140221094877933 0.561145977436244
-0.5558383260086164 -1.483423013783016 0.114934789975795
-0.8934757251802814 -0.1912228186892731 0.1535481563128344
1.004977702916937 0.465441482854654 0.8867422864295325
0.5941474431522912 0.2841603809323288 0.5042093243183361
-0.9971804930395155 -1.720160926399738 0.5361271222810652
1.040856331394034 -0.5580153171899824 0.8500417599044856
-1.014322427231745 -1.484610177374918 0.6427884799057447
-0.5120345663425004 2.236819412601803 0.2970699483289658
-0.9983803033571715 -0.3105028793504975 0.8586384897961226
0.186361221529741 2.282426885926998 0.490093816114427
-1.006369930130921 0.06111644102796567 0.8615413949654684
-0.2556202081352039 2.12573838751413 0.9047988665205536
0.07606041727461826 -1.336987040718437 0.9189640556833816
0.05740676294944193 -2.373836775643873 0.6300256342754922
-0.9760404033824335 -1.792940386944149 0.4251324139766186
-1.015315788188057 0.8837784724655102 0.5047388979484118
0.5831261587980118 -1.228429544034795 0.9460646252876001
0.7453948306554019 1.366881210538279 0.03261029705660954
-0.7886036656777011 -2.10157790609763 0.6365855732007257
-1.024996932416177 -1.140221094877933 0.6839177246569119
-0.6996932497614083 -1.369843568212054 0.03645145054925213
-0.1696440944840256 -2.409993606529752 0.3814232502689707
-0.4134155324239805 -1.105398800324728 1.02441349878236
1.020130084329293 -1.061850661054336 0.8200011008396103
-0.05891432550655579 1.104975846916299 0.1307843848273083
0.7867942894774209 -1.165611349791364 0.9635066514119448
1.059368494352299 0.3192292402597021 0.4206051298978861
0.739948907141033 2.193876217247607 0.3459172333462187
0.2507812063179901 -1.067197157761912 0.1324681818056517
0.9786995822778115 -1.864640540267565 0.6908378182743553
-0.67951931107132 2.129536787426507 0.8518934141702681
0.09946230740833353 -1.183411998383778 0.1283155387477744
0.7147506917797295 -2.155016000685149 0.2086713848070886
-0.09008708898834837 -2.395837937051339 0.5202341561859837
-0.4480657862410002 -2.342858198218947 0.6418141627177421
-0.5235931001049032 -2.058465918229988 0.7818602930725357
0.186361221529741 2.282426885926998 0.490093816114427
-0.2915270738900297 0.6888432733356391 0.1297715943013317
-0.1468698072883297 0.2841603809323151 0.5060575692463725
-1.020752406216927 1.156817013931829 0.5048474101081865
1.061326392802469 -1.140444421786788 0.4082406189006816
-0.7067394319569924 1.581990944331082 0.9819035843033914
-1.005827456481063 -1.428835743483107 0.1941957131425635
-0.9965853668012428 -1.720160926399738 0.4854941732028285
-0.214115575925075 -1.539399177625678 0.12367171093152
-0.4819166924678711 -2.309330326929635 0.2548823111031603
0.4494763026463625 0.1560136469837664 0.5055724751122793
-0.8982807017685862 0.9823396702823213 0.1523344250645158
0.8052328319635991 2.164267270625021 0.3384837201606614
1.054935186289173 1.435611480767751 0.4254897793699277
-0.6935060188668352 -1.483423013783017 0.03022230931141479
1.058862620440364 -1.069570566557146 0.4093022448645788
-0.7417725231126402 -2.15249436384724 0.3978310418570693
-0.7888920423158115 -2.107758555133398 0.3993722879984514
0.7878515890738005 -1.81244745456361 0.1499180455780385
0.7577767298156439 1.228183376484197 0.06652468512942848
0.320508257478008 -1.044353297211247 1.059576895758387
0.5323319062535935 2.199493271909562 0.8115036208287564
-0.05758424015177497 1.228203673565959 0.1254176273359776
-0.8444166870395775 -1.296995088952809 0.8958123876815748
0.8562484976702193 -0.8689833059092413 0.9976899564825326
-1.015004096808423 0.5938976420789282 0.7474201941053973
-0.5556758802862961 -1.651139909214678 0.1228800083798627
0.4478950271879262 -1.443474378303739 0.910102312846731
0.7986453000471125 1.744949667295096 0.9486165789061868
-0.2581631103954351 -2.394309674832654 0.5207860987407362
0.0767825316529481 -0.97334469564083 1.096530057833035
0.9752892145135749 -1.533108267945189 0.8190336181782887
-1.014737748548968 0.5949059285215246 0.5809531472111597
1.048112461990242 -0.5580153171899824 0.3029204492520349
0.8968644026225869 -1.978357277357616 0.703783239675234
-0.9777357567389696 -0.3105028793504975 0.1927789657883466
0.4400795872578246 1.228203673565964 0.1254176273359763
-0.7856430783567232 0.1892635973100501 0.1561131550597202
-0.7803262855612181 -1.126787534832004 0.1436927476469375
0.4403749099846573 2.216600072360676 0.6417963296662079
-0.9844607800400582 -0.1912228186892731 0.192572728690981
0.255843492647985 -1.483423013783014 0.1231904486965949
0.6071257635176375 -2.28707440558766 0.5485940527512393
-0.5573626092222668 -1.426980800370762 0.1144632925176406
-1.019120888414651 0.9776641626989393 0.5809774774740336
-0.3918918246947254 -2.376613053181098 0.2873877606861162
0.7373610976897148 1.849337359934373 0.1526175869513594
-0.7766795441505288 -0.7799358045045057 0.1573858214090263
-1.018507366942528 -1.259801180095387 0.3126464502619843
-0.5405557847593295 -2.298944760601989 0.2652172510694829
-0.05854602623508758 1.133019999542774 0.1296087409557011
0.418658330867128 2.199749471481114 0.8354944788990495
-0.8000427085317401 2.111565454317857 0.6839468379183491
0.09782348643450679 -1.369843568212051 0.1223830965520646
-0.3802602179182852 2.126652208446474 0.9018171881401758
0.6606162602768023 -0.7432674690449894 0.870830696732286
0.6062386562998884 0.9123906966504529 0.5045697771802045
-0.2898309794632057 -2.31895939791655 0.680985384907415
0.1328584831328308 -2.402164521424764 0.2704088661016322
-0.697320579789497 1.832215876299389 0.9545607125808209
0.7785240478184525 0.9699550024258457 0.7359141105919078
-0.1569082016412012 -1.943861284665136 0.142937763412374
-0.2575261331176421 2.060031688005195 0.9352085503619916
-1.020921324675304 -1.261174832617553 0.4089733082625294
1.054308183771729 1.629336212448892 0.4258821774414836
0.269772564582524 -2.139396431028204 0.7635622405047617
0.6875104926812634 -1.105398800324737 1.006294664900776
0.0767825316529481 -0.97334469564083 1.096530057833035
-0.03465801137978136 -0.7354253511799704 0.8926147097454622
-1.016007369087991 -0.8664467456680474 0.6420475051595974
1.039385200399164 -1.590062449360541 0.7280823107057015
-0.5298918438117601 -0.8411846211528717 1.152951441411612
-0.9455087361149042 -1.870951766866671 0.6020586397294107
0.1311053081209136 -2.400999390543424 0.474172500880297
-0.9604777077940017 -0.325969496355409 0.8731529779229998
-0.5598355290091672 -1.369843568212054 0.1147642352785072
1.064873698312986 0.06111644102796563 0.5046838210864155
-0.5659695703059502 -2.286522673801901 0.5716027073756566
1.059472963461585 1.2251572269031 0.3229708212791286
-0.5643905333358243 -2.285432771137507 0.5853777828278003
-0.7926058231949089 -2.107758555133399 0.6054368033545409
-0.5260960209090022 -0.7771993997438813 1.178840196615582
1.060001331526419 -1.259801180095387 0.3126464502619843
-1.010009984045324 1.366913936593028 0.7828205933618054
-0.6562042088426232 1.62933621244889 0.09719994992264489
0.8252848073859531 0.1284203794123973 0.8288860303239377
1.055456749049853 0.6888432733356473 0.5809538560886586
-0.7841679313556998 -0.1912228186892732 0.1561573591662044
0.8182506148162895 -1.159931462112545 0.1163636885989624
1.041948854612902 0.4599063841926044 0.8655536191150541
-0.03244810482976313 2.198569274558926 0.7528289660622444
0.09730905863489049 -1.483423013783013 0.1231904486965955
0.09852021682382775 1.296071387571709 0.1230531835840578
-0.03379149667129502 -1.559021602049068 0.8996949751213622
-0.150147457798692 0.7769094980602713 0.5055642758533436
-1.017938167780804 1.080658305824329 0.3155482179992472
1.056545162433396 -1.484610177374918 0.6050291310757714
0.8186040735045833 2.065845349630823 0.8669237424995293
0.1996654485982142 0.7788878740085156 0.1299420431252087
0.7493875943427841 0.9751418545342432 0.1532977412168687
-1.020055945178244 -1.069173617776419 0.4883480998646749
0.6917835131497102 1.982161790433538 0.9335174237874152
0.9015193930795479 -2.003583542185961 0.6625047124807733
1.055606998569597 -1.484610177374918 0.4544724650493321
-0.03237430041614803 2.174595121016612 0.2216940456379187
-0.906273300267217 2.045156509978147 0.6906462813918939
1.029756899266016 0.7755247873522988 0.8680575099908457
-0.9837205540774128 -1.595832233064518 0.08702262721905779
0.09782348643450679 -1.369843568212051 0.1223830965520646
0.7930423639656872 0.6790174857322633 0.7288249821920961
-0.8000427085317401 2.111565454317857 0.6839468379183491
-0.05588351551843254 -1.701234723140706 0.1310306099016204
-1.016770083285734 1.435611480767751 0.5810449702348479
-1.024642427539491 -1.261518245748094 0.6544389565501478
0.2507812063179901 -1.067197157761912 0.1324681818056517
0.2580892226996013 1.366881210538269 0.1213814132532742
-0.9882629346821247 0.7755247873522988 0.8680575099908459
0.8562484976702193 -0.8689833059092413 0.9976899564825326
-0.9993623668101428 -0.5580153171899824 0.8500417599044856
1.060173924073216 -1.38172309047364 0.6584882126622843
-0.9900022007371643 1.88362593692767 0.4247979982060988
0.3024364776415503 -2.399975784301113 0.272067120079922
-0.03490689852912338 0.7769094980602582 0.5055642758533416
0.5978639385616298 -1.701234723140707 0.1271594514386619
-0.7251556303445471 -1.044353297211268 1.022245463243263
-0.6228571521677717 -2.012608838040445 0.7781451260901557
0.2990200977015137 2.060031688005195 0.9352085503619917
0.5842974854755124 -0.7119205142313987 0.6776676196438285
-0.3350002748083044 -0.9369326629547414 0.131920262505025
0.07394681809771349 2.266033191694861 0.2933769334427938
1.056254552212979 1.366881210538279 0.324068835808942
1.053689159919894 1.565929858492248 0.4257456733642253
-0.1448672569459167 2.282426885926998 0.490093816114427
1.05637317157756 0.7786347051031999 0.6623140072457016
-0.2790170747725298 0.9117513549036551 0.5065879135309267
1.053854191245682 1.435611480767751 0.324345703786884
-0.3343144344101491 -2.385743044210048 0.5553138583575276
-0.7278989370509529 1.061686520121951 0.1470606820056499
-0.01534749913582376 -2.395837937051281 0.5202341561859698
0.3364517544976217 -0.7799358045045013 0.1310768282969431
0.3101179889920867 -1.624276388182182 0.8909831311849035
0.6985984219498955 -1.426980800370763 0.08144573195344473
-0.7171051560982694 -1.067208633763511 0.1544603119549377
-0.04908136609455994 1.89846748050595 0.144716007054424
0.9466410861679325 2.044917856553435 0.7188988721007803
-0.6571044573660043 -1.426980800370762 0.08144573195344473
-0.1452484211795426 1.640333469719765 1.012238038944683
-0.1480665357908513 -1.443474378303708 0.9112820635361371
0.8268411597683554 -2.076855309954555 0.6740058887626965
0.4813290693829145 -2.358777414772933 0.557975529191334
-0.9866638593872683 -1.713887355804834 0.7130550046184521
-0.6624183216448809 -2.219539431163263 0.4535516285069116
-0.7460617919324716 -1.426980800370763 -0.01183124727260752
-0.5564473403589384 1.690604573875494 0.1257511931894225
0.2869433157044518 -2.23303970047006 0.2132965522105381
-0.5991628471918111 -2.224112628419624 0.2307234946748309
-0.8935210927154869 1.163027702158391 0.9246941020817128
-0.6996932497614083 -1.369843568212054 0.03645145054925213
0.7215480737742279 -0.06763990839099557 0.1532718556177549
1.038674457623407 -1.720160926399738 0.5361271222810651
-0.474792155473957 -1.914139557666753 0.8273822671891868
-0.3350002748083044 -0.9369326629547414 0.131920262505025
0.08177395995329478 1.970651954229945 0.154624220072511
-0.8729757596379634 2.078082145697733 0.4225614730368638
-0.05588351551843254 -1.701234723140706 0.1310306099016204
0.7008146843667538 -2.22079917167691 0.4031259950224783
-0.3914395689130532 2.221418345773579 0.2599208501354943
-1.015275174854502 0.8219026931211116 0.5809616018182107
0.5323319062535935 2.199493271909562 0.8115036208287564
-0.9115706695202555 1.507431034165895 0.8834709575926665
0.7589193420448589 -2.110096069934725 0.1903902123012836
-0.564162110729789 0.4616513617433689 0.1411351306763876
0.0767825316529481 -0.97334469564083 1.096530057833035
-1.024173184400447 0.1892635973100502 0.7476992274472427
-1.009874341366985 0.7431074188294324 0.3024863382923612
-0.4891084150982453 2.208737026684995 0.7935857383145644
0.1865698234222951 2.210427008073519 0.6681036967756453
0.3047879517260135 2.212725756404809 0.2473438712918982
-0.5133066054692228 1.640333469719878 1.004103295046886
0.7880638651174061 1.565929858492247 -0.0001505747434533159
-0.9372709902097199 2.004924482521844 0.6965325936443059
0.7185732492317445 -1.126385874776463 0.1386716253751615
1.048787086648422 -0.7799358045045057 0.3028198729825381
0.1792898639158436 2.124244551168492 0.9060292194993213
-0.8137408899015568 1.109977401765597 0.9216206451423501
-0.6882995923780135 0.9130373826312442 0.5221153396015774
-0.5661023555056013 0.8688855326013163 0.503538695443968
0.7895679314616947 0.8339294229061033 0.5997285944626096
-1.01935905270991 -0.9992151814479995 0.6385300923210178
-0.890715957037332 0.5949059285215246 0.1534899672495776
0.775974625976123 0.2841603809323297 0.6001967041699559
0.9844141597857027 -1.870951766866671 0.6427243077995571
0.8092544309702185 2.154251149508692 0.4941891191185485
-0.9758412439122133 -1.624387449338565 0.7717484424835881
-1.014774018757108 -0.999570086247477 0.4111810613433895
-0.9782624873932407 -1.792940386944149 0.5727178182834913
-1.012337006020904 -1.316186206343619 0.1989075156487558
1.060853017293801 -0.9992151814479995 0.6385300923210178
0.5340986096182351 2.187812958147761 0.8311831714888217
1.066136392123383 -1.261518245748094 0.6544389565501478
0.5159907202263983 -2.344114606177862 0.282097483501237
0.7600961650027494 2.147511643331734 0.646071268543526
-0.8504401772931866 1.435611480767751 -0.03500720887275182
0.5988776632312247 -1.743246593414523 0.1312274764200377
0.6823697589661597 -1.044353297211268 1.037417135377547
0.1882163966130218 -1.559021602049081 0.8996949751213696
-1.015656597747192 0.821695121061152 0.6624048061906978
-0.03440179610896207 -1.388681027833548 0.9149625454324972
-0.9452714421717426 0.7441192251334171 0.8923728901454691
-0.6745469248332805 -0.54168800983539 0.5623251583627633
-0.8577114809874834 2.094732854266648 0.4990729796611556
-0.5142714792938499 1.460999699894535 1.054904045675643
-1.010784844801598 -0.6765921784046209 0.4182972348037273
0.9209239850141161 -0.2115896717998899 0.8701948819400167
0.5904347289096967 -1.971300104337283 0.8053292580899878
1.063059747096832 1.224993373169595 0.5810079477585222
0.8271827648618491 2.122136625354373 0.7539026975006636
1.05289265268536 -1.484610177374918 0.6887426851780037
-0.7244570407549851 -1.126466206787571 0.1452583532788601
-0.6909893342343388 1.385129880171121 1.004078983485659
0.3156488570727103 -0.7105818997089034 0.6834701027121177
0.5717031075965875 -1.443474378303749 0.9053828363004678
-0.3802602179182852 2.126652208446474 0.9018171881401758
-0.9791375537631395 0.7788878740085334 0.1925894733809319
-0.7045413121830564 -1.312476320118929 0.04908131567794747
0.7666495949284383 -1.044353297211268 1.022245463243263
-0.4276983207323288 -2.317705214452495 0.6763715772575141
0.0739411934456877 1.836617039049064 0.9860955286736457
-0.03474348756923016 1.251069865082638 0.9101357400327843
-0.3988202609734582 -1.624276388182206 0.8898932710775782
0.0753334558247489 0.2841603809323113 0.5060575692463709
0.7885284822786285 -2.152264174898837 0.4999269341692546
1.058890800636404 0.461651361743369 0.5809529830372192
0.6417753430268489 -1.775130458918814 0.8498038655413809
0.7287658623288189 -1.847812873066796 0.8173887277202139
1.057535963347728 1.565929858492248 0.5810708735780349
0.8866826194787302 2.098138620410444 0.6597221142227548
0.4478950271879262 -1.443474378303739 0.910102312846731
-0.8479286265234167 -1.354570817026505 0.8792511702031721
1.063845812219654 -1.069173617776419 0.6912477795439097
0.7412293987431786 1.435611480767751 0.02707348789890038
0.81817350873442 -0.7799358045045057 0.1573858214090263
-0.8938421621468209 -1.912053598129664 0.7212251757517629
1.009857554342144 1.948439419899213 0.5055155046544115
-1.017090282067868 0.8836305354864047 0.6625236256700713
-0.8570589805611925 2.067722897803181 0.81392124543192
-0.7482168208921161 1.881940489860221 0.9291968718407425
0.7447055240370338 2.105760380104539 0.21769349083446
-0.0352885670692514 -0.9733446956408299 1.096530057833035
1.018204529790504 -1.460539368834396 0.7976636308644065
1.044872498015764 -1.654887526853681 0.3757293102285333
0.4349533063999161 -2.110164231806047 0.1731985838531089
-0.03166868977056873 -1.775130458918717 0.8637266690745549
0.07370278550292657 -2.155892299889718 0.190526915339995
1.048112461990242 -0.5580153171899824 0.3029204492520349
-0.2148706377368996 1.501809322257006 0.1244136548578624
0.9231546632294945 2.068148739892756 0.7665871239634308
-0.3891148060588026 -1.483423013783015 0.123190448696594
-1.010992831798782 1.079184024574383 0.8237252761476419
0.5367860530370651 -2.299192535771176 0.6441012646047936
0.6058844979197156 -2.285432771137507 0.5853777828278004
-0.720865769755235 2.087768234290935 0.8802709191505126
-0.03501729213669819 -1.165611349791307 0.9898164101010807
-0.9486480871320395 -1.772001689936908 0.123433991333696
-1.022178515023489 0.06111644102796565 0.3024391419295204
-0.3335717824737876 -1.87380764754895 0.1398189373403067
-0.05581509405099931 -1.483423013783013 0.1231904486965955
-0.8848849651201685 2.070297490421716 0.6407991668014004
0.8919341418770783 1.435611480767751 -0.03500720887275182
-0.2791755232348433 -0.7770566141947972 1.191126091680764
-0.5902837887812129 2.190981164092443 0.7730489399191403
1.042838941908663 -0.7799358045045057 0.8092862310967015
1.058463172782342 0.8831867245490884 0.7480254799141715
-0.7887577097759262 1.06200899636838 0.1465699703283576
-0.6807335326365024 2.163658440935063 0.7900553860680482
-0.2581631103954351 -2.394309674832654 0.5207860987407362
1.053009482281539 0.8221781820176879 0.3029350786711365
0.1839767848380133 2.170260406017829 0.2200691610111289
-0.4562938801532688 0.8837784724655093 0.1327587411336318
-0.9928847597885129 1.105272490281019 0.1237226082748641
-0.749504865682243 -1.448243175851879 0.8800607316025734
1.061516895180582 1.079342677274824 0.5048123453823628
-0.3976744448408908 -2.366099513720395 0.628774637485287
0.4492993944498949 -0.00409099235002252 0.5064727704216346
0.7453948306554019 1.366881210538279 0.03261029705660954
-0.3802893338082795 -1.067197157761916 0.1324681818056522
0.4799459616406455 -2.361230382769184 0.5266162968869808
0.5416308062104105 1.984351369551771 0.9494991629645095
0.7847985250564946 1.291811010080256 0.9814043127192413
-0.05758424015177497 1.228203673565959 0.1254176273359776
0.5306023796821364 2.208737026684995 0.7935857383145644
-1.022124340399922 -1.324347956037934 0.5942445491805145
-0.7844967422576848 -2.107944685721988 0.34440997624093
-1.004867164330497 0.3188802447495491 0.8631592448357179
-1.009350887305098 0.7768177643198457 0.8195977702618701
-1.008512677092547 -0.8664467456680474 0.3015109347149435
0.6801499897842375 -1.500405894274926 0.8906922774405472
-0.5489407643258055 -1.971300104337283 0.8053292580899878
-1.017724937128998 0.9776641626989395 0.5047734920790814
-0.9876778419146077 1.884413495707842 0.7400512506281252
0.3983760994134404 -0.999215181447987 0.1322704342034602
0.6579795889652544 -1.69708327162428 0.8645817471552095
1.053009482281539 0.8221781820176879 0.3029350786711365
0.1996654485982142 0.7788878740085156 0.1299420431252087
-0.9945586826797883 1.501809322257018 0.07603570278361986
0.189512104758939 0.5534813950212093 0.5058576916975162
0.4397158182893853 -1.126385874776461 0.1316941498603942
0.2559529949422386 1.62933621244888 0.1312654332682681
0.8956164794334551 -1.510189806000542 0.8499818904582386
-0.5351271974084577 -0.9733446956408763 1.086528795267563
-1.017508792581098 1.629337570758593 0.7067930471624415
-1.018768272778007 1.15836098174034 0.2045550127619105
-0.8577492737490042 -2.009934940473528 0.3505092860936576
0.7058728016201763 1.640333469719884 0.9837058449363264
-0.5325595655918277 -1.3886810278336 0.9089818195181226
-0.9316901354236963 -1.481684791201492 0.8277150627227545
1.050644761312174 -1.484239188752449 0.301875086981276
-0.7283434861844262 -0.7835019244811752 1.080684096162356
0.2131431208615141 -2.400999390543519 0.4741725008803172
0.8190525255435583 -0.6765921784046211 0.1569565410423971
0.07447955728473238 2.300420917500738 0.4044172269270397
0.1775487098310245 2.226571392605526 0.7838172790865665
0.4531218907666761 -0.7770851690110958 1.188669110012794
-0.6957291670996714 1.690629387858235 0.07180763008342711
-0.8356313154133941 2.108827112115649 0.7621855097512787
-0.398221853705496 -1.126385874776461 0.1316941498603942
1.051032905713951 0.8202054199382589 0.820219639306621
-1.017655587709244 0.4611259236377385 0.7475106770775291
-0.6643353570764942 -1.312476320118929 0.09068604032717333
-0.7370300832345613 0.9699550024258455 0.7359141105919078
-0.699735434159287 1.435611480767751 0.02707348789890039
-0.5661023555056013 0.8688855326013163 0.503538695443968
-0.6768838251262617 -0.2530674846411407 0.5268863445570969
0.7400857648431843 -0.9034286521231982 1.081617387898177
0.7895107430048358 1.501809322257018 -0.01221771189470002
-0.03474348756923016 1.251069865082638 0.9101357400327843
0.9209239850141161 -0.2115896717998899 0.8701948819400167
1.051890373838084 0.9770295518971754 0.8222026142449048
0.4741093506407416 0.5949059285215235 0.1320174232759875
-0.03220882091922925 -2.155892299889719 0.190526915339995
0.439223475678918 1.640333469719852 1.010611220831382
0.7210132756552115 2.129536787426507 0.8518934141702681
1.04222978544817 1.629336212448892 0.2056649265511192
0.314829335247843 1.460999699894508 1.070957109216139
1.05662787647795 -0.6765921784046209 0.7275890839912148
-0.7162827652317528 1.228183376484197 0.06652468512942848
-0.6265195001423475 2.177202963788978 0.6427498595553594
0.9221081751999638 -0.04671180701920108 0.8703370568051867
0.7003083144248555 1.766415612491445 0.9698457588304674
0.9864798460271227 1.565929858492248 -0.001027199580464068
0.3068694688728974 -2.110164231805934 0.1711005588865326
-0.2221622950300382 -1.159580273731106 0.1297389746716359
0.4527263493722782 -1.285789166747464 0.9273165074510292
0.2248034254395715 -0.9369326629547339 0.1319202625050241
0.09750522922204409 -1.426980800370759 0.1227168539999153
1.060904182894618 -1.381715204131059 0.5315797796821271
-0.6958654417408492 -1.426980800370763 0.02977034475246924
-0.2733353706639713 1.460999699894508 1.070957109216139
0.9913897700237027 -1.369843568212054 -0.00286259622187463
0.6702433191415387 -2.15522735677169 0.2138237459226304
-1.021053438345518 0.319229240259702 0.5809531024142783
0.2365869746101087 -2.318959397916474 0.6811460148362263
0.4355205145534314 -1.312476320118928 0.1236410424146943
0.4189577227563089 -1.812931551720095 0.1382459448678474
0.598866613871203 0.5534813950212266 0.5041198728326841
0.4345239241841672 1.366881210538273 0.1213814132532732
-0.5302091430126962 -1.443474378303749 0.9053828363004677
0.2976107932047832 2.219192465142931 0.7655072806667381
-0.8445950162829664 0.9116468668594284 0.8896019588544464
0.978764954793611 2.004924482521844 0.6965325936443058
0.4609526335862604 0.8679840426382299 0.5050749854825685
-0.9001621367440938 -1.943360967574351 0.3554118525053194
0.9749530804405348 2.005803950294436 0.7285994414459841
0.7185103715600748 0.2841603809323297 0.5219280658002066
1.001971672377893 -0.3259694963554089 0.8731529779229998
1.043031293799809 -1.479796015666814 0.7449536002902745
-0.1824900783895963 -1.873807647548949 0.1398189373403068
0.734083622795815 -1.539399177625681 0.03768121100422412
0.6115284419485714 -1.126385874776462 0.1330895328860203
0.6346348007775438 2.113702959941698 0.8889260803779235
-0.2653755042890249 -2.110164231805934 0.1711005588865326
-1.014123288086784 -1.20188074002174 0.200333885318275
1.01566373408447 -0.8664467456680474 0.1934918788018691
0.1844509251582922 2.112678250906878 0.1912547820675351
-0.82194200700318 2.116894366043953 0.5658473778531196
-0.6228571521677717 -2.012608838040445 0.7781451260901557
-1.020860875079494 0.1892635973100502 0.4206054441255779
1.047042004072526 -1.654925149866485 0.4920631215471268
0.6062386562998884 0.9123906966504529 0.5045697771802045
0.7862756150197219 -2.152379841982364 0.4496655977086219
-1.022613940975526 -1.140221094877933 0.486186927916602
0.7773246116101339 -1.976695709657135 0.7615911907853794
-0.9747202365246179 1.692591147264014 0.8023820460255222
-1.01517107144653 -0.6765921784046209 0.6489594192901982
0.6542882601291568 2.186378289517759 0.2639783162746956
0.7805460879334313 -1.624463520499635 0.8588988669541715
1.055456749049853 0.6888432733356473 0.5809538560886586
-0.6795942753498193 0.5949059285215246 0.1532636742396071
0.7876474200617313 1.629336212448891 0.0188541753303226
-0.2195733258960411 -1.12638587477646 0.1316941498603943
-0.150147457798692 0.7769094980602713 0.5055642758533436
-0.2197819835886713 1.228203673565961 0.1254176273359771
-0.1390434801687722 2.21543409220656 0.7641682445103086
0.4119583793832146 -1.914139557666711 0.8306886621900245
0.8482239326059389 2.131135308925765 0.7726694329323945
0.07405633842663881 -1.697083271624176 0.8791934621767201
-0.8017551695464463 2.107071032292057 0.7117096560566074
-0.4145074071982915 0.6839547159844219 0.5053345162866421
0.7201564774499569 0.7788878740085337 0.1534600941435691
-0.3372761786488326 -2.139396431028332 0.7630366434747191
0.8454978876139973 -0.804591238713196 1.007361749364483
0.6801499897842375 -1.500405894274926 0.8906922774405472
-0.6800774839149095 0.1892635973100501 0.1532629632413955
0.7835205670435309 0.9130665199393007 0.6003708910961029
-0.7758943235915037 0.8404951872537686 0.8360603996624134
-0.2735585789195075 -1.443474378303724 0.9112820635361473
-0.03327572107281734 2.265072131310546 0.5628213550830011
0.6074635348898414 -2.2865226738019 0.5716027073756566
1.056231713132859 0.5949059285215246 0.5809531472111598
0.2564542010901778 -1.743246593414521 0.1334502653137329
1.058060143844023 1.565936650040753 0.7111785942430439
0.7624002988142973 2.138920177178518 0.6740450391386657
1.059771364323469 1.079605802984725 0.4234186887419096
-0.9449858814432308 1.565929858492248 -0.001027199580464068
-0.3372761786488326 -2.139396431028332 0.7630366434747191
1.059768778769868 1.692591147264014 0.7049897951933573
0.7862756150197219 -2.152379841982364 0.4496655977086219
-0.8017689438368417 2.139542493940192 0.2853345332270427
0.7483992139736388 2.139692402378371 0.7494243563184404
-0.03237430041614803 2.174595121016612 0.2216940456379187
-1.023496320758655 -0.06763990839099549 0.7483552922881136
0.4442111919982827 -1.559021602049117 0.8985665360036417
0.6647418780292741 2.216061030638513 0.4969878795887345
-0.8516117363837532 -1.804898680726331 0.1386239399824789
-0.9459702695402922 -1.870951766866671 0.5658588627333038
1.052202800557955 0.6888432733356474 0.4206130646438134
0.9787072683105071 2.004924482521844 0.6496825968397474
-1.020263393162161 1.296071387571721 0.5810199582510094
0.9801575563621892 -1.595832233064518 0.0136495433105379
0.3129661948652888 0.2841603809323205 0.5060575692463749
-0.1509257868234669 0.8314141697754244 0.5055084337612172
0.07386826499984468 2.174595121016612 0.2216940456379187
0.4363873662431 -2.371798235065637 0.6024928525362399
-0.4263909535630506 -2.371213702508487 0.3429439758605804
1.051410455038405 0.6888432733356474 0.3024573744590158
-0.9786361197454017 -1.061850661054336 0.8200011008396102
0.7346501351734801 -1.651162786106245 0.06766868579965697
0.09908058177474699 -1.215069837510534 0.12774539542555
0.2600092941536908 -1.258575668930015 0.1261437350709673
-0.1504864396174716 -1.165611349791318 0.9898164101010907
0.5998529730019604 -2.295270954424963 0.4181901658012682
-0.5102482499744088 -1.697083271624275 0.8740047882561655
-0.9985749662315751 1.435611480767751 0.07451676540363825
-1.011348661394002 -1.539399177625682 0.4491301876789965
-0.9844607800400582 -0.1912228186892731 0.192572728690981
-0.6128267810853323 -0.7774833961194427 1.158792147021335
-0.9997926549914743 -1.534146873306022 0.7358687378483875
0.3201597018629416 0.9749081986867219 0.5137017830181719
0.6917835131497102 1.982161790433538 0.9335174237874152
-0.7295542629454054 -2.153585238994402 0.2793433823486927
1.048787086648422 -0.7799358045045057 0.3028198729825381
-1.003174096288011 -1.595832233064518 0.2967015423647059
-0.9956206799747014 1.883924902500846 0.7013870784758699
-0.5363039722205729 -2.243131602819778 0.6724361668219666
-1.021430902130159 0.3192029683544205 0.6624031561865392
1.065667148984339 0.1892635973100502 0.7476992274472427
1.053015603393845 0.5949059285215245 0.4206056013813412
-0.1418625645320474 -2.15589229988981 0.1905269153400035
-0.8544257470278877 2.099858832633768 0.4174138032734733
-0.9885227507898891 1.629336212448891 0.09016355198615768
-0.05416649811110522 -1.067197157761908 0.1324681818056514
-0.910718813601807 0.9824317046327726 0.8990292077215919
0.7659510053388762 -1.126466206787571 0.1452583532788601
1.064990285342547 -0.06763990839099549 0.7483552922881137
-0.9703441837923824 -0.8607150629224296 0.8415903648292077
-0.9925316236114572 -1.71922035107964 0.289116992883896
0.935336126730712 -1.912053598129664 0.7212251757517629
1.06047443453862 1.156980867665333 0.4244652796477618
0.5788168888466149 -2.0121705935051 0.7950071646941119
-1.016670344920411 -1.432916618330265 0.6505527772484081
-0.6732567271958381 -2.155016000685149 0.2086713848070886
-0.9152704071184157 1.949823651911214 0.2157183844900668
-0.9922948742492805 -1.427351788993231 0.07483030960786258
-0.7373641842774041 -2.152761096147381 0.344832725508415
0.4765476209570133 0.8219026931211089 0.1324371978901578
-0.4326176173318405 0.06111644102796542 0.1320166815500207
-0.5156030902250808 -2.228074400849202 0.2330779863155975
-0.898086351176277 1.231211982129249 0.923531001006308
0.7895227079585047 1.848867258077524 0.1516086035636197
-0.7278989370509529 1.061686520121951 0.1470606820056499
-0.7422757906102508 -1.539399177625682 -0.001259294841219828
0.5377254858779791 2.122837527541291 0.8960419891469025
-1.017508792581098 1.629337570758593 0.7067930471624415
-0.05835941791182731 -1.159580273731105 0.1297389746716361
0.4346954418727095 2.119300896837389 0.1951355937958181
1.032652833442688 0.9854110324298215 0.1970107524817539
-0.05574122643147099 -1.595832233064515 0.1253481673451736
-0.7766795441505288 -0.7799358045045057 0.1573858214090263
0.07568148996751895 1.460999699894479 1.070957109216118
-0.3059280401963969 1.971189321262522 0.1547912206378714
1.057037906743637 0.8210724048812728 0.7475536928162283
-0.3990011644473891 2.22935867370387 0.6102151694106279
0.2970738743421576 -2.404312899877179 0.4275731143711144
-0.2114272604509259 1.849454885398572 0.1394984858915143
0.4822150249127437 -2.357737126865042 0.5992367145527531
-0.7162515334339771 -0.7424602100100245 1.056957007920309
-0.5573726492873119 0.5534813950212266 0.5041198728326841
-0.3972556912199785 2.190571007799413 0.7305687433388768
0.6668977452816858 2.052570434551545 0.1942942822327018
-0.1388740939035994 2.059732920736035 0.9354546209577314
0.2996570749793263 -2.394309674832654 0.5207860987407362
0.8786836918898774 2.039000145328284 0.8398690282883814
0.9029163345309675 -2.009890108393047 0.4076826328631305
-0.2673269628973257 2.193764383286399 0.7308807822633404
-0.8559525276176336 -1.312476320118929 -0.003787377167962137
0.5570469944718255 1.527832557343108 1.034968023286508
-0.1484085809465588 -0.7105818997088973 0.6834701027121033
0.6058844979197156 -2.285432771137507 0.5853777828278004
-0.9372709902097199 2.004924482521844 0.6965325936443059
-1.012573109184948 -0.3105028793504975 0.4189171147430369
-0.3908348205279086 2.198196708115416 0.7529829259476937
0.7201564774499569 0.7788878740085337 0.1534600941435691
-0.5246957615119958 2.054173002889207 0.1830183110904896
-1.009916490454514 0.6888432733356473 0.3024573744590158
0.7003083144248555 1.766415612491445 0.9698457588304674
-1.009487163346343 -1.539399177625682 0.384870604864362
-0.3584604760351207 -2.012061032371163 0.805660281123196
-0.6641610013444198 1.586585876601698 0.9938939369354454
0.8271862667364792 -0.06763990839099555 0.1561219958810171
-0.5189972988926979 -0.7213487713628721 1.06636547383565
0.60565607531368 0.4616513617433688 0.1411351306763876
0.1894324682344196 1.460999699894491 1.070957109216127
0.6966319621819359 -1.483423013783017 0.08190883961524401
