-0.9361639062918853 -0.4218986575376766 0.7508274567245876
0.4667108547825705 -1.672204866379488 0.2538812667538987
0.9890203770415443 -1.800645909866868 0.6949661700733595
1.006499848148453 1.678768248161067 0.9983598575896338
0.4941331798978376 -1.83308104773472 0.6929025688228719
-0.1774597722967227 1.607638021422555 1.143914474758998
-0.4878595457003697 -1.943001974065681 0.6540480475723667
0.1249950823607505 -1.004265412130365 0.9140575998766807
-0.7167472855413128 2.268709019694722 0.6412138914255121
-0.6406291159759604 -1.034236478867395 0.2089703603092663
0.5968264550354748 2.045875375226484 0.2671987149565749
-0.4878595457003697 -1.943001974065681 0.6540480475723667
1.078470784317657 1.219388670666111 0.9052146885220531
1.052849747409436 -0.4166016775522213 0.8599855571645038
0.1271574053197296 0.6334732010200178 0.2361823816677016
0.2179506924523465 2.368180046281639 0.9963801193990924
1.012016311144588 1.737719738726622 0.9989595524957673
-0.3125250282101446 -2.186855025404585 0.511989511941892
0.9420145510202219 2.240405687260015 0.7092787141350512
-0.3606987800532643 -2.137139172199769 0.5718153017288824
-0.3464294438497363 0.005421220162853126 0.2523421508475234
0.9903178277947921 2.158739390708286 0.7763815821387852
-0.9104003551036746 0.2503315767916566 0.8011699032145658
-0.5049987069911602 1.524788318510044 1.082634806633317
0.9025541936907746 1.293382961783055 1.038535355297408
1.082780339928996 0.74080348493751 0.6307049977607574
0.4541441640169191 -2.158715836453832 0.4590706607087941
0.7545082627586628 0.8297688704594235 1.145768672814183
-0.1543801961689032 -2.112215498356582 0.2778756876163933
1.038075591338623 0.9097682112116644 1.011084676583741
-0.4940801582072634 -2.066795921729722 0.6330307968599895
0.519993348882292 -2.144593109446154 0.5689603447371693
-0.493115182124656 -1.24145951769157 0.2184473437243845
1.054590423691994 -1.426214554626399 0.6878889476142689
-0.9069314529047263 1.47903010411707 0.8722606527077362
0.9562160860069693 1.579416691400031 1.010821376353456
1.076062897441066 -0.5246942065155377 0.6967177738254529
-0.7862429395380124 -1.192951630540275 0.9424307423052015
-0.9518921864162736 0.8906832285849821 0.7640883527091943
-0.612181497588667 0.3390172295210325 1.129898553854618
0.02564086434839367 1.106426759885021 1.293751360279416
1.047326349881897 -1.002694133139347 0.7807516604537448
0.8353932304979496 0.4550422527152735 1.060401245267179
-0.719577257816032 0.993587035188094 0.2551663626753676
-0.005474948864297106 1.383883048870738 0.241689648924412
0.9154146071424433 -1.587683875412163 0.8546575752242087
-0.1076067298653236 -1.792704952475942 0.2510977989023146
0.4391265982797926 1.72476861694592 1.093175773186692
-0.6663911252278861 -1.759588366919377 0.7751027921180207
1.075593545235827 1.219406891586595 0.5447267776193623
0.02257914317756481 2.370180718754744 0.9517770757047945
1.020436696168383 2.008729629464118 0.8325511720894947
-0.6869176447061229 1.440910793219156 1.037014203291255
-0.7164718647953567 2.293608548247947 0.7797230380663152
0.9662578133923593 0.7111761034024389 1.003532618672521
0.02564086434839367 1.106426759885021 1.293751360279416
-0.8262954201841661 1.480772483106841 0.09881465384414989
-0.9281658833950538 -0.4218986575376766 0.8306288838474614
1.041247860352571 1.779651433126653 0.5367525522162374
-0.3829907761556197 0.9091880315069403 0.253235461891666
-0.4947950286126681 -1.806447784673424 0.6915564888676313
1.039127338818264 1.539133037973683 0.4406284797056509
-0.5758547455237701 -2.05319538133332 0.289451321111217
0.253263845820836 -0.2412428533131792 1.200719347397522
-0.5862826846028357 -1.024813602941033 0.8936056804496753
0.1206436761212257 2.370180718754744 0.9517770757047945
0.3428347124052207 2.212969840449153 0.31647219498455
-0.5857842924912819 1.627473931071134 0.1981982878326892
0.957906216165919 2.082610390477552 1.031917402656366
-0.6874462957963626 0.6909698988954826 1.090291076247836
1.044824242548347 1.779732516150346 0.8801513225976334
-0.8825864745429672 -1.481297173932702 0.3146331186619673
0.9621936248283496 -1.732583712520901 0.7852359194581289
0.2210813631227783 2.288792433646105 1.045816899261397
-0.3945688105429633 -0.7868983645499823 0.2542018119105033
0.350891504191958 -0.9988288941322006 0.9054436664519684
-0.7556262024565487 -1.166467213618095 0.08667238346903794
1.028506437089675 -1.002694133139347 0.8484163444659059
0.240310426956125 0.5162747440003208 0.2405108016830954
-0.7280694731056463 2.230673074923977 1.029413677538079
-0.6665961138219652 1.121401736782183 0.2211965162670773
1.01005866506251 1.478995787840563 0.1965095130280231
0.2396824530270335 0.2531008928285113 0.2405180373946379
-0.9287112289303179 1.286059904034032 0.8383581793961321
0.8988490217554981 -1.166467213618095 0.08667238346903794
1.043396405822018 -1.160461234177015 0.4295509150933055
0.5459747894868466 -0.5619689783383772 1.026114825603639
0.1203668157073951 -2.038186391855755 0.2545371757284706
-0.9334368590222887 0.6724181548933053 0.8153522372791775
0.8654848311823136 -1.332154486330582 0.9075412929269695
-0.8350710262095005 -1.269549609718236 0.09930150743454544
0.5300887898845895 0.7691959181286222 1.285500457018305
-0.8718245947027982 2.008648546440425 0.5314639065243465
-0.8877768674105091 0.137494046166881 0.8330340316890409
0.9832095640565091 2.12790753745341 0.4292631861153112
1.061593954810383 -0.7683983215949179 0.7791305293148634
-0.6321570081382241 -1.679380976791923 0.7822102202132877
0.9367472702023911 0.7965636386329096 1.040529614323282
1.05939497359796 1.286038673529293 0.4459770968531226
0.009536974460639667 -0.345757836671765 1.158004746079043
0.9280555604758721 -1.351974407507947 0.9169380911649903
-0.9124032574197598 1.416943639511531 0.814498275460003
-0.624984937766397 2.246893440863028 0.5182028149326204
0.8423656990434089 -0.110568622945008 0.2565324734881577
-0.334258838854177 -1.296477713956126 0.2270170088384891
1.069884524376425 0.6741076199130737 0.9011058477614975
-0.5071268986067421 0.5962060654397596 1.227522315784505
0.3793904250034448 -1.787219135383405 0.2570846582670312
-0.9062682899386796 1.716886465632529 0.5359164589835942
0.9302402526745406 2.216424440322992 1.018876150520712
-0.3956595560031382 1.331412648053544 1.170939404419237
-0.2221027880394071 -2.18632003650176 0.4774588288564424
-0.9107953465688228 -1.108148852649515 0.7430412585641114
-0.07162083113870882 1.548172522345528 1.171111032810579
1.032177763580063 1.286038673529293 0.2054446915932024
0.149123613295898 -1.458495364125374 0.2296875842710135
0.1494239429149524 1.827014920068788 0.2488931585748064
0.4880371957284526 0.1290380085534265 0.2523333297329196
1.080396294609568 1.219376156619187 0.6906669329990411
0.8687888667965968 -1.22671769729844 0.9261046581246472
-0.09733946686946082 0.004887522761991652 0.2405270917037001
0.8848653179533296 0.7379693787837058 1.057509649510651
-0.8430534374555632 0.84643426696803 1.027491751205459
0.9098614414546307 1.864672867386903 0.2699350583799941
-0.3448065653812917 0.3768477315497357 0.2523319198618739
0.4210842484786351 1.097943049408493 1.263830452655902
-0.2912491408483889 1.663955633112124 1.113333559351564
-0.9345602413541574 -0.4218986575376767 0.5806409410638915
0.5102987193889963 -1.780839723097617 0.2626406086453236
0.8954121213292832 1.360044261146473 1.031797286708933
-0.1797033316520377 2.361551328694346 0.9924112919192694
-0.950231506085337 0.8908219754457969 0.6374716205245883
0.3351451498609298 2.28522844215672 0.5143925061843228
-0.4717587081701453 0.128825553879759 0.2556576215922504
-0.9328400781421169 -0.5246942065155377 0.696717773825453
-0.9088790179716252 1.657925893621479 0.5346535941767535
0.4786317839498375 -1.134242862265861 0.2331897978038707
-0.7022235478463255 0.7079813601730426 0.2565764594062147
-0.9036530160027276 -1.320788403597328 0.4253750214205108
-0.1351042550917167 -2.115633561975894 0.5837077851836242
0.1165844591079484 0.7779599321890622 1.362129771055247
-0.7509064261239123 -0.03471872455324418 0.9319451365308203
0.01758370062773481 2.071033524887435 0.2482294299340093
-0.799937343011897 -0.4243116625031937 0.2638590811756338
0.2306500789725445 -0.02274961188830213 1.287245745342898
0.2254313608871591 2.345988665640227 0.6974395840504404
1.074387096558263 -0.5246942065155377 0.5832108791659144
-0.6095778159802204 0.7008047778931497 1.150455141529458
0.5459747894868466 -0.5619689783383772 1.026114825603639
1.024437190863986 -1.674174599098167 0.3888612036726137
0.7580179266921561 0.2179041155499413 1.112431546467406
0.9862003181728547 -0.7471318542869863 0.9070269820451661
-0.5950532544521544 1.78134468704304 0.2269744180957713
-0.5435793141703863 2.219007938717543 0.3805625139259938
-0.4335874119652329 2.229855909146616 0.3801568562879208
-0.07983403142307256 2.362150341117026 0.9158698617114391
-0.4675965080230244 -1.473866513546553 0.8146980683621462
-0.2108465409399671 -1.211980957606213 0.8858959205577659
0.9456472227252228 1.774173084550176 1.022537461325765
0.1908260275525975 -2.156292914688277 0.2981447262478727
-0.9283269421272615 0.6161388080508516 0.6065381357511797
-0.8003367770229373 -0.4663544368165242 0.8962405567629295
0.3538049132337791 -2.170422119078604 0.5615090133338179
-0.8770574510519525 1.30698531490608 1.005022046856252
0.3057919551248973 1.636849646771292 0.2468243610441017
0.6517776379411232 -0.340274880116528 1.093886757794211
1.029970223793196 -0.763081704767935 0.8842379748573847
-0.2015125340540293 -0.02241706996719076 1.27939145458815
0.4932025088410877 0.7169581439135935 0.2524218340229171
-0.8961750462604016 -1.608738908487361 0.4704922014571377
1.067634043953674 0.3697812046506308 0.7365769920355425
-0.8734310873119034 -1.373287224788554 0.1997635695316954
-0.9100173033014586 -0.5193901391026342 0.8647878191843311
0.2399064011335732 0.3786702584211197 0.2405165902523175
-0.7345121420544509 -1.779372054936819 0.7856705574597187
-0.769402101952575 1.059816068581873 1.069669000177212
0.957906216165919 2.082610390477552 1.031917402656366
-0.7073958521457855 -1.567877704722955 0.845633350027074
-0.9230824175644439 0.2479878267916566 0.7207720737912265
-0.8537611200935388 0.3930008415302905 0.896363654534909
-0.4808256345339229 0.7535998052652229 0.2558517182394443
-0.5908288208681145 1.639199674864138 1.052102239546399
-0.1822004831116525 2.361307310288302 0.9687420177915478
-0.9246547850723703 -0.2178456026207883 0.8172973051975461
0.23630133122715 -0.942688196893728 0.917785439511883
-0.5307342537732391 -2.128170168870656 0.5363357629988099
-0.8841932083306356 0.7029182888111847 0.3132095414733102
0.9437691326177595 0.7051792336404332 0.2639086137070499
-0.8954907866695674 -1.060305130559195 0.4314384916481533
1.050438190552439 1.352449659550995 0.4467593649931488
-0.00550938225556348 -1.000110843094845 0.2381126638610437
0.3082136599929904 1.749107405564075 0.2494902608012352
0.6755281040731153 -1.026625401000904 0.8906519234182562
-0.192461937605983 2.348606670832629 0.7779888517246013
1.010050108089969 -1.800645909866868 0.5328965737266425
1.075694756359137 0.8943546895254778 0.9699012309220434
-0.8861035411152587 1.860391343066503 0.9545993806666542
0.3086172826548444 -1.132915165950844 0.232414066236433
-0.2889748555728674 -1.753139181699119 0.7257716174543112
-0.6307969415939285 -0.914102536754823 0.2546275575339321
0.3071764671888791 1.696045516546047 0.2483981057497783
1.057360026120913 1.657925893621479 0.7465541707260575
-0.6241162943449083 2.312605476549339 0.8717138867575616
-0.7572965936079774 1.358668540922134 0.06426984392689777
0.2720090671655956 -2.151130737930693 0.3371777352180921
-0.1997917333057931 -1.933433450447305 0.2595929265941869
-0.192461937605983 2.348606670832629 0.7779888517246013
0.353407363634287 -1.156940615559793 0.8940928516316034
-0.3220620021356791 2.110225746547052 0.2689013072024675
-0.208334101982892 -1.374658354438122 0.855268865785739
0.4914672563673546 -0.5389058777379278 0.2531250934276883
1.026189302419778 1.937957256230024 0.6096142222169922
-0.5333816026804548 -1.293792433655942 0.8549845016573792
-0.005928431910825559 1.077980735831683 0.2430423347495745
1.02017610776335 2.008729629464118 0.6807790034254432
-0.2031651470614797 -1.562447652262371 0.802860147343533
-0.5987267976862248 0.7109529736008696 0.2565764594062147
0.03264484033368178 -2.198522580700693 0.46944280693959
0.6063419628864764 -2.091438848795636 0.4028640701603051
-0.1662811534053885 0.6035033280299732 1.359287514683276
-0.08216448638987323 2.353640318515587 0.7428419335581346
-0.9024358405293748 -0.2125636184996889 0.8432639137688602
-0.7016798040125218 -0.4265248154511989 0.2569698801866709
1.029865615114212 1.598600472150017 0.3258175884153918
1.011087673061449 -0.6156495133120534 0.8899452637386931
1.086393127809938 0.8066022551321288 0.9139063191390739
-0.3064611661307229 2.20507568006986 1.047690119790217
-0.4832878806388765 -0.9263372407460719 0.8982228588752312
-0.367075900090047 -1.780839723097617 0.2626406086453236
-0.4955800688907777 -1.092863882580099 0.2290247671167702
0.9903819156592337 2.155865984425857 0.7301000826441799
-0.6463204300406206 -2.056182500812897 0.4816242735348658
0.3351451498609298 2.28522844215672 0.5143925061843228
-0.5078489958797702 1.45949296576353 1.091357488981794
-0.6478066124017425 -0.1302243979337776 1.02829734848544
-0.08352895613403322 2.084532440669444 1.063462106122836
-0.935640750942784 0.7008838574746102 0.8738630315334132
-0.8630289997561969 2.077710137002804 0.949413189048122
0.9902753758604265 2.159324188878589 0.8147203284317499
-0.2750283783102298 0.9976157045159354 1.286969179207741
-0.9408454110728195 0.7408034849375098 0.7036428334616626
-0.9046783246905961 -0.6315811931583611 0.8697618042209291
-0.06935336787625468 1.20377299824569 1.263788235347056
0.9695182394831154 1.480772483106841 0.09881465384414989
0.1221074678590149 2.333540094648172 0.6372797832743015
-0.2750283783102298 0.9976157045159354 1.286969179207741
-0.7603362423151812 1.664200989503885 0.1159866824304703
-0.8885079779477845 0.8280574011098021 0.9996576783460238
0.7257143192269345 -1.343742030183135 0.8465650473664744
-0.397009505519498 1.657038478471055 1.096070961413939
-0.6739567008164048 1.687496818173428 1.039075536850876
-0.4008619605884677 2.343885646743594 0.9865751966105206
1.000101604299305 1.895359938449604 1.012373194269861
-0.5292896639923406 -1.347135876212752 0.8435766611841645
1.09069472498263 1.08275535339865 0.755364640009804
0.9358166179416387 -0.6404319542356073 0.2647070924886111
1.073644589582901 1.156203412882267 0.4412816585685392
1.082780339928996 0.74080348493751 0.6307049977607574
1.075741692311022 -0.1088620705214883 0.6153441581307148
-0.514590938254653 1.259899913681373 1.131634439822407
0.6834919425778778 -1.812647525559544 0.7026858061547034
1.014779622742443 2.013929423569961 0.9538732654803654
-0.9139275610362138 0.007043641207464424 0.3856100327397734
-0.6306146558309668 -1.232377377744576 0.1155972265679083
-0.4413470820748126 1.90277373285901 0.2608958476643709
1.055677552650153 0.5034543603657744 0.4145369666846289
-0.7951356163089833 -0.7273550364118689 0.9076951073579969
-0.542718905467629 -0.02107386683032626 1.147355023114186
-0.8695936925637464 -1.480653275249561 0.2159789403318762
0.7580179266921561 0.2179041155499413 1.112431546467406
0.4158723317441196 0.9107650497258184 1.304961747802707
1.038319135304477 1.006758781147333 1.017018788226921
-0.9229354919956031 0.1278014084667649 0.5411106393819908
0.3621932873099452 -2.193036356904671 0.5417372597803699
-0.8895304161901223 1.176378622891561 1.012764304705424
-0.173430718876176 -1.847847897865327 0.6911142194592252
1.052849747409436 -0.4166016775522213 0.8599855571645038
0.9125980577957922 -1.87675909552892 0.7303558460188937
-0.7255660474976475 -1.22671769729844 0.9261046581246472
0.9896639550289377 -1.15513338464457 0.9211112502445101
0.9433205770979662 -0.2192659260706602 0.2628637043051227
0.6725124832912899 -1.347135876212752 0.8435766611841644
-0.7018238630896752 -0.2205686142437578 0.2566114532466086
-0.4943711874186242 -1.600208151301431 0.2402794587381665
-0.8780757974922643 1.943158777735373 0.9541715531289096
-0.8780757974922643 1.943158777735373 0.9541715531289096
0.1204981231000517 -1.768653092222785 0.7324611661081849
0.5682590579930668 2.305053775326291 0.6398870279454403
1.061518545688118 -1.267852484696283 0.7173841549474231
0.7292653330912371 -0.2360816207543668 1.070538163374046
-0.2784490686128217 -2.161214033394272 0.5641399333749824
0.7797152384603034 -1.055385221488902 0.1828266138270274
-0.9034500845617212 1.478995787840563 0.5392414405624793
-0.4800487323292009 -1.248742977983528 0.8665508800799139
0.8687888667965968 -1.22671769729844 0.9261046581246472
-0.3225439354570693 -0.9951316673021187 0.9005349304400827
-0.8733203861990286 -1.108187987675101 0.2155912988815111
-0.1604166537483374 1.856737736762052 0.2499126404029352
-0.6421237305952 0.9978524910546825 0.2557610711347984
-0.6200553241838691 -2.044546601171391 0.3077257801776316
-0.8189378018844891 0.6515327183291363 0.9893360725376532
-0.6040866143204675 1.084363162172031 0.249861204222983
0.9941189127675536 0.153446959267229 0.8702965873985646
1.00351480259374 1.437849673947067 0.9978258783238436
-0.334258838854177 -1.296477713956126 0.2270170088384891
0.809119752457965 -1.423044240880735 0.8656364422968328
-0.2186241168654606 -2.137005399146376 0.3729340368318412
-0.7016798040125218 -0.4265248154511989 0.2569698801866709
0.7815332307038068 -0.9283446736317054 0.9089834587438427
-0.9068811281725132 1.478995787840563 0.6126148965278322
1.094200409850145 0.9873387034399767 0.760368105446143
0.9159506681729964 1.536437446587421 1.018475552015786
1.072251455010147 1.286041497554044 0.7460349727366251
0.7787528537797186 -1.969590812514636 0.6995088402861032
-0.680913065118855 -1.609984441283817 0.2069789182674413
0.9438758538244144 -0.3636368428970924 0.8967970926884261
0.8968401573780656 -1.327574345963267 0.0601333956007677
0.6908006316080083 1.894911869919641 0.2630246430756674
0.3071764671888791 1.696045516546047 0.2483981057497783
-0.4717485159814553 0.3755528149803157 0.2556562222076684
0.01754935707460235 -0.9448187987835738 0.9213256097246315
0.02132511715478307 2.363369284284467 0.8727730648071093
-0.7560447732085373 -0.1437648714875552 0.9187189121170971
0.01956921055020813 2.177547146497858 0.2711447782923029
0.8096139445268353 -1.759588366919377 0.7751027921180207
0.1491568402136339 -1.349664794882037 0.2249540840160273
0.1900933653511045 -2.180837406825071 0.4508730876883101
0.1196495769207006 2.372870615089731 0.9991885145579454
-0.8348089250316829 -0.3810069650898465 0.8890598096768501
-0.9150929251882316 -1.373287224788554 0.7083750687549335
0.763394549366135 -1.46868918506983 0.8297326895469939
-0.2740155689755247 0.6017492542774667 1.341245058371693
0.2399064011335732 0.3786702584211197 0.2405165902523175
1.046577312863294 1.779732516150346 0.7735376594956307
0.8522878919002714 0.9752496982354961 1.097874488606223
0.3994578040858725 -0.7878622510129859 0.2485384818569959
1.011473323980051 1.373397858501212 1.001753311459638
0.1171732728751352 1.005254957553665 1.318128878288778
-0.1647247510129796 -1.295623748293094 0.2255368905026627
1.068526284773919 0.5034543603657745 0.5886274548662966
0.4771214553827258 -1.459142514644879 0.2315202683902529
0.3068907912791539 0.7745538631508304 1.347151103104332
0.8929839379366831 -1.600758783877908 0.2017802450454956
0.9003183519920927 -1.115410131064892 0.1093198807306245
0.895870533110561 -0.562589241682134 0.898204990039963
-0.5307902143544544 -2.077673759214564 0.3445445600554666
-0.9347208544996609 -0.2178456026207883 0.5649734586611287
-0.5049987069911602 1.524788318510044 1.082634806633317
-0.1743674748321993 1.543931279920261 1.164808101584905
0.3229261509509711 2.361551328694346 0.9924112919192696
-0.1930316209742154 2.151394885335778 1.056599660248483
1.05939497359796 1.286038673529293 0.4459770968531226
0.7336116205503865 -1.184934465790039 0.8765290080356543
0.9294657588369617 -1.192951630540275 0.9424307423052015
-0.5812934075573819 -1.989747706106841 0.2741623368278173
-0.8230349940934101 0.7111761034024389 1.003532618672521
-0.6665961138219652 1.121401736782183 0.2211965162670773
-0.5960581543110485 -0.1114344181551683 0.2565324734881577
-0.9036530160027276 -1.320788403597328 0.4253750214205108
0.5463958131150625 -1.549681308823152 0.7963477290458745
0.9118102134137688 1.29193447736412 0.08314651118256744
-0.5851699775239125 -0.9768509497605048 0.8955789397898792
0.3135471915889565 1.341164865473015 1.222299777643732
0.8988291898183973 -0.7099205201044021 0.9034776491976476
-0.9110526908077112 1.416954606005338 0.8818511414888223
1.039081957457883 1.478995787840563 0.4421223103252192
-0.6281787059817244 1.620032492891093 0.136902661033395
0.8170238779804218 1.612818949644166 0.09594295076662859
-0.3448065653812917 0.3768477315497357 0.2523319198618739
1.044396890510962 1.657925893621479 0.4403911489482719
0.02254740744614581 1.738528331824808 1.10970845041838
0.9766636664685486 1.757093706285907 1.014491091879371
-0.9086210692426859 -1.060305130559195 0.701136114852891
-0.6295307513402694 2.244102825253904 1.032953282200106
-0.5335800446574933 2.293797344696529 0.6399982947016418
-0.1981308671504736 -1.631172860392283 0.7786953298166298
0.8929839379366831 -1.600758783877908 0.2017802450454956
0.8607180889897906 1.116791827568224 0.2102853978466715
0.9956675117979774 1.978112027107307 1.011081698767963
0.8450466823886242 -0.2205686142437578 0.2566114532466086
1.066261916600963 -0.3211901113565823 0.4070013369500777
0.353407363634287 -1.156940615559793 0.8940928516316034
0.7447851965332806 0.7501761636097473 0.2566825109775731
1.041406621580836 1.722094783906053 0.9531734729221081
0.01940446935819004 -0.02298492297857066 1.29280354603945
0.3555198627373364 -2.181160744475293 0.5544635945384666
-0.3499796895421385 0.7169581439135935 0.2524218340229172
-0.8767063054969442 -1.006577088160483 0.3215243464368061
0.2414274402318249 0.6914612440756635 0.2405531319063286
1.059596910270035 -1.214264722896585 0.7081270985778196
-0.9281074036806756 0.6735103431465821 0.5383175592391726
-0.9036530160027276 -1.320788403597328 0.4253750214205108
-0.2979739313374871 2.351148748715833 0.9429702960633404
1.077049219209314 -0.2178456026207883 0.785333291152904
0.6859417247665784 -0.02107386683032626 1.147355023114186
-0.9120871015761215 1.416910278491292 0.6799296357234652
-0.6242714157094585 1.082012753562915 1.115616458402325
0.3380406291011086 2.0787295711303 1.058597178957892
0.5262135954545689 0.9091880315069403 0.253235461891666
-0.8705408687888236 1.935930180637696 0.4282359643380894
-0.09868629182899513 -0.2267865347255376 0.2406451374059854
-0.9048436875790251 -1.426214554626399 0.5063301467629464
-0.867696912790809 2.07195897798812 0.7451764314375647
0.4748936193626234 1.382409835560734 0.2441046247599437
0.1207595216102237 0.0966009783321929 1.328487940466561
-0.9131136623819005 -0.6375750167700646 0.4149499883633756
-0.1929603702381216 1.851770120964113 1.068672728330496
0.1190093808604353 0.2212424911150166 1.354882236977361
0.3630572113752304 -0.1139152959208897 0.2466908909277454
-0.9032899862402795 -1.48163651032837 0.7293500910277466
0.7669435398112011 -1.407464907191921 0.8465485016407499
-0.5357672533548918 -1.240884535258166 0.86462509930708
0.8680013890862142 -0.4401375304814178 0.9174526340641378
0.02604954642365531 1.005254957553665 1.318128878288779
1.019366483634012 0.006958822213415932 0.299996766734883
0.01774683686788966 -1.163165523234393 0.9024443586692432
0.9836049801906255 1.995169117068803 1.021487183034318
-0.5919346545088278 -1.595327260897822 0.2201141363536734
-0.6215279694026308 1.252855725011983 1.087076333239789
-0.2189704680109958 -2.193036356904672 0.54173725978037
-0.5925155295439949 -2.075463402778834 0.6206289095681797
-0.1346221730004929 -1.731118425218238 0.2502924255926775
-0.9212188534892933 1.224622133664735 0.970689475225235
-0.8832864555474022 1.937957256230024 0.8881046021360773
-0.9230117518754147 0.007043641207464431 0.4760905382004568
0.6765737579544511 2.31965374573398 0.7764160238517683
0.1273129796874614 -0.5441995601965208 0.2370020275820927
0.008944413460991282 -0.7885335318316211 0.2381176568601652
0.4172383882744739 0.6017492542774667 1.341245058371693
0.9248456945582115 0.6651441246009069 1.017277783606415
0.4902945998722694 0.6289371235972302 0.2523340350333197
-0.6421237305952 0.9978524910546825 0.2557610711347984
0.4772660448941647 1.08330524771701 0.248979744393717
0.2342347739806437 -1.002012587980848 0.9104880950487605
0.1492273407682848 -1.23970125457075 0.2252824924616781
0.2306500789725445 -0.02274961188830213 1.287245745342898
0.3484044251558989 -1.494462499690609 0.8237797498099237
0.1905900745983783 -2.209279340494301 0.5042642638947356
0.7052836651810601 2.035927452456992 0.2680082480377195
-0.892003772806631 1.85518753786483 0.8858897152787852
-0.7461915194502695 1.485830293430025 0.05917157273452961
0.7244661303047953 -1.660264507965621 0.2553145290932039
-0.7054969262023142 0.7470215276676424 0.2566825109775731
1.062390530018715 0.127801408466765 0.4750191615274159
-0.4927244184888415 -1.511527366133089 0.2280721866918896
0.353407363634287 -1.156940615559793 0.8940928516316034
-0.4483114490544582 -0.8310713335555721 0.9210004877088811
-0.1965569740631061 1.993750589583275 1.060496180082221
0.6380178479116174 -1.806447784673424 0.6915564888676313
-0.761489712281904 -0.2470486847630457 0.9109265940300418
0.6504766823393124 -2.128638596602706 0.575075329996534
-0.07731281022258019 -1.764828686712014 0.7305921268119794
0.1220907619787357 2.358300932049819 0.7432537605769477
0.8261305437119548 2.308082193056936 0.9728701920375369
0.1393108212533237 -1.734757979294725 0.2461953481675759
0.3660043341981342 -2.199552387518108 0.5095446622902888
0.5815130066526437 2.196456461453761 0.3240934219443811
0.01086373090557389 0.9124544334346402 0.2378731088489064
-0.8844608588584896 1.937957256230024 0.8297175817590651
1.048202295646354 -1.108148852649515 0.5184408457401121
0.1904353198695142 -2.208358163472367 0.523026863060337
-0.9078384294121806 1.159568141298658 0.2290516498163997
1.077049219209314 -0.2178456026207883 0.785333291152904
-0.3085221607117381 -2.127027185103446 0.4023076763234943
0.3356847569049163 2.349731369217039 0.8198805479480769
-0.914989741632404 0.008215516207464427 0.8012372292728635
0.7504597841181105 0.8174873475618913 0.2568849253525808
0.4507120975437257 1.845769313980158 1.063402105342379
0.7413692455097103 -1.039063296005897 0.227302657412805
0.922954715779515 0.1879574958398994 0.932800487053186
-0.3074892782447763 1.845769313980158 1.063402105342379
-0.4778165737808001 -1.086223776154356 0.8892357586788906
0.140847384030639 1.000504526169476 0.2404012555219965
0.8964378619725789 -1.486067971854646 0.1113021128043566
1.085133721535626 0.8072331684192459 0.5483077825347604
0.9367472702023911 0.7965636386329096 1.040529614323282
-0.7165086241023518 2.292132360598419 0.7429674855366638
0.360637054675846 0.1291783795843581 0.2466462241322919
0.9798747248678219 -1.110452110081653 0.1393095640664858
0.6285417026981947 1.571803465268454 0.2360264935481686
0.2101350270118889 0.6049984925182361 1.368223529012307
0.3542608212976457 2.061211816084785 0.2584217574746526
0.8137985026427963 -1.367614370577296 0.8794004721962022
1.090346214156114 1.082773550880616 0.6990032224253794
-0.9408454110728195 0.7408034849375098 0.7036428334616626
-0.3957348338961084 -2.164396257541125 0.494961450424796
0.7008818558659703 1.001957754602727 0.2558300600552172
-0.5216471747953917 -1.719349611739625 0.7242732293995764
0.6329220277251162 1.380700232654351 0.233680339565121
0.1486977681630876 1.383883048870738 0.241689648924412
0.6790855941383108 2.240207084081508 0.4507275374983866
-0.3362981062920339 -1.635218601343034 0.2498387000608683
-0.4675965080230244 -1.473866513546553 0.8146980683621462
0.8973922876185266 -1.274380903310724 0.05968831685555755
0.4995776669188832 -0.6534634791667013 0.2535608418786386
0.6988979084325147 -1.594151824868994 0.7717735705571334
1.024219033302451 0.6742683757849932 0.3131291689296339
-0.2461939529478921 0.9107143994508475 0.2478262827705145
-0.6237657032948768 1.559729035574809 0.1228020745013704
-0.3497619382836121 -0.2247924273447093 0.2524571562734211
-0.5159468324999618 2.329799515805804 0.941690518319529
-0.08215714385680387 2.356325572166781 0.8215134583273498
0.01544303105488517 0.7621635460404924 0.2363842689019077
-0.005928431910825559 1.077980735831683 0.2430423347495745
0.907193528006906 -1.654568005463934 0.8322054061422011
0.8144050703821568 -0.3355963230397139 0.97309206343553
-0.6876340024083287 0.7821525651854553 1.097575369122276
1.03207638281779 -1.160461234177015 0.8482374903026857
-0.09235590674438464 -1.324407340298857 0.871453278921579
0.8260278181915329 1.723546580301941 0.1487605896938603
-0.7584473822263123 -1.073372815160489 0.1346663548622668
-0.4788794043353658 -0.3287884599113335 0.255921929090447
-0.6237657032948768 1.559729035574809 0.1228020745013704
1.027683678157439 1.937957256230024 0.8297175817590652
0.4773928977805155 -1.512423745215439 0.235505960809934
-0.7803726839725529 1.227648436690162 0.1107962525517758
0.7351574738077772 -1.595327260897822 0.2201141363536734
0.6744436794224668 -0.9784252844507808 0.8926603923995861
1.054643629646852 -1.426214554626399 0.7192262762152708
-0.7560447732085373 -0.1437648714875552 0.9187189121170971
1.034906823749844 -1.320788403597329 0.3158070037829321
0.596154499635531 -0.9203254251057899 0.2533933806978042
-0.3051375074418613 -2.132784939966333 0.3443867340216237
0.8596920415255822 2.29467779937337 0.8279179717236497
0.4802966233202378 -1.061987811985434 0.2364882676634438
-0.0910119546817738 -1.002012587980848 0.9104880950487605
1.050587965837936 1.416910278491292 0.5438103046385406
1.039081957457883 1.478995787840563 0.4421223103252192
1.018584056964432 -0.6384188336046784 0.3117895312391438
-0.4923333265016083 -1.45842740384088 0.2231397851080411
0.9771593749276425 1.938451542451168 0.3235651360978103
-0.5919346545088278 -1.595327260897822 0.2201141363536734
-0.115512065168146 -0.7014707494571227 0.9862947446190691
0.82160726832234 -1.209244312346593 0.9093866515189564
-0.935640750942784 0.7008838574746102 0.8738630315334132
0.799218030901439 2.026773267942541 0.2680082480377195
-0.588721064538968 1.699064420301023 1.051009722781267
-0.8431118774160809 1.912424517222518 1.022407564950456
-0.5773473222995952 -1.399327458722781 0.8326627766851752
-0.7560447732085373 -0.1437648714875552 0.9187189121170971
0.7838519352749096 -1.034236478867395 0.2089703603092663
-0.04442260215280696 -2.179236928752684 0.5542907488990418
-0.9230117518754147 0.007043641207464431 0.4760905382004568
-0.4878595457003697 -1.943001974065681 0.6540480475723667
0.125297463870987 -1.107631996435569 0.9084618032474617
-0.6015623772343314 0.7501761636097473 0.2566825109775731
1.038817875874733 1.603817134687698 0.9488558652555625
0.7351574738077772 -1.595327260897822 0.2201141363536734
0.3082136599929904 1.749107405564075 0.2494902608012352
-0.2151838222804467 -2.186279823567786 0.5495512284812326
1.051819170809344 1.478999223217299 0.7185893718397243
0.7571251070761221 1.152996077814733 0.2226395448014225
0.2267517754329031 2.084532440669444 1.063462106122836
0.4793820503132155 -1.092331062740421 0.2352551879526247
-0.4147971796065131 0.09647552215820937 1.253273479249718
-0.8678648537624997 -0.6156495133120534 0.8899452637386931
0.7805301658546342 1.730682849354705 0.1755679371643696
0.3653795337088804 -0.1342513947788119 1.237934947058706
0.017620297917326 -1.218480311963613 0.894057917763657
0.6380178479116174 -1.806447784673424 0.6915564888676313
-0.04507911683706399 -2.154627524259804 0.3322752668655662
0.9779853731104046 -1.73884635713156 0.3078282563382041
-0.6293442288030666 -1.393635498058556 0.1168057898428347
0.02358242639042701 2.352786074650181 1.027523513813387
0.03330591215777702 -2.15710189681647 0.3288062149963027
-0.9155823586569958 -1.320788403597329 0.6005115240437091
1.038817875874733 1.603817134687698 0.9488558652555625
-0.9069625205119225 1.539133037973683 0.6077257372697555
-0.008120894986965947 1.156135469647973 0.2452360022673639
0.002375435268151486 1.000504526169476 0.2404012555219964
-0.3882413543272266 0.711617834961183 1.290728496333846
-0.171278128804662 1.156274840204361 0.2454392860570946
0.9501455251997488 2.143179800966387 1.030285534993504
-0.6368795511953143 -1.193568903194705 0.8903665217925731
0.4391265982797926 1.72476861694592 1.093175773186692
0.6195314380168807 -0.112382842617771 0.2557013991131237
-0.8524446924990281 1.978112027107307 1.011081698767962
0.9712799821635159 1.540985786221 0.1086841572432273
-0.7018238630896752 -0.2205686142437578 0.2566114532466086
-0.4608190530049523 -2.089137284618848 0.3758670193661334
-0.1937076793193432 2.268137781567477 0.4454173384184139
0.452906924266292 2.144374723794702 1.052109988217491
-0.6215279694026308 1.252855725011983 1.087076333239789
0.4780304985614211 -1.18616862056568 0.2298836033302361
-0.6951163116457203 1.374357365147715 1.042482590237932
-0.8751193180765504 -1.214264722896585 0.1992735757436538
0.8875053515974891 0.7705564377530341 1.061414243523492
-0.4271902265154415 2.251196555319105 0.4504713868291206
1.075694756359137 0.8943546895254778 0.9699012309220434
-0.9141799262580412 -1.214264722896585 0.5872448324211768
-0.725017835416136 -1.279653799756917 0.9173693997430806
0.7682077570653462 2.246893440863028 0.5182028149326206
-0.7918638152356897 -0.1597487284315327 0.8990741871301438
1.008554063137225 -0.1967176661363908 0.8655011486725918
-0.8968153558130501 -1.675858836719956 0.5974362600352488
1.036386623798894 1.85518753786483 0.6780205097681918
0.5348242911461907 -2.108983961050062 0.4028640701603051
0.4303803385327132 0.2201472072875587 1.322266381117698
-0.8961750462604016 -1.608738908487361 0.4704922014571377
-0.8611655840369584 -0.8985446402035274 0.9059348185865515
-0.9358293750791955 -0.4218986575376767 0.6388140599732142
0.1225386705959651 2.088638628404749 1.066904593348008
-0.2189704680109958 -2.193036356904672 0.54173725978037
-0.8812143715650361 -1.674174599098167 0.3888612036726137
0.1494239429149524 1.827014920068788 0.2488931585748064
0.6149815274690946 0.128825553879759 0.2556576215922504
0.314500948103532 1.156274840204361 0.2454392860570946
-0.6241162943449083 2.312605476549339 0.8717138867575616
-0.9123533849088976 -0.903866438611447 0.6392909683146311
-0.04507911683706399 -2.154627524259804 0.3322752668655662
-0.9338263999103642 -0.2178456026207883 0.7853332911529041
-0.222237051639267 0.7588358514456064 0.2468442635613277
0.7756572923242887 -1.587627284969292 0.1895380128379927
0.3082871720621616 0.9135740161525656 1.322517302703567
-0.3872776148291881 0.8385504693574131 1.274398128228312
-0.2262816566281947 -0.6555898491400856 0.2478893557862879
1.09069472498263 1.08275535339865 0.755364640009804
0.325423302410586 2.361307310288302 0.9687420177915477
-0.7079862095426539 1.170259265517735 1.074254094668442
1.04667290386067 1.478995787840563 0.5392414405624793
0.6482215262901095 1.524788318510044 1.082634806633317
-0.7024202264840347 -0.02360366118500487 0.9805166128674272
1.044396890510962 1.657925893621479 0.4403911489482719
-0.05998234145193628 -2.116743024864618 0.2721703208128221
-0.4959090982001003 -1.632198904877667 0.2488528592607455
0.7793847215770747 -1.246527853908302 0.8815089232292775
-0.8470950084958429 2.158739390708286 0.7763815821387852
-0.2215524904516672 -2.171289744030225 0.4572706690509927
0.906903713954431 1.717728903799671 0.146327117038121
-0.6141539673423651 -1.742147794146752 0.7571293752690687
0.9621235232604818 -1.879452519259911 0.3745087175477994
-0.9314668771371427 0.7031573191174262 0.9114058756991742
1.051801460011095 -1.108148852649515 0.5825680528205041
-0.5078489958797702 1.45949296576353 1.091357488981794
-0.5902543504857943 1.686039701741552 0.2067254157129701
0.01198114532867675 -0.2419283120948162 1.205459257850441
0.02257914317756481 2.370180718754744 0.9517770757047945
-0.6293442288030666 -1.393635498058556 0.1168057898428347
0.6380178479116174 -1.806447784673424 0.6915564888676313
-0.545172420827529 2.052592018897257 1.05001487713332
1.036800226931718 1.855187537864829 0.7402488177291222
-0.2979739313374871 2.351148748715833 0.9429702960633404
1.094132381110176 0.8897729192382478 0.859422759151286
-0.5096432773086697 1.155901572620302 0.2412916554165041
0.2209790295497669 2.365495680374543 0.9494126403523426
-0.07030275517719584 1.481818667606841 1.191251354731592
-0.9115300973654151 -1.214264722896585 0.7823971029513962
1.053567842544384 -1.214264722896585 0.517230442857255
0.9252611917766573 0.4278483302833963 0.9675852514954801
-0.09235590674438464 -1.324407340298857 0.871453278921579
0.906903713954431 1.717728903799671 0.146327117038121
-0.3354089646509042 -1.134242862265861 0.2331897978038707
-0.9284007740041241 0.007043641207464438 0.6673083327016314
-0.8479890578342594 1.122802599456108 1.035199426589749
0.9049022740457746 2.273445540730892 0.9869649995817699
0.017620297917326 -1.218480311963613 0.894057917763657
-0.9191489692432351 0.3698797640347003 0.5012685308315535
1.028506437089675 -1.002694133139347 0.8484163444659059
1.090645129680878 0.806986816115376 0.7677439873354746
-0.9078384294121806 1.159568141298658 0.2290516498163997
1.019569759083853 2.008729629464118 0.8895069451287408
-0.8814248549961381 -1.73790448484395 0.502471164533068
1.070012433827261 0.007043641207464424 0.5432426987851268
-0.912832088000201 -1.373287224788554 0.5944003106463509
-0.568111545371526 -1.527062493774486 0.7953551815175706
0.8506186714447348 -1.567877704722954 0.8456333500270739
-0.1124709739001051 1.994055987359038 0.2513818469944126
-0.8724806143870348 0.1278693066016751 0.2999080089745458
1.034044222798687 -1.214264722896585 0.3181486472738243
0.8954121213292832 1.360044261146473 1.031797286708933
0.9456472227252228 1.774173084550176 1.022537461325765
-0.8818600022060683 -1.73790448484395 0.6499802162590466
0.6136899333430826 -2.127095340881236 0.591880387886514
1.00833910618729 -1.800645909866868 0.6325188570302922
-0.3871771519353539 -2.114833313900974 0.3449504725589693
-0.7570955326931435 -1.115410131064892 0.1093198807306245
0.1517045320792422 1.123657915349067 0.2443864593156354
-0.6829077244130053 2.308082193056936 0.9728701920375369
-0.4936430684805019 -1.186382195290942 0.2215236841639546
-0.05998234145193628 -2.116743024864618 0.2721703208128221
-0.1393030238236316 1.001549228841323 0.2439711197409591
0.8988291898183973 -0.7099205201044021 0.9034776491976476
-0.8673166176894326 2.070677807529919 0.6786446744466976
-0.8772138768694335 2.008729629464118 0.8325511720894947
-0.8913180683718036 0.01452642728287188 0.8322205294555085
0.41998842756791 0.4673672523297536 1.343843682200763
0.2361967100223916 2.066963533251685 0.252453001277119
1.079591492547788 -0.2178456026207883 0.6883044262636029
0.9687903216787295 -0.5958952258883911 0.894772306218576
0.3081624780866763 -1.560600632275015 0.2397151178012076
0.6375940067175735 -1.600208151301432 0.2402794587381665
-0.4778165737808001 -1.086223776154356 0.8892357586788906
-0.8842796049309358 1.937957256230024 0.6797862786594098
1.036909788079945 -1.267852484696283 0.8456078930525001
-0.492583777533245 -1.350505217977595 0.2178659421227856
-0.2220242426117425 -2.198701974384425 0.5283188033698456
1.08077012723024 1.219377409390438 0.746954161165059
0.6900539722256548 1.968724471725063 1.05129522776573
0.8977683413221439 -1.026599715417461 0.1921725168233202
0.7473053494575634 2.303092125409549 1.012974154895059
-0.08749138479410049 2.123044331122228 0.2575240049038119
0.7361631708446415 -0.9191052604363723 0.8966662145702593
-0.6027489313777448 -1.601831147898163 0.7859738344160953
1.045959438155276 -1.214264722896585 0.427928689442034
-0.9041035305829479 -1.002694133139347 0.7807516604537448
0.9493751534194024 1.213019848950541 1.037726941534596
0.3538049132337791 -2.170422119078604 0.5615090133338179
-0.8013952982037254 1.27693589705553 1.029782079409428
-0.7603362423151812 1.664200989503885 0.1159866824304703
-0.6383104114048575 -0.9283446736317053 0.9089834587438427
0.7373259840645774 0.623758887909047 0.256489476731405
-0.5005324856158429 1.587661843832006 1.076992088063606
-0.6663911252278861 -1.759588366919377 0.7751027921180207
-0.7752873804561402 -1.521515848007594 0.8746645626749474
-0.4483114490544582 -0.8310713335555721 0.9210004877088811
-0.6406291159759604 -1.034236478867395 0.2089703603092663
1.094760574435041 0.8908219754457969 0.7058700806583788
0.9086965713003408 -0.3476947449273528 0.9072482170605033
0.1879093580801628 -2.190098492148298 0.5475491741007488
-0.8486687731214151 -1.592529994125939 0.2389586194359209
-0.5468311529267054 1.968724471725062 1.05129522776573
0.8597314434013011 2.292132360598418 0.7429674855366638
-0.9500459970936416 0.9868042694333714 0.8548112149500843
0.3086701148220665 1.314857990481374 0.2440749997863239
0.3392520731282716 1.916285657632647 1.06307563946758
-0.8953066607299257 -1.675858836719956 0.5552563380962741
-0.7848327411769226 -1.351974407507947 0.9169380911649903
-0.5905589207403673 -1.555118416095319 0.2069993447747999
-0.4008619605884677 2.343885646743594 0.9865751966105206
1.057360026120913 1.657925893621479 0.7465541707260575
1.047472295453314 -1.267852484696283 0.4271426163431968
1.01376727402798 1.416910278491292 0.1953098323882513
-0.7341370695504873 1.490898977480039 1.026229555418947
-0.8733262471202721 -1.675858836719956 0.7343677560216071
1.02179769819762 1.352449659550995 0.1983140870732831
-0.6711822510832075 -0.3355963230397139 0.9730920634355298
0.5845699013737618 1.90277373285901 0.2608958476643709
1.070798863635974 -0.3211901113565823 0.8252775996741222
-0.08184293344716589 2.291634294617148 0.5118893726079465
0.6827240177954544 -1.656398845497619 0.7483186064791787
-0.5145971174671715 0.2187634169666601 1.205385882618196
0.8503064771861785 1.806025932531831 1.038702463707433
0.1220883516769697 2.360991717957873 0.8226689274494785
-0.1670599946511157 -1.037402818937881 0.2380717340461901
0.9417872823234192 2.184792668253911 0.4390077362424711
-0.4508465688468787 -2.150974322477382 0.5499155946124098
-0.9036530160027276 -1.320788403597328 0.4253750214205108
-0.5096257071836502 0.3406003048300597 1.221272013375475
-0.6020540556493106 1.516170556227996 1.051052751003871
-0.1604166537483374 1.856737736762052 0.2499126404029352
0.9405781132081736 2.212432511367962 0.5852981024199877
-0.3931625445802203 -2.122203204295324 0.4316475301793732
0.2179506924523465 2.368180046281639 0.9963801193990924
-0.8481608704761197 -1.367959020468402 0.8942610250830112
0.9042982307674313 2.098529814184526 1.040729885057779
0.3929665971595289 -0.6991620916949325 0.9817659620847683
-0.894736878087933 0.509307747185784 0.8842429110432364
1.049757068971069 -1.060305130559195 0.5822190838571467
-0.417217589232242 -1.255885526256709 0.8688009867364431
-0.06842924992472338 1.104340000125361 1.288184684268456
-0.2904808146933298 2.353816193113442 0.988728123968498
1.084068230371769 0.7408034849375099 0.7036428334616626
0.3903747641737219 -1.976805863893896 0.637811561090357
-0.4173639208793568 -1.201932609610351 0.8777303368121965
-0.673681306762737 -1.492701787645762 0.1148317811216008
0.2720090671655956 -2.151130737930693 0.3371777352180921
-0.8739735411842062 -1.060500805687125 0.2270358269119561
0.2399095579624593 0.12928850094067 0.2405180373946498
-0.006004521469494307 -1.23970125457075 0.2252824924616781
0.9896639550289377 -1.15513338464457 0.9211112502445101
-0.9086801771637476 -1.002694133139347 0.6986058897715397
0.4935978186129859 -2.094551754030518 0.2862653353413929
-0.9129604937803527 -1.320788403597328 0.781763916270404
-0.7521893020303339 1.360044261146473 1.031797286708933
1.038817875874733 1.603817134687698 0.9488558652555625
-0.4248482238827702 2.331041379365778 0.7764217088886476
1.018862542200411 2.008729629464118 0.6090171187507967
-0.867727785392414 2.072533659244606 0.7923885908314794
-0.6281787059817244 1.620032492891093 0.136902661033395
-0.8238034815237871 1.392834179745412 1.014468014102493
-0.5695545720855169 -0.688967786009573 0.9278024782722243
-0.9284007740041241 0.007043641207464438 0.6673083327016314
0.6857171107781985 -2.071005800991538 0.6391554407549451
-0.3730303992130487 -0.2391576172485031 1.178318848094512
0.3065454634992646 -1.002008432632401 0.2410506537012374
-0.8351131690388161 -0.4837478004565078 0.891386630533095
0.1184505831004633 -1.857269718505404 0.6943956444749333
1.049846873354294 -1.002694133139347 0.5796460314549212
0.6742888376615168 2.323099658631373 0.8664747167519429
-0.3348076792624878 -1.18616862056568 0.2298836033302361
0.7545082627586628 0.8297688704594235 1.145768672814183
-0.4399238592762981 1.003748000871146 0.2535769906890905
0.8389298533247807 0.006418109234340313 0.2564975170884742
0.9162071244403661 2.264775251011321 0.9719369155356034
0.4918240656622751 -0.1334955503666511 1.221470020290699
-0.2200209598499679 0.6897143408340486 0.2466808498418184
-0.8705444547290304 1.416910278491292 0.1953098323882513
0.4771095555913872 -1.40477713811967 0.2288110501164501
1.069642983075861 -0.6368917531071302 0.7836962219163434
0.7392809736099976 -0.1114344181551683 0.2565324734881577
-0.7370864263424776 2.12443751259074 0.2971641759146372
-0.8600026377462121 2.029528805887487 0.9933865765495114
-0.7610754114684821 2.098529814184526 1.040729885057779
0.3082871720621616 0.9135740161525656 1.322517302703567
0.3153267056199777 1.477770616311492 1.184679383529416
-0.8867474044942465 -0.7630817047679351 0.8842379748573845
0.01940446935819004 -0.02298492297857066 1.29280354603945
-0.4163363230119562 -1.147319125240189 0.8857640745693909
-0.7054969262023142 0.7470215276676424 0.2566825109775731
-0.5695545720855169 -0.688967786009573 0.9278024782722243
0.2757049956464609 -2.201456754270774 0.4895609309104206
0.1270721875854134 0.0047091506977471 0.2361907907738266
0.2405622861683307 0.004887522761991649 0.2405270917037001
0.7319438838379173 1.699064420301023 1.051009722781267
1.052206699432921 -1.426214554626399 0.5807574067567083
0.4522133042684393 2.331764700874303 0.6974868257769682
1.025809293841917 -1.481297173932703 0.3146331186619674
-0.006204441970124097 1.794408998171727 0.249847824909183
0.7601199226178524 1.818178390196594 1.046281126510063
-0.9345602413541574 -0.4218986575376767 0.5806409410638915
-0.8469256908611128 2.159747777371517 0.8692680995958344
0.6401440827309219 -1.062742725281064 0.2320005296776663
1.048547463440736 -1.48163651032837 0.5622465679894338
0.7554043168876163 0.3390172295210326 1.129898553854618
1.057150380335163 0.007043641207464424 0.3856100327397734
-0.5395011984965051 -1.656398845497619 0.7483186064791787
-0.163217749320581 1.383272567948337 0.2426903843003682
-0.6961457146459061 -0.6435230920383743 0.2577048772886209
1.080140072470768 0.7018619569389279 0.7673798069229075
1.063242678608554 1.35245375750474 0.7404988792069009
0.02257914317756481 2.370180718754744 0.9517770757047945
-0.9204032653643584 -0.7683983215949179 0.6944675040532979
-0.9042494761543648 -1.267852484696283 0.4271426163431967
0.5377916298419126 -0.7868983645499823 0.2542018119105034
0.6377301539900571 -1.134633093812058 0.2258020453968777
0.8655434935690345 2.169364888125049 0.3293920050741816
0.9780317443306323 -0.3810069650898465 0.8890598096768501
-0.7164718647953567 2.293608548247947 0.7797230380663152
-0.86762404682747 2.072650618878667 0.830958023310747
0.9159506681729964 1.536437446587421 1.018475552015786
-0.8941320820564875 0.8083460151251457 0.3147637454289026
-0.07342146006651526 1.612065289451294 1.149934524342414
0.1220883516769697 2.359861411509819 0.7798087116384624
0.6609842757051796 -0.8262079904790211 0.9083329971536124
-0.9036530160027276 -1.320788403597328 0.4253750214205108
