0.5685496952008105 0.8853148815066332 -0.1678995885661292
0.4658654446529676 -2.420513112311712 0.06492351969309076
-0.7932727074349669 -0.7334862403645486 0.8570985693670546
-0.957672515839837 1.087652838696109 0.05670494903740985
-0.5288452966197189 -1.239885506338665 0.7318696869204538
-0.9614889080637006 0.8835745614282562 0.4447224990426714
-0.03387613828512441 -2.246096662348508 0.3785296830948867
-0.5894997755675104 -1.998124758367327 0.49149338233787
-0.9329031967856145 -1.231294823351561 0.009075172753295956
0.5179313545830185 -1.469987910312353 -0.254056746754411
-0.1205156748363026 -2.140503171482354 -0.1418837241963341
0.8141553795041546 0.4366764614588474 0.1889024286685722
-0.3467223778619721 1.497034580455751 0.1789234208572982
0.1422679438528238 -2.450732608294577 -0.04640773673970613
0.06793976203044699 -1.161527969330926 0.8024045494948618
-0.8263849651471643 0.2575320802999285 0.8869378130888701
0.1968935519604497 0.5965927513451097 -0.1526872669067789
0.5390532021220058 -1.826519722037882 0.5529990225508629
-0.4450850421013894 1.497720457902755 -0.1144517101628975
0.2992819473230757 1.469023868019148 -0.1278564480243251
-0.6702278144822027 1.452067836301509 -0.1148421683194636
0.7989022802408975 -1.352572909749636 0.1786935051021404
-0.02717899238697592 -1.629181219614824 0.5953840442670895
-0.9636800861259048 0.9844089042596238 0.3744521581350898
-0.8394172299726316 1.380179240009318 -0.08952953621698914
0.5407076465187117 -1.393589076533917 0.6079116059160952
-0.8653273045993379 0.1736566290894277 0.7769656871427554
-0.5296331740156373 -0.5727595225529598 -0.1524527772212085
-0.03609790285357291 1.587791823653487 0.02020886944845791
-0.7667509100341922 -1.580191742972466 0.5765660037916407
0.7893198018460286 -1.183552010733051 0.3584222170874189
-0.03353301839899896 -2.436631311995918 0.2169666426919337
0.7962986436768613 0.2348578531055475 0.4605903322914672
-0.9195449873406475 -1.744505930203263 0.09723726129040873
0.3763541186505464 1.49919633688063 -0.09378329278625969
0.2047901392640963 1.065553807722921 -0.1514638674946169
0.2089847208633224 1.54228661691214 0.05855982714768639
0.8058518285137122 0.2743772991415075 0.3271203479660207
-0.8870146874550233 -0.02582667800109944 -0.09947831991141863
0.4562946595585743 1.494820149943511 0.05855982714769682
0.7501709214677226 -1.923356682811205 -0.01248106096104659
-0.5298927437096549 -0.4681372654359018 -0.152529451926514
-0.6254111657031851 -1.68196297879663 -0.2067642650623801
-0.1104520448406114 1.456483900474483 0.2748109809167065
-0.9393324066394011 -1.260853916288604 0.4138343620271284
-0.7635322989243361 0.912820234479772 0.6451907675946179
-0.1208796032605822 -1.524965407560887 0.59476797752413
0.7923047839468236 -1.233695334898082 0.1069063582499815
-0.3208095206902077 -0.6753921025543801 -0.1523157593218339
-0.9407343362875945 0.7253131679787657 -0.0870689603465768
0.5527280356585478 -0.6819217256500529 0.9532560507663468
-0.899773934550868 -2.04094861305543 0.1614252342088425
-0.5476460785554091 -2.399909771637088 0.1714246274771848
-0.2925036330257644 0.5616389902309074 0.9243766372428783
-0.7242511122451653 1.04161231201036 -0.1587909663330331
0.4937663747186742 -1.307904447111859 -0.156947198467003
0.7931339707401128 0.6689853709153111 -0.08599030343872344
-0.9377186122104111 0.237050140486308 0.003868922311235921
0.6869672914910155 0.2953192878145704 0.8736462367399019
0.3193762691090495 -2.440153873737309 0.1209713469820989
-0.9011005659337225 -1.496260268887479 0.5099138287312575
-0.1192421290340464 -2.217589222711267 -0.1384995959622564
0.1241406893242813 1.561182716337414 0.02020886944847833
-0.02717899238697592 -1.629181219614824 0.5953840442670895
0.2678580788146044 -1.59891794378164 -0.1589623702050659
0.6609518756635426 1.119673238541006 -0.1568917441504912
-0.9656234662222872 0.5018264356569006 0.18893780482798
0.7622470091768224 -1.862590952643099 0.08209795311402424
0.1195140344599943 1.376293795665389 0.323682389954818
-0.8263849651471643 0.2575320802999285 0.8869378130888701
-0.03674925905408609 1.583155511387389 0.09037480656018852
-0.9358057454398578 -0.02686369772625922 0.2582460128603696
-0.964568619479716 0.7799867224576464 0.1891283818067169
-0.4278697221805832 -1.450796915086469 0.600753096474982
0.4274385380660254 -2.076928153391127 0.4452698721543088
-0.6566989145910882 -1.622738629617467 -0.272440797294912
0.8180577076912931 0.6689853709153112 0.2583252811363977
0.5963774743086158 1.431691140565 0.1623733459096195
0.5692909375742667 0.3144195357836725 -0.1524399410927709
-0.6635754008227882 -0.8819657116925842 0.8965439125453373
-0.8252081246306859 -1.59682493411737 0.5535677877309966
0.3800089028701026 1.513433081027238 0.02020886944849758
-0.641402130196757 1.196237825704768 -0.1454970221511724
0.1390437666886025 -2.472269906971505 0.1209713469820964
0.4608321386750398 1.263433398601575 -0.1423922923710576
0.7744988296387038 -1.06597530186714 0.4157587721962697
0.6774360368624441 -1.59682493411737 0.5535677877309965
0.8115691441006867 1.15166870696488 0.2478220553328592
-0.8758846946793535 0.8357359948492926 -0.2863545239682237
0.6119859125257612 -0.07735485569940126 1.003830675262093
-0.5267620567888832 1.508520343073336 -0.06347732541212153
0.728887973335283 0.8868644426644872 -0.2767730656366423
0.732865795130079 -0.5695048722274432 -0.09899674964358013
0.8193511460605784 0.5582115160743859 0.3273561384963691
0.7545182474572588 0.3363847306251463 -0.09877258877183179
0.7182295980539285 -1.697917213038902 0.5187223328560564
0.7410632273902189 0.9071398198106326 0.5860266383652869
-0.9186981949718099 0.7291231842570367 0.6071016047055073
0.7463815870571786 -1.692798876194475 -0.1905125741036627
0.7490539778423694 1.33089831049748 -0.04457414031971603
0.2109186854428602 1.291761381601852 0.3839961165750655
-0.7456187866994328 -1.234965677907619 0.6845356923004343
-0.1931135039475898 1.038815422664078 0.6664870178081002
0.2757065776179111 -2.105275834970938 -0.1418837241963355
-0.4695783240948967 1.151433604010344 0.5264494787836891
0.4078887248642088 -2.294169376378744 0.282589817348363
-0.9645133786134472 0.6689853709153112 0.1890447160155999
-0.9208229786094835 1.281606200723145 -0.08783859260345597
0.1602685014902062 -0.6863866525636645 1.009922673563434
-0.9303743448220661 -1.643628158660296 0.1741686883801671
0.7892788301115539 -1.168280469032134 0.3106497039752346
0.7496834738311381 -2.04094861305543 0.1062181535113181
-0.3622312759426869 1.530158081470533 -0.09373093879860528
-0.7957046982142219 -0.6672147748086484 -0.1453856224381264
0.5530072533050234 0.8549470606961069 -0.3146755138013347
-0.008781791182763139 -1.868124020342471 -0.1513926469326943
0.711146491748192 -1.597481064149196 -0.2854438852998566
0.7986565331935114 -1.397058445010154 0.3894335508355945
-0.5943954748342609 1.174817994270736 -0.1454874851567806
0.7808547086898121 -1.69298991140408 0.2459180138887159
-0.6550094312078771 0.5567893915808766 -0.1536109394743209
-0.7636769324553616 0.8202570734674981 -0.212571133154055
-0.1191444827944342 -1.989691863713949 0.5152621590958129
-0.1212016823515884 -0.4683490712138674 -0.1525294519265118
-0.9256250950690825 0.6689853709153111 -0.1931399184530303
-0.02861253270434047 0.3844461902542946 -0.1521872864986879
0.1257205934035732 1.529504317177171 -0.1144517101628903
0.6683588288075855 -1.483475275604201 0.5586233130061722
0.04754398240591514 0.8724427547844931 0.7659515401260006
-0.00768733392079286 -1.457780861283611 -0.1558421749886192
-0.931811370849383 -0.1361100188514741 0.3885022755806842
0.05690174301073853 0.5084077936746781 0.9552964850640219
0.8071345857606687 0.334333006515869 0.1888491961738899
0.2764359069977476 -1.150540912079968 0.7953439582534729
0.7595061967339944 0.4394276258553482 0.7119237151514528
0.2813583005256343 -0.5736541713673249 -0.1524527772212081
-0.582794446778635 0.5373998511505127 0.9029893222607904
-0.7211420675131276 0.2514694420363995 0.981888736892262
-0.7153958992032357 -0.8830124871296247 0.8749674213575831
0.8168569812284873 0.883653734530425 0.327579236950832
0.5758862725201442 0.3146610237387363 0.9613503196692084
-0.3042144767044193 -2.031083287419656 0.4887974759855588
-0.316995111141953 -1.719729508295567 0.5863035849929215
-0.7393901601014516 -2.090022731220396 0.3939236456564293
0.7688161975864528 -1.862796819214404 0.2773761215217002
0.5465156041527016 -1.656281773213165 0.593345267256538
-0.349810740095272 0.6301076712202816 -0.1543750097447763
-0.1870822807154175 1.5721675036966 0.09037480656020135
0.7816132218123004 -0.2478604620994734 0.2582644356802222
0.1375258227535132 -2.476355701665593 -0.02657924220291933
-0.1156122054304686 -2.133873434557648 0.4482470426683547
-0.3548846810138686 1.540280505715574 0.09037480656023639
0.8154427754171985 0.9844089042596238 0.251926322729376
-0.3042144767044193 -2.031083287419656 0.4887974759855588
-0.687539175899987 1.470853986505217 0.09127195822565978
0.4037421289675689 -2.404134751023833 -0.0464406586600403
-0.8659066705124727 -1.498197758125271 -0.2784602735904409
-0.582794446778635 0.5373998511505127 0.9029893222607904
0.5357240195270366 1.470756313900867 -0.06290629216328632
0.7813787673371269 -1.404105470882768 0.4815140359301424
0.6075455024244345 -2.210013551666629 -0.1186830938646106
-0.9631917856286125 1.034417484675797 0.226055450075682
0.4932058233119209 -2.344722849016186 -0.06462521956203601
-0.5262237580339955 -1.145065640805162 0.7885276175211398
-0.8763823701714998 0.2365866611210278 0.76350340208705
0.03873782093726221 1.569091250956902 0.1123255302750531
0.5521004480204138 -2.281220804281184 0.2553845486451261
-0.4676296247607877 -2.431372568176732 0.1435883267086254
-0.6582327624997182 -1.855038007813428 -0.197532639798057
-0.4987777197163475 -2.315181948427557 -0.09265619482022565
0.8002571261257706 -1.352572909749636 0.2498012366705565
-0.9394853188521701 0.08097547970397617 0.188202976910155
0.6001195483531896 -1.355099080734435 0.6173856425030397
-0.1141782393858264 0.7021317264971255 0.8673004068265777
-0.9603101048254257 0.8326457805548139 0.1168287337376152
0.8129950316615326 1.151720286471474 0.126885385053115
-0.0311163449170928 -2.429584880262785 -0.06455497262490012
0.7807470323775074 1.088139975351055 -0.09566546426358852
-0.03680635872349226 1.582651995077529 0.09969875553349995
-0.2175327983150865 -1.466568084865875 0.6008576383682869
-0.3717622876099314 1.064296051166674 0.6279342693041895
-0.03579642013355956 1.555696577076824 -0.1144517101628819
0.6984636795394092 -1.980782386512007 0.4072070933681388
-0.9286267964580539 -1.69298991140408 0.2459180138887159
-0.6702187788187177 0.5111868988282101 -0.1586504185394226
0.2284606867859254 0.9631319574465344 0.6910250556022408
0.7671223731135543 0.5053514230904243 0.6915658466234005
-0.6656621247336522 -1.215257032938895 -0.1529446212017441
-0.9323539046653545 -1.643588819557874 0.379691152024686
-0.5484116118926514 0.9498141944174379 -0.1532054902230531
0.7549247963891842 0.3806756778887732 -0.09710992326986964
-0.8660588553658229 -1.545552987080171 0.5326730627688876
0.293159674128852 1.521386030750287 0.1123255302751011
-0.5474490058925475 -1.793146056735898 -0.1614257886774728
0.1248883539676003 -1.607694411692541 -0.1589623702050647
0.7998282884743959 0.6684272181390853 0.5324868085325101
-0.02725641293193911 -2.140503171482354 -0.1418837241963341
-0.1151332898522899 -2.476915200759589 -0.04640773673970355
0.6286526030733677 -1.654453647121841 -0.3091142390422902
0.7745179258178803 0.8836523838951955 -0.1964507397490597
-0.5985938852457088 0.2684238361500523 1.015092912231652
-0.5466963707664991 1.264175971228569 0.383644188953848
-0.9200290886067687 -1.643590800663751 0.01213844806574227
0.7049193954924926 -1.350129110231915 0.5652001345077918
0.6222727662565935 -2.329330125314455 0.1520058633010721
-0.8503862301591063 -2.227801769069388 0.09304553411293473
0.6985974858919333 -0.8693329886205208 0.7014079701952807
-0.3486969529609146 0.851089785908894 -0.1601560962815924
0.5096158307662381 1.182935268202261 0.4521823943814812
0.5081790990806803 -1.672756556888465 -0.2651758812971764
0.2139069540769508 1.544730090483016 -0.02431047830030967
-0.3218411181442208 -0.468253382298092 -0.152529451926513
-0.1112989222368115 1.58520460147894 0.05855982714764592
0.7741099825531761 -0.5693625984083253 0.4619235155577495
0.7321090015574887 -0.9911205715471403 -0.09812065807922112
0.814362144076938 0.9340908695257855 0.1892611345410299
-0.6181822788268161 -0.6703775375579762 -0.1523157593218351
-0.2111363180683411 -0.7890641311637375 0.9798746621471804
0.09220063897976624 0.4859779739646308 -0.1515080636387203
-0.4171444573883321 0.280087087546139 1.032405676519955
-0.6040667473268161 1.494820149943511 0.05855982714769682
-0.1641918303214448 0.9141579138610224 -0.1574174231203664
-0.02699218115899629 -1.262940485450347 0.7478551518326287
-0.9408850331844492 0.0808609279204892 0.3275525130586709
0.4189785530745693 0.4637251212896859 -0.1519790028856072
-0.02657040541666128 -0.4683490712138674 -0.1525294519265118
0.4645612845532763 -2.42116605617425 0.03310877005706357
-0.03609790285357291 1.587791823653487 0.02020886944845791
-0.7209204531714845 1.018472169346572 -0.232055460768999
0.6587362046255705 0.6124686854303383 0.7902978035255681
0.1447776753411413 -2.112146208205138 0.4482470426683702
0.134316166970169 0.9747497458550396 0.6950996062960437
-0.7627030485174795 -1.524431692805372 0.5754702651370047
-0.02885774574520178 -0.7908372302634033 0.9819831950856257
-0.8168727327494001 0.5023196804303686 -0.160512593478875
0.126057247012981 1.561092503756178 -0.0243104783003173
-0.9190975527335433 -0.6654532783656282 0.4604166405107085
0.7784834860642399 -0.6653369295254122 0.3237903177603471
0.3284453254486473 0.9518241468147973 0.6842087148699227
-0.5439140641489116 -2.434819038865399 0.06492351969309076
0.6059752814718891 -0.3017088526655247 0.9999122270144984
-0.6386606651792123 -1.963570672576657 -0.144863451803503
-0.4191601538067878 0.1863814499321312 1.053138594921402
0.7556883152970928 -1.744015205032069 -0.08828816202421212
-0.7209204531714845 1.018472169346572 -0.232055460768999
-0.4050197203217961 -2.330022594052018 -0.09265619482022422
-0.7344138876984372 1.137152671181043 -0.1567127487813607
-0.9296771178663121 -0.2478604620994734 0.3271449212116308
0.1197432378256666 1.553553911309734 0.1123255302750725
0.5996844290594584 -0.5110119655794171 0.9702595232015056
0.5437708091329035 1.438282846646741 0.1748759751811822
0.396961318554005 -2.432845906462004 0.08775226613065965
-0.8057026509714028 -2.030009061038248 0.4042160350952289
0.7745680852011578 -0.7676891881043584 0.3227032371617699
-0.02840759016911443 0.3626705151081657 1.020955873194655
0.6166084833902765 0.8746249575772552 -0.2098324599928358
-0.1865099087055079 1.569091250956902 0.1123255302750531
0.8161299618053592 0.9340911396528314 0.3266660176513464
-0.7660616327566938 1.107578896000044 0.5137303327151369
0.5289513231060162 1.311997050973686 -0.1413886020556352
-0.1831718811873508 1.528232521862484 0.17892342085725
0.7857521680652616 0.5072135664637522 -0.08882895192072678
-0.9013257908178136 -1.408805571877161 0.5145623865962867
-0.9262549910773098 -1.692798876194475 0.4164986809277744
0.7777448924083107 -1.744486041851746 0.3085433963342531
0.0474130931486072 0.8129248813362373 0.8006411379381487
0.6249600677084559 1.029681348081017 -0.188102304253797
-0.1122707755234735 1.259701971920182 0.4591262929259528
0.5321618915895343 1.027466846847361 0.6018228587968527
0.8000339978920017 0.2725118593033392 0.4591493331201796
0.3693093380825911 -1.821920062735958 0.5649963312495459
0.3780482956179612 1.508964008612569 0.09037480656024871
0.8044179508421898 0.2746210139453336 0.1885955809514847
0.1328475735377673 1.125163160955817 0.5932492371555586
-0.9146580934704738 -1.692798876194476 0.4526559295121641
0.818740007112534 0.7253166437396417 0.3275299017792539
-0.9491169381707205 -1.309245346712109 0.3779741756426072
0.8024854191212516 1.034417484675796 0.00949012966741351
-0.9370509178797956 -1.168280469032133 0.3106497039752347
-0.9272089473650832 -1.352091692402133 -0.08475977740257408
-0.9450505864400653 -1.250677372136941 0.3146367563265143
-0.02990414764140248 0.4675527587852992 0.9780553047761533
0.7925569331884272 0.7799867224576463 -0.08729553787797215
-0.03415618327810406 0.9936421416221264 0.7001941797820053
0.6296791842545628 -2.334730605177205 0.1161572474601955
0.3989242829982573 1.264175971228569 0.383644188953848
-0.8433173248455563 -0.4636143142467676 0.7905213715922413
0.7501148016710576 -1.924920438406849 0.3774349551145341
0.8053250523515179 0.6125745752979611 0.02337003580013279
-0.03773716674131507 1.557409871073288 0.1526537003885598
0.4618317142869985 -1.695581812751368 0.5947483178151271
0.2704150198927927 -0.1530591895675761 1.082645722846119
0.748100924685329 1.224363183595121 -0.1191443477194806
-0.8437114483360559 -0.6610245842735999 0.757272259631412
-0.9186753430013865 -1.49572596253032 -0.09048163612292216
0.5187436777000478 0.2621933172501096 1.000694055378357
0.7393207848235415 -2.040675490024072 -0.02929151525708231
-0.8158656662311832 0.4470178416135794 -0.1459432840396626
-0.5922343099255476 -0.3832399415288609 1.049735078686726
0.616101229220913 0.7638093210543917 -0.2101285912949139
-0.9234242542172928 -1.692905006866478 0.09925198385241887
-0.4982283392336364 0.5650922741599644 -0.1516168362999551
-0.2140564705929533 -1.854670737893678 0.5596079775429359
0.5397670881317452 1.470853986505217 0.09127195822565977
0.5487480954257812 -1.714034594907691 -0.2873915612232347
-0.7173395400910071 0.9685015647049966 -0.249144905249349
0.5487217603091461 -1.663973886224924 -0.3041189133594172
-0.8059518102478112 1.38008069396824 -0.1207788771969608
-0.3741778662830247 1.112328242771871 0.5894293458801307
0.2841726244146823 -0.009188905175107214 -0.1527229555057197
-0.9499619431185861 0.932767683394142 0.4854572981073335
0.6250458363748354 -2.336596286067483 0.01805680370688817
-0.7718847358735189 -2.331614543670715 -0.01469697510718336
0.5577166846397983 -0.2441863963471427 -0.1525718721569762
0.06336423030009936 -0.7890641311637376 0.9798746621471806
-0.4860708208061502 1.338509500238962 -0.1413886020556341
-0.5353416861211896 1.386720870810226 0.274873089263333
-0.439645434851716 1.513771548050886 0.1293578502864282
-0.7090571951041007 1.138033960472598 -0.1581641059555899
-0.7800193266816028 -1.555518603405405 -0.3196343993640465
0.06581392310703775 -0.1481529265925007 1.089706314087485
-0.02813347902511119 -1.928333828961285 0.5383867437144569
-0.02778274526750165 0.08789026338599044 1.078903261668966
-0.007715936470459824 -1.332972736227742 -0.1511907512474782
0.4558870538232575 1.492377453855879 0.09969875553356189
0.2074318199346487 -1.095279368758091 -0.1507747875900689
-0.4219463315781693 0.4117519241349456 -0.1518932172601139
-0.6848441212854258 -2.398409407041582 0.00255976660400695
0.5101759105948635 -2.28886773965221 -0.09221730341789759
-0.8758846946793535 0.8357359948492926 -0.2863545239682237
0.650302402762216 -1.36788499140751 -0.2468884860563796
0.7520018467826262 -2.04094861305543 0.1614252342088425
-0.5922343099255476 -0.3832399415288609 1.049735078686726
0.07033624790282413 -0.4683094676570022 -0.1525294519265123
-0.02569119260679199 0.2134585306398968 -0.1537690126157528
-0.2626987874306518 1.492989302427205 0.2053016497790569
0.60970851753841 1.345130119326475 -0.1375835518196983
-0.6037624105801567 1.493242663155161 0.08007611588939537
0.509196859067426 -1.81751449724093 -0.2175860016042025
-0.9285470622549226 -0.02716737988747047 0.463910509570392
-0.3115721837262478 -2.194774710429205 -0.1384995959622575
0.7078125435978369 1.346448764153164 0.2059446320717302
0.8191532909133237 0.5018264356569006 0.2582962116263291
-0.8496228161146313 1.383236629344996 0.1276186422169331
-0.7749466404339133 1.43359815374536 0.1236082590735683
0.2891585773439174 0.3045705390560753 -0.1527674885368266
-0.5752106258342673 -2.076928153391128 0.4452698721543089
0.1140043132052647 1.513007898080284 0.178923420857275
0.5731358124308636 1.124131693407856 -0.1518812877632917
0.7651652464924698 -1.744208281050276 0.01057059179852133
-0.8806378828983207 -0.5695048722274432 -0.09899674964358013
0.75390630852145 -1.228693239199983 -0.09305922226517022
0.05183924559960602 -2.466078796342602 -0.04640773673970462
0.4530111061416907 1.492578055019802 -0.06351920860224504
-0.6336092415509674 0.254267708743125 -0.153362488415993
0.8168569812284873 0.883653734530425 0.327579236950832
0.3998739907871675 -2.399909771637088 0.1714246274771849
-0.114518041297637 -2.498735902876993 0.1209713469820936
0.6731781143636775 -1.54105334847139 0.5547128017341532
0.3815628079287948 1.454633163136681 -0.1278476874811691
-0.1187576319031425 -0.4879175314804597 1.060645097120914
0.7934910958784244 -1.397058445010154 0.1051549942900746
0.7440568674262981 -0.3607238950716273 0.6088300664962748
0.06907163730257321 -0.7743989764430181 -0.1521048111025219
-0.1863765932862483 1.390463995957267 0.3236823899547756
-0.9549066735289102 0.334333006515869 0.1888491961738899
-0.0164809299899335 -2.019811390501523 -0.1434883807123985
0.271388066038546 0.1863814499321312 1.053138594921402
-0.8159766199056093 -1.297000641854861 -0.1665230503472621
-0.7700448540248353 -2.329330125314455 0.1520058633010721
-0.2703266667088746 1.30606009907207 0.3842507759933873
0.7377834005835777 0.6166316943994412 -0.2463154357840947
0.5730165208709186 0.2490837449412172 -0.153362488415993
-0.845383872647962 1.383341788327605 -0.04914655873351993
-0.783235022537884 1.297925144760677 -0.1391327326544022
-0.03674925905408609 1.583155511387389 0.09037480656018852
0.06398258439659049 -0.3807383504483852 1.074108434216393
-0.9279188634957538 -0.5692462495681092 0.1847865057072191
0.04770792182768173 -2.350821849407358 0.2893415971182174
-0.4175905248175074 -1.897556664713956 0.5394643279041551
0.7903279562982501 -1.495866175867521 0.4389720889279405
-0.008673257228132787 -1.613891739350563 -0.1589623702050638
0.8164286931288106 0.8836523838951955 0.2583716398388256
0.8152357189133197 0.5580965464085441 0.4543919734304964
0.6627509648262815 -1.975226774799662 0.4357674544626476
-0.3224491923472558 -0.120124935568622 -0.1525718721569749
0.7893198018460286 -1.183552010733051 0.3584222170874189
-0.593149055061705 0.4337699523374747 0.9515734163080845
-0.7101278644367646 -2.327602178300164 -0.06606825874462868
0.7292692969101087 -2.118316133716225 0.2778095748861679
-0.7771433977554293 -2.336129865844914 0.08938170661327222
0.7404989579224605 -2.04094861305543 0.3212976823405789
-0.6795861063117739 -1.944472583973985 0.5045369298820399
-0.4156301665828462 -1.59891794378164 -0.1589623702050659
0.7422646521255629 -1.745178536236008 0.4753636173743839
-0.7890300990655264 -1.88593123283944 -0.1584891325815811
0.2668399842995382 -2.18074503523058 -0.1384995959622581
0.4078887248642088 -2.294169376378744 0.282589817348363
-0.8437114483360559 -0.6610245842735999 0.757272259631412
0.5398045521678268 1.471223647672399 0.0807727464505397
0.6911306015713649 1.13855824038415 0.4491003303955271
-0.6260669986676343 1.406215945277416 0.2359240223902303
0.2806580894967239 0.3323135463136968 -0.1524399410927695
-0.214475352216846 -1.028437439696615 0.8732972781238522
0.5118239843391516 0.7626683043555842 0.7618689255552211
-0.7991030067421474 -0.1099892443047358 0.9460154082500517
-0.4193465909790911 -1.832812739956024 0.5606855617326203
0.2076036765831171 1.540672726296027 0.08007611588938361
-0.8915250624132208 0.0822701054463522 -0.1000817189632715
-0.7154204186465897 0.7149911563451681 -0.1675609270297195
0.4698972536714033 -2.020143396847637 -0.1426584504061519
-0.92941887033297 -0.3601421508705472 0.3269996354928353
-0.5514516239762607 -2.365910291382774 0.2132348326164714
0.7771272057785402 -1.744705152161784 0.240150101751527
0.4669396998246362 -1.387479612417528 0.6173065201096337
0.5489473569682835 -1.763245557484633 -0.265830911507479
0.7245230204642112 0.6925396862142172 0.6981144855625399
-0.2734926811718157 1.529504317177171 -0.1144517101628903
-0.8979430092359642 -1.923356682811205 -0.01248106096104659
0.5817062485373261 -2.277785779522193 -0.09088898707706997
0.818469022372031 0.6689877661680037 0.3272635874934605
-0.2835558155550781 -2.222911900455444 0.3785296830948985
0.5532428555761961 -1.873170433401998 -0.1852698056880751
-0.8425568443967096 -0.3558478274047284 0.8009727220033618
-0.3486969529609146 0.851089785908894 -0.1601560962815924
-0.9536791987158937 0.5027652376664171 0.01661171219121341
0.7752441309725979 0.9340908695257854 -0.1886023416884088
0.8107870223097635 0.9340908695257855 0.1170714262358956
-0.4734233053480641 1.003571295458133 0.6526100858344484
-0.008781791182763139 -1.868124020342471 -0.1513926469326943
-0.4865948930496744 -2.372990827292461 -0.06455497262490893
-0.5991535448673111 -0.1579054012057795 1.065332958557809
0.7930215503500427 0.2746210139453336 0.004438055698182118
-0.5612690554971163 -1.368999030988988 -0.1583694146267839
0.4636666506784989 -1.642942405283228 0.6015325768353393
-0.7691129072323217 0.9633299086719176 0.6183205003289346
0.757008003693965 0.07887203170225536 0.6033990044364446
0.06907163730257321 -0.7743989764430181 -0.1521048111025219
0.5147448038804978 0.5935136280601021 0.8566648328631934
-0.6933575140597508 -1.502152175181197 0.5929961425542063
-0.1941320045000143 1.137396486882159 0.5960486501688569
-0.5991535448673111 -0.1579054012057795 1.065332958557809
0.4798691429855739 -1.580747499039991 -0.2107365486216087
-0.7430216340161309 1.230992778322975 0.3877223241877087
0.06046292374609714 -2.359802857884334 -0.09265619482021908
0.2659015480593833 -0.3819968478230205 1.067047842975034
-0.6138445055270942 -2.410994123572856 0.1202588311025269
-0.2375136976501101 -1.100171465307437 -0.1507747875900673
0.4927680226500799 -1.389954229333274 -0.184503217151529
-0.7354563888922254 0.5161044061633839 0.8707872448644706
0.6341305236027619 1.400690540848147 0.1893768599398772
-0.6559511868489221 -1.672756556888465 -0.2651758812971765
-0.6102168989505061 -2.42116605617425 0.0002550094241257107
0.4662862075915004 0.3539501428227845 -0.1521872864986998
0.7422646521255629 -1.745178536236008 0.4753636173743839
-0.9278950732441982 0.6131453475474505 -0.1826751945024511
-0.02659733858629223 -0.5760680692462051 -0.1524527772212062
0.790921328823721 -1.445698981141729 0.103931171067271
0.7427265726072456 -0.8964022686950978 0.5508574893250775
0.124557532780769 -1.860560098241918 -0.1513926469326948
-0.4368968250873831 1.481487451819221 0.1789234208573118
-0.7769416952305175 1.438216206438624 0.02518054416746972
0.5535124859534251 0.3920660567125942 -0.1518932172601177
0.03686925316464558 1.482635599117852 0.2360614401307399
-0.3485426608730377 1.515074870536417 0.152653700388621
-0.9405861895489482 0.08097547970397617 0.2581723215809595
-0.9218820703214178 -0.5693625984083253 0.4619235155577494
-0.20998835511942 -0.5892450045725056 1.038432086067668
-0.03698077701747368 1.400470000090149 0.3236823899547455
0.6138479858840522 -0.9009038886550008 0.8391323818765546
-0.7944363192438877 -1.407083991471216 -0.2714601234843281
-0.8674488972001038 -2.040206461928247 0.3478481971794595
0.6332696685758631 0.8960083765232354 -0.3083623105617437
-0.8110996404575899 -1.428820875152058 0.5694520824830283
-0.46820889126241 -2.414481275973637 0.1725971281039969
-0.2750391782888015 1.237354037881753 0.4575342387116542
0.5724268911362164 0.05436136410346962 1.018992581939612
0.5714421651030587 -1.348398236794761 -0.2203422227418413
0.289026092500587 -0.9628922923266622 -0.1513912651598945
0.8193511460605784 0.5582115160743859 0.3273561384963691
0.6863389074696017 0.8873439415747366 0.6290289457167847
0.3653372442924182 -0.271414825417973 1.070951549552479
-0.752723712388134 -1.409674196085147 0.5918917325679174
0.3800089028701026 1.513433081027238 0.02020886944849758
-0.8584141027379997 -1.984990951371362 -0.100499285066092
-0.20998835511942 -0.5892450045725056 1.038432086067668
0.8107883957740248 0.3776093050428241 0.2582780480211953
-0.4140158437406074 -1.95762773773505 0.5162662633149182
-0.7135364985437203 1.113874303009806 -0.178649750272374
-0.2745284404099446 -1.502119790482302 -0.1581208912593115
-0.6665157654682896 0.2621933172501096 1.000694055378357
-0.8882021111672921 1.330265800833822 -0.08831594673416543
0.3193762691090495 -2.440153873737309 0.1209713469820989
-0.6260349993149748 -1.631565041941305 -0.21030533788611
0.04584444549995797 1.190236003804057 0.5359898695155129
-0.4724880567301074 -1.090146695980725 -0.1507747875900704
0.757008003693965 0.07887203170225536 0.6033990044364446
-0.9139558795071302 -0.6653369295254122 0.005052508751147471
-0.268499379740207 1.556606619679422 0.0903748065602195
-0.8107499797482977 1.166893203500186 -0.1413388748109814
0.3821206559414131 -0.4681372654359018 -0.152529451926514
0.3256512175798223 1.003571295458133 0.6526100858344484
0.8024854191212516 1.034417484675796 0.00949012966741351
0.7455578269593373 -1.693822543563361 0.487471964448259
0.1719899698063412 -0.8657269721414314 -0.151810362984666
-0.8186975064192341 -1.062440572510423 0.7112144673040868
-0.3115721837262478 -2.194774710429205 -0.1384995959622575
-0.7154234505399395 -1.376082710811389 -0.2444155009211699
-0.218042802414272 -0.3543644157768967 -0.1525633881108819
0.05001490211379021 -2.47877067441936 0.1436906672655823
-0.7893373169519189 0.3893333394914948 0.8976403781928775
-0.9150761325739807 -1.8012464271892 0.09163290742657522
-0.4319447121829242 -0.009188905175107218 -0.1527229555057197
0.39524196274333 -2.031989079034191 -0.1426584504061519
-0.8475007835605271 1.031322020263735 0.5519057833924448
0.7957040602628545 -1.352572909749636 0.1065068917123449
0.7658508458990773 0.4430226768325197 -0.09434578719598501
-0.9387153270843419 0.1715669733432251 0.4623754952806925
-0.2117546721648323 -0.3807383504483851 1.074108434216394
-0.7073904109614847 1.00787240503048 -0.2613006075504701
0.5318140185435321 -1.944472583973985 0.5045369298820398
0.7869388147633663 -0.02686369772625922 0.1886972215471338
-0.2118837493167659 0.3799016974863756 -0.1521872864986905
0.1442114480779828 1.367709843071802 -0.1413886020556219
0.5104606747314764 -1.855038007813428 -0.197532639798057
-0.9125931445463269 -1.594772665981761 -0.09175823981923076
-0.03323731826773532 -2.489675671179906 0.1436906672655808
0.7571263304166493 -1.49572596253032 -0.1985003482923792
0.7595061967339944 0.4394276258553482 0.7119237151514528
0.7952151807439154 -1.398467850184677 0.442795961484529
0.0702707146460263 -0.3543644157768967 -0.1525633881108819
0.8135210461789003 1.087463713340421 0.3159888198407374
0.7637813273972298 0.1699789245403635 0.5975732502705986
-0.1579599463193981 1.184456252325236 -0.1458584209886689
-0.00768733392079286 -1.457780861283611 -0.1558421749886192
-0.7263882998640695 0.35270581163528 0.9463241820038866
0.1672976780553767 -0.03329852470903787 1.084094321947478
-0.7031930120584875 -1.513564274298377 -0.3052922042730075
-0.2046738307789803 0.5084077936746781 0.955296485064022
-0.5173068326525886 0.3601415595003317 -0.1521872864986993
0.7485588662420001 -1.363592088922707 0.519305172763002
-0.1221936030636491 0.3209717136757412 -0.1527674885368223
-0.03315797852684996 0.6427558501825139 0.8975455781845205
0.4340513636571082 1.324941011846235 -0.1413886020556352
-0.5401844689170222 0.2984918678927229 -0.1527674885368275
0.5275418136523025 -1.00605086982318 0.8345250657408543
0.773162922497445 -0.7650975593606779 0.1830894303591404
0.7154165020688115 -1.748569788576204 0.5068122811135628
-0.1949862072670125 0.9858229907411922 0.6980856468435763
-0.6755245381335276 1.149943813851702 -0.148029112197054
-0.190229895036872 1.474925468698184 -0.1358018091968669
-0.9005048066366619 1.051244524580282 0.4929076754839517
0.2937850668517522 1.523900952748448 0.09969875553355934
-0.3270392256153537 0.3108158430924428 -0.1527674885368251
-0.8501106632622043 1.385107145950799 0.03424031456602102
0.8064212501671312 1.221923067341952 0.1613145910265599
-0.5329652237291678 1.422094565493711 0.2360339565827006
0.3153366491849649 -2.45047791356481 0.0002550094241257211
0.7913366871173169 1.220203762910008 -0.07515903971416101
-0.6203712769398597 -0.2426036433210416 -0.1525718721569762
-0.9488400844755536 0.2746210139453336 0.1120041522911462
0.5992826353130034 0.8048014544602133 0.7098416410553641
0.04245780726862624 1.474925468698185 -0.1358018091968669
-0.7032652444333969 1.184244946579373 -0.1462536679743123
-0.4667458717653517 -2.444754958887391 0.1038625484853825
0.0731981358628243 1.318347511137197 -0.1423922923710357
0.1211080969988961 1.557002039959827 0.08007611588936753
-0.1202214333295797 0.4304493510768117 -0.1518932172600991
0.7696586477804274 -0.4679123535374714 0.004759149067875298
0.04245780726862624 1.474925468698185 -0.1358018091968669
-0.9629781566714861 0.7252228520601606 0.4496414782784395
0.5761059805356762 0.5963902676484166 -0.2153674350881858
0.6562718498278918 -0.02287454030432571 -0.1458294955416901
0.6988221802374406 -2.21668725960723 -0.04612040826415787
-0.4987777197163475 -2.315181948427557 -0.09265619482022565
-0.9362061756606346 0.08097547970397617 0.1115168624676132
0.7867172760644985 0.37531382545698 0.5763499179304803
-0.9223401729693996 -0.7676891881043584 0.3227032371617699
0.5574336080397755 -0.9619747968825954 -0.1513912651598955
-0.03341760987081235 -2.50868320320352 0.06492351969308974
0.70094626781933 1.385073883248211 -0.008527808138023086
0.7185865378825351 0.5253146360434192 0.7830754097334733
0.3998103482713877 -1.640934156061363 -0.1688851635180635
-0.5711400671576065 0.8308730652441492 0.7415781845963674
-0.8788229228295531 0.9374234156514103 -0.2614974265837121
0.4484081218001611 -0.2729049318372163 1.060455125996496
-0.9501130633405281 0.237050140486308 0.2581639186761531
-0.753473190608785 -2.309185430137234 0.1972177748553411
-0.9523181954861519 1.221923067341952 0.02670697653697279
-0.6669940175329656 0.325924041607542 0.9800751278732778
0.5147448038804978 0.5935136280601021 0.8566648328631934
-0.8159766199056093 -1.297000641854861 -0.1665230503472621
-0.02689248450765951 -1.524965407560887 0.5947679775241299
0.3818610862473955 -0.5727595225529598 -0.1524527772212085
-0.9279016491304114 -1.449204314571753 0.4809745502239949
-0.7721531512497407 1.010770681323963 0.5919475840315196
-0.3270392256153537 0.3108158430924428 -0.1527674885368251
-0.3741778662830247 1.112328242771871 0.5894293458801307
0.5407076465187117 -1.393589076533917 0.6079116059160952
0.5916180723332098 -2.090022731220395 0.3939236456564293
0.2731993890067806 -1.768765998992487 0.5766904858182208
-0.8284580666602175 -1.698428855688676 0.5461643980724353
-0.9485363908317972 -1.352572909749636 0.3215922404687449
-0.190229895036872 1.474925468698184 -0.1358018091968669
-0.8960822832687208 0.174996335227442 -0.1005247274439862
0.3948228352484572 -2.435476749666531 0.03310877005706357
-0.5463564125306156 0.8410477334171354 -0.1601560962816028
0.1740304859509866 -0.2373739846630845 -0.1525718721569749
0.7745680852011578 -0.7676891881043584 0.3227032371617699
0.3755236145237383 1.482901025353314 -0.114500217882415
0.06581392310703775 -0.1481529265925007 1.089706314087485
-0.7227313932901803 0.5639245269364881 -0.1939372203567841
0.1181151010328214 1.545815868388491 0.1293578502863974
-0.9658979753193566 0.7799867224576463 0.2583480546936671
0.7483308974230711 -1.644589257150714 0.4956677600472869
-0.7767640417950208 1.434427660046236 0.1086724896289134
-0.01039551943787252 -1.969594771429594 -0.1448474316346864
-0.5144708356545951 1.163085596455815 -0.1458584209886841
0.7422646521255629 -1.745178536236008 0.4753636173743839
-0.8968260656106113 1.33089831049748 -0.04457414031971604
0.09220063897976624 0.4859779739646308 -0.1515080636387203
0.6936891674632831 -2.037237857419515 0.3747178102504225
-0.6671804381737823 0.4701646478725799 0.9165242726811026
-0.4109724108727367 -0.4873525580199329 1.051475972941107
-0.4293327168653218 -0.4681945388570463 -0.1525294519265136
-0.01486666953687489 1.258248898069632 -0.1435417557805188
-0.3385004015755221 -2.057481821550931 -0.1426584504061511
-0.1208796032605822 -1.524965407560887 0.59476797752413
-0.7836113590197544 0.9469103471002585 -0.2895127613477161
-0.6036904405436656 1.492859289723524 0.09037480656024871
-0.0273312800928664 -1.681502125759676 0.5928021919224422
0.7336622304373311 -1.358485661728391 -0.2262490381600923
0.2301112640148365 0.734137273069694 0.8269931300551441
0.6465427830462268 -1.324525579377522 -0.1978606566109628
-0.2788685978817541 1.027336595554691 0.6635009772605686
-0.6043023677340941 1.497295971315759 0.02020886944849758
0.773576583838429 -1.801362076926874 0.2951999064917819
0.05183924559960602 -2.466078796342602 -0.04640773673970462
0.5387375925040626 1.47504764380056 -0.02355879674047218
0.6583132170714536 -1.376908387173836 0.5881042237301809
-0.3110604738269744 -1.9698372422396 0.5152621590958474
-0.9030094575604708 1.083766606887855 -0.1571111942140792
0.5224557267139611 1.45206783630151 -0.1148421683194636
0.4858889609519302 0.2927653010710126 -0.1527674885368276
-0.3510277944515154 1.014023552368305 -0.1511788388867756
-0.9411010923461594 -1.49572596253032 0.3212785223125678
0.4558870538232575 1.492377453855879 0.09969875553356189
-0.6688646915491606 0.06340285711164719 1.038022516347548
-0.1209841011496654 0.3493090866881412 -0.1524399410927644
0.2577387073561839 0.4480771018036329 0.9688861805963844
0.7857521680652616 0.5072135664637522 -0.08882895192072678
0.7541999776332358 -1.451071793994041 0.5124388925146746
-0.2128002073191229 -0.2668529471787384 1.084828481526163
-0.8567414605968826 -1.695741439182131 -0.2632714119596073
0.7359955429867875 1.244385638295359 0.3020863709765573
-0.5254404943570278 -1.545195578775563 0.6003498864612196
-0.7660616327566938 1.107578896000044 0.5137303327151369
-0.9658979753193566 0.7799867224576463 0.2583480546936671
-0.6275268549901214 0.09434332822361495 -0.1533272889006973
-0.7973094623776849 1.366901959109051 0.2244879956199331
0.7929622485193528 0.7253131679787657 -0.0870689603465768
0.1241890586595791 -1.76337763044733 -0.1565665440463468
-0.9329031967856145 -1.231294823351561 0.009075172753295956
-0.9506602454591274 0.9340908695257855 0.02542068383287211
-0.1191595550639092 0.3844461902542946 -0.1521872864986879
-0.9247250218253917 -0.5692462495681092 0.1107614953116979
0.1610270950426703 0.4200980915851866 0.9887364867464583
0.7717892477438219 -1.305305917566848 -0.08773091766164808
-0.9361018977461088 -0.02688660808295662 0.3271354072868878
0.7826022570538243 -1.643628158660296 0.1741686883801671
-0.7075180269859595 0.3480437033654077 -0.1521872864986998
-0.2873192933810406 0.6284207038416907 0.8924510046985755
0.289026092500587 -0.9628922923266622 -0.1513912651598945
0.06907163730257321 -0.7743989764430181 -0.1521048111025219
0.1241890586595791 -1.76337763044733 -0.1565665440463468
0.7392425996867815 -0.02582667800109944 -0.09947831991141863
-0.2105993696019034 -2.289926758790159 -0.1230962839505662
-0.9354000112025376 -1.594772665981761 0.3829398633016572
0.7460395377257585 -2.040893988449158 0.04843238008632312
-0.5308604915671148 1.446931919237358 0.2051642320385111
0.53555139114619 -2.336868336138584 0.2044271774300804
0.7826022570538243 -1.643628158660296 0.1741686883801671
-0.9656364038829426 0.8326486943378374 0.3280396095624347
-0.6865096802723045 1.47504764380056 -0.02355879674047217
0.7955439239628073 -1.237719228418539 0.1800432356711805
-0.917591183976588 0.6727865185743905 0.6301917652450353
-0.5260416603530307 1.509350180933531 0.08007611588939537
0.4663533927150857 -1.542202883623048 0.6035195877216744
-0.5314560071501865 0.3260145888563531 -0.1524399410927706
-0.3267614368609293 1.304729260683838 -0.1423922923710441
-0.6570427590177621 -0.3839040032527778 1.035336221833431
0.5539461916197387 -1.904251419055999 -0.1585881308013687
-0.8442027078870574 0.3563256464764047 0.8521472045359605
0.2020386523270263 0.6301076712202816 -0.1543750097447763
0.0491048160743407 -2.498354689433603 0.03310877005706343
-0.9662875438674505 0.6689949519260815 0.3892742301097826
-0.8912194742021939 -0.6659186737264924 0.5881438821092959
-0.2933667440970451 1.200881915403537 -0.1446045449867423
-0.3887489756384985 1.352912262258656 -0.1413886020556296
-0.4284301772649657 0.3323135463136968 -0.1524399410927695
0.7594457120830114 -1.801219437303703 0.4242293060985574
0.7949134925294388 0.3344982753337086 0.005127375215423941
0.8152357189133197 0.5580965464085441 0.4543919734304964
-0.02901445586509926 -0.4879175314804597 1.060645097120914
-0.689137967019626 -2.395909959325635 0.0914297934418831
-0.02840759016911443 0.3626705151081657 1.020955873194655
0.1758911250590178 -0.005503222251802789 -0.1527229555057186
-0.9358057454398578 -0.02686369772625922 0.2582460128603696
-0.4050197203217961 -2.330022594052018 -0.09265619482022422
0.6149309607492378 -1.524431692805372 0.5754702651370046
0.5597459392177178 0.3480437033654077 -0.1521872864986998
0.7842685909248759 -1.445698981141729 0.01563601679745817
0.3510056319481058 -2.315181948427557 -0.09265619482022565
-0.9246116957700665 -1.396962201540653 -0.08703988258390827
0.8023409755722863 0.237050140486308 0.2581639186761531
0.2074318199346487 -1.095279368758091 -0.1507747875900689
0.0731981358628243 1.318347511137197 -0.1423922923710357
-0.2046738307789803 0.5084077936746781 0.955296485064022
0.7941505646386821 -1.445698981141729 0.1755211784221936
0.6193252484074268 0.6499143044025337 -0.1931417370784697
0.3204368034941683 -2.414481275973637 0.1725971281039969
0.3755236145237383 1.482901025353314 -0.114500217882415
-0.8906336356531536 0.56876227031827 -0.2210547574061771
0.6952674905120775 -0.7584772485165283 0.7342300413877737
0.7729948846042376 -1.594772665981761 0.4675747787685596
0.247513180314143 -2.388294163495435 -0.06455497262490743
-0.3150697658236185 -0.03329852470903787 1.084094321947478
-0.9313696327154646 0.5617168766383798 -0.1704410358674573
-0.5666955321937117 0.5263427671457178 -0.1519342193493835
0.4780917324482827 -1.782568342726515 -0.1912744674330091
-0.8906336356531536 0.56876227031827 -0.2210547574061771
-0.9535382165659163 0.2736461547300295 0.3881964352306522
-0.8414612552315248 -2.037237857419514 0.3747178102504225
0.5916180723332098 -2.090022731220395 0.3939236456564293
-0.9511015106794454 0.3327365543631827 0.458412162267509
0.5069817974774289 1.359257143007928 -0.1397545966510392
-0.3898002341208894 0.5533640512676927 0.9203020865490834
-0.9548485509049531 0.3012786738110378 0.2582613078811283
0.5535124859534251 0.3920660567125942 -0.1518932172601177
0.5455854262915092 -1.502152175181196 0.5929961425542064
-0.02840759016911443 0.3626705151081657 1.020955873194655
0.414279272759434 -2.184631517355706 0.3711260500365614
-0.6699319795269269 -1.421817185976089 -0.2379156821166867
0.4056661915864032 -1.485791043677432 -0.1668411387744107
-0.03732004292763831 1.456483900474484 0.2748109809167065
-0.8912194742021939 -0.6659186737264924 0.5881438821092959
0.0429756451426942 1.571668712514385 -0.06346685461460246
-0.7227313932901803 0.5639245269364881 -0.1939372203567841
-0.9014001468089121 -2.04094861305543 0.2156344576377657
0.6683883219805467 0.2434644320025272 -0.1464697920775721
-0.4497110317602806 -2.044563106188581 -0.1426584504061516
0.228546504135299 -2.466401440739844 0.000255009424125761
0.784702728392463 -1.594772665981761 0.4298949245758088
0.7549247963891842 0.3806756778887732 -0.09710992326986964
-0.9222851576625963 -0.7692163422744501 0.3857441140938152
-0.8784148884080679 1.285797572523048 -0.1239644137896945
0.4629375336040685 0.3982938895809652 -0.1518932172601177
0.3782695725847889 1.509350180933531 0.08007611588939537
0.28156062909708 -0.4681945388570464 -0.1525294519265136
-0.9169682666719655 -0.5692462495681092 0.004884482724741835
0.8151010669102793 0.7799058359590816 0.4502800753767482
0.3585660043441847 -0.4871431652195792 1.04465963220878
0.2904809280049239 1.461788510908951 0.2053016497790955
0.6150693041053843 0.03152098809724239 0.9942655401671784
0.472435796715558 -0.357654859388981 -0.1525633881108838
-0.850676262133712 -1.925401973890797 0.4361961286231202
-0.9034001663562791 0.3030995593948397 -0.0992279364996049
0.04808795992098874 0.9302040663668604 0.7312532802632632
0.3251064668729039 1.052184972775121 0.6211179285718741
-0.9587935223031756 0.3770932725855321 0.3887993303560202
0.3659448665009937 -0.8889568452855515 0.9214391929546173
-0.439645434851716 1.513771548050886 0.1293578502864282
-0.1873037747657892 1.572565973702122 0.08007611588935024
-0.7537473692401309 -0.3017088526655247 0.9999122270144984
-0.9100837881374099 -0.7633133391407534 0.005076172495819783
-0.9469415214838073 0.5010199249409884 0.5605875727699904
0.2945385991950623 1.524779100059773 0.08007611588939302
-0.6145001722588159 -2.415527419532762 0.1037200453094683
0.7691961789037238 -0.5692462495681092 0.004884482724741835
-0.1142283820250415 -2.502875461429373 -0.0265792422029186
0.7615774748072302 -1.924920438406849 0.3454382138985933
0.7048124180375284 -2.227023077774303 0.1686687126842093
-0.9022057080955912 -2.04094861305543 0.2602216891944869
0.2687125859464168 -0.892382273541628 0.9282555336869485
0.3789899690206415 1.508520343073336 -0.06347732541212155
0.7941505646386821 -1.445698981141729 0.1755211784221936
-0.4144175617122478 -1.701775847275552 -0.1580929673957443
0.4789035488116107 0.3200804957269101 -0.1524399410927709
0.5384402075334914 -1.134770164284993 0.7635952643030345
-0.9588777394474698 0.4360067016772994 0.4573672880114503
-0.9297058314004365 -0.4679123535374714 0.3886877586986797
-0.96712323382882 0.5582115160743859 0.3273561384963691
-0.02901445586509926 -0.4879175314804597 1.060645097120914
0.4562946595585743 1.494820149943511 0.05855982714769682
-0.9358112005726968 -1.49572596253032 0.1029606718666942
-0.2121354421523973 -2.208146793280525 -0.1384995959622569
-0.8503029815560326 0.4003833284106717 0.8357580430925574
-0.4269131797938198 -1.502648744438042 0.5955088166545313
0.513264122245491 0.6502405044746212 0.8264196615052395
0.7869784632639263 1.281950061609533 0.1491457324983079
-0.1110228287141636 1.583155511387389 0.09037480656018852
-0.9419226524069237 -1.445698981141729 0.1755211784221936
0.5996844290594584 -0.5110119655794171 0.9702595232015056
-0.4369306651121593 0.3045705390560753 -0.1527674885368266
0.5224557267139611 1.45206783630151 -0.1148421683194636
0.757008003693965 0.07887203170225536 0.6033990044364446
-0.9667709713918757 0.5582113035618213 0.2583048881043893
0.7976455767522015 0.1734807331157089 0.2581172841228648
0.3164600319831934 -2.444174426909198 -0.02657924220291996
-0.1178381061221007 -2.051743828901899 0.4887974759855369
0.2687401710864339 -1.917818681926372 -0.1469251417873745
-0.7336957416656266 0.4577515884729811 0.8985410039389089
-0.1122253696581067 1.58265402452406 -0.06346685461460566
0.7756334192786758 -1.54555235903376 0.4730893246856451
-0.008839921152334659 -1.666213443686097 -0.1585311594695652
0.7998946853283091 0.5576316524486511 0.5516818288771503
-0.6793273440382663 1.463139058615314 -0.09420629958983051
-0.5296331740156373 -0.5727595225529598 -0.1524527772212085
-0.3133017539753397 0.2861326578037777 1.036480227213762
0.6633275526893481 -1.428820875152058 0.5694520824830283
-0.1199095496566059 -0.02767076125797943 1.089188895433471
-0.8642769341452729 -1.492788960828079 0.53642823519842
-0.7101278644367646 -2.327602178300164 -0.06606825874462868
-0.9342029024853649 1.281950061609533 0.003246817354622803
-0.9285503069749259 -1.046004445473405 0.3120955797810714
0.2047901392640963 1.065553807722921 -0.1514638674946169
-0.2106586516271842 -0.4877727400656934 1.058536564182473
0.3726992799298446 -1.01510264099365 0.8594203461501345
-0.7071361256121513 -0.1305094492232117 -0.1525718721569762
0.7745130698943546 -0.76921634227445 0.3857441140938153
