-0.6653695029587629 1.017081753601315 1.171481483187003
-0.8926552220079693 0.4537595921826852 0.8869115075547596
-0.2671554936383993 1.827097277661343 1.067121828451983
0.4049564875470394 1.651661789171293 0.9992054837548237
0.3738262147060627 -2.303199641916812 0.7292383854770114
0.04740730435119647 -0.8010350143057889 1.015828256252961
0.3707525226036279 1.803086834270349 1.24227611468124
0.7348318433982314 1.217379558618098 1.11960814039979
0.9601760154802334 -0.8064410516580387 0.7930400734402295
0.3536296880805289 -1.602509225142547 0.9219063193614572
0.9872110980244959 -0.1034968040685202 0.4120987661640551
-0.8901209356539781 1.106164382407986 0.4895023328111489
0.2865084482857329 -0.88035987439868 0.9939821960359941
0.2765187303569675 1.985866025679721 1.248933385816582
0.7676364538863381 -1.425836479519133 0.06294654928974006
-0.698300650099158 0.8735275329273834 1.184230810688449
-0.2536123879550599 -2.561189325951666 0.3986378281431317
0.4933706619546907 -2.473401486070153 0.5706088568758825
0.2779618051529298 -2.420716330463313 0.1382260751785494
-0.03235815478704752 -0.8186030281671228 1.009992570387135
0.07222102091688645 -1.339577098857262 0.9687565407405843
0.8882816309812134 -0.9813626335182355 0.1495698770053596
-0.1422736210354182 -1.894707936926222 0.8995120175710427
0.8335787626851509 1.291597250995742 0.05241212305217413
-0.8897866957791929 0.6589104008361075 0.9198859459066672
0.770052260984313 1.775025526957565 0.9823001347978585
0.4970871808212338 1.978973208547812 0.8454096753671468
0.683990400364316 -1.437829655881403 0.09625348832576133
0.7171125890876359 1.883400125410481 1.007200876645313
0.9994974497460558 -1.693708404605439 0.6055234120388657
0.8768020822513954 1.174365103500875 0.005978155333889806
-0.8648981766862522 -2.053630432248137 0.6674074479736847
0.09499559702220731 1.933112985584842 1.018664128071112
-0.04822795916607606 -1.894707936926129 0.9072732692812531
-0.1992658312636526 0.8854921015135747 0.1079463385247622
-0.564710652776667 -0.2565992693586758 1.186236833699562
0.8970682295513055 1.642950820164685 0.940848725457516
0.9935150191178161 0.1346871522932336 0.7999083758237855
0.06111346205650088 -2.593394356185394 0.2690186863374701
-0.4426570693035146 1.917517358898621 1.019963454560272
-0.6387333344750401 -2.376424530993479 0.2579782770729989
-0.2524892258126659 -2.561317412630088 0.3606491627547634
0.9569637233916504 1.314033911462239 0.8685782778537716
0.1067493850663801 -1.894707936926076 0.9101898920783313
-0.8946660192938047 -1.250369715508185 0.7364873321418866
-0.6396415147218965 1.701075370163707 0.9841043527260907
-0.8800756007574244 0.4567860305352969 0.9325074287014373
-0.357941258008243 1.905270219224391 1.066697335034453
0.9224374515367187 -1.857061823961513 0.05435587207423435
0.9486911541833879 -2.053630432248137 0.4853605035752347
-0.8917375242774059 0.1358856832958908 0.6266617227170372
-0.7629390248429147 1.830683111041837 0.9782488183418759
0.4715898159796763 0.4806350058714601 0.1207488531167022
0.9532924770079536 -1.800575072469737 0.110464072257919
0.2781089326995955 1.773917195377996 1.234485610666024
0.1364052618899025 1.998118150324391 1.257660946819684
0.7548456811604049 -1.10799149121125 0.1363546059488956
0.8179918430224153 1.968981798237328 1.267600405525099
-0.22056640068163 1.589837904365266 1.011611187429914
1.008320929230169 -1.430905533405802 0.4035971565243086
-0.6948819872602032 -1.452884137212728 0.938748995593034
-0.5747466135648438 -1.437829655881403 0.09625348832576133
0.833189235780168 1.179499859298845 -0.002572063591834288
0.5579390153616261 1.727733909304875 0.1369593763113517
0.0615912057720919 -2.588317581321324 0.4597154683404777
0.9939431845268544 -1.742973385676399 0.7751863745308445
0.9463416749679773 1.826303791007556 0.7050845516912924
0.5155265916717003 1.980470220072392 0.7997458409433472
-0.334458885400218 0.3556335801960086 1.311923037754799
0.3570996647500292 -2.555088355216264 0.2476858194140191
-0.222931684195034 1.996374598189765 0.6888560651419818
0.3436734777241386 1.179398232214101 1.171735699366692
-0.5983641168332254 -1.556385646308552 0.01513135912277241
-0.7747453775113301 -2.060504918496799 0.1567923682205785
-0.6244340449753814 1.941499483323637 0.9325346309138696
0.7576446293946388 -0.892606139039107 0.9629170268962661
0.9916364742694863 1.045242078899996 0.8410031549060753
0.1394477507089329 -1.624710881265899 0.1049868074671535
-0.6875271115762092 -1.990583835003912 0.1022810710363357
-0.3567049971818877 1.913149294897834 1.274901645617601
0.966324169928135 -1.386903775053155 0.1387064884063378
-0.02717045800577379 2.002224377354529 1.266775272020677
0.8007924198285834 -0.3998919084979279 1.04182929015012
0.341746284015014 1.998486749144238 0.6692552953088351
0.7706646025469288 1.082899559256921 1.153316314658185
0.7363907692133282 -1.786748290097013 0.8930394567377971
0.6622766859967173 1.428782680634171 0.1281376449244713
0.4801240750031086 -0.8767034820986356 0.9561697604800895
0.3054698494047468 1.993745979752591 0.7163658435290873
-0.2288267894767954 1.799922173203672 0.1366850874030318
0.5174542281598006 1.637309911565464 0.9981143930022127
-0.02955396543505871 -1.790853966596563 0.106225646983607
0.233677533878273 -0.4698256868315063 0.1143906347237396
0.7466878503070475 1.920049081231902 1.001214601281107
-0.9157794195665233 0.5940227418753195 0.626922948673
0.9939970875106687 -1.746924556696231 0.4708215953989997
-0.01133713776775576 -0.760343359765741 1.017778166269046
-0.4929908582125704 -2.483399197157747 0.4923240458578864
-0.7109578192202106 0.1412712144077399 0.1373411568903419
-0.5920911180850091 1.419085793944076 0.1278408095160697
-0.8629087578356492 1.175547067091712 0.8643323243248311
-0.6032426037602887 -1.504080469388957 0.03334542165735638
0.8681456440989164 0.7833819730615879 1.126887643450843
0.1393155396396065 -2.022225337566186 0.1180173889260844
0.9458304904067565 0.8514309324015419 0.03035715213130713
0.1363890883227571 1.987784998979348 1.249366287767704
-0.07219098799614748 -2.586078651364319 0.3542888319152916
1.008387188137591 -1.531190564422321 0.7475284526935467
-0.6405318345885722 1.596496898025611 0.9904368281500124
-0.561916659485373 -1.402975611637144 0.9121492930425552
0.7602952101373767 -2.379564663973664 0.5487696414492908
0.8379468571915519 1.890647447550111 0.9931756105299221
-0.6630725059042949 1.695149243433461 0.98348773113875
-0.03006559271506801 1.40019578642066 0.1191437045423634
-0.8800756007574244 0.4567860305352969 0.9325074287014373
-0.6406601169334331 1.903111028567693 1.270773469256764
-0.8752174944516639 0.9822716013895362 0.2164120975359811
-0.789460941613731 1.856815837070787 1.221878014466486
1.011335052794729 0.3510362942502517 0.6273034290810805
-0.06447188555876181 -1.709387916557199 0.9340235433752406
0.9776471352449325 -1.981891282369862 0.7413981193932915
-0.9016372213244911 0.592995768658159 0.8796557446579679
-0.705767670306191 1.940157676834932 0.798237223495578
-0.8802042311566964 -1.095926752787658 0.4804554816196938
0.4530244647419163 -2.236192347424403 0.1316836677013191
0.1151798494422316 -0.3487157400861665 0.11206414896814
-0.7208565268230571 -1.915366076951196 0.04396780194345099
-0.7152020398155319 1.698596257707221 1.210325507169378
-0.6103319274471437 0.6105078220613347 0.1306926443386731
-0.07657904717946208 -1.548849595983305 0.9501245041805577
0.9789670522413447 -1.985839712181501 0.6099506922206763
-0.4373072792361497 1.84144936923922 0.1725435784189052
-0.8751072750441811 -1.918773501936488 0.7180421327065309
0.03437859976362102 -2.595779327940908 0.3861432428666687
-0.6384261764099819 1.002343201947839 -0.03862019807139366
0.3763992804378716 1.827097277661343 1.067121828451983
0.8335787626851509 1.291597250995742 0.05241212305217413
-0.4817570171426395 -1.789966387606219 0.1025433520874572
-0.4631320748518248 1.729784610049406 0.9886302061819117
-0.2201134272970153 1.901166706745003 1.018822028103474
0.2779151608067865 1.806569022230924 1.243039001963012
-0.6488077712246163 1.212263705140581 1.1115185353613
0.3518039432745643 0.0264336213927923 0.1172583439011522
0.8474302403748073 1.601372577937081 0.9665928115138107
0.4969862704804744 -2.534490374102891 0.3293830931255348
0.4261984132730609 1.580360085487937 1.010278460450614
-0.03199558985462328 -1.442486606769108 0.110610315209839
-0.1710006326902666 -2.56589656986456 0.469121046990899
0.02108026815357194 -2.592774300932894 0.4444434721442957
0.3697314525076361 -1.494532989939626 0.9302047958584919
0.5547092754409064 1.990929873345503 0.6497213360388943
-0.8616489886283655 -0.8064886297429934 0.4099655939781489
0.5752309136165723 1.655863386348515 1.188162952391726
0.7548456811604049 -1.10799149121125 0.1363546059488956
0.2782063802754539 1.685921080488937 1.17753979080528
1.000981311076878 0.1358856832958907 0.6266617227170372
0.6047062891820476 1.966142345262655 0.8458210011818643
0.790998476076754 1.957606262737248 0.652303062452439
0.1887721742886313 -2.415945027368321 0.6737029287798517
-0.02741331337740756 1.872730920553907 1.262415788541452
-0.5907091819207757 1.953290793391524 0.8455834360584449
0.4258920015041922 1.518019908840895 0.1267117463622564
-0.8877550088239644 -1.450762271210944 0.8373683398599361
0.05462189339960386 -1.548849595983207 0.955686903946493
-0.8873644268544402 -1.640049182409899 0.4013052948599245
0.771667932262968 0.7486926714028014 0.04517359394006505
-0.8457194418292551 -1.575380841298605 0.8749667738911058
0.6418727558425212 0.3495428042888402 1.303796789295714
-0.1803964793846032 1.51484424295426 1.03222125818048
0.6200389502529538 1.910959511361065 1.015328447791146
0.3832080589046232 1.806084936517218 1.147454250780831
-0.1286575939355167 0.1499376779967174 0.1143388839619473
-0.9033352155045973 0.4573846723880882 0.4121388528252719
0.510160565643054 1.98395526980309 1.271610022645681
0.8143563347264754 0.6832839879316158 1.218911048394555
0.7780604147002241 1.8584541224683 0.2314719585347655
0.6783456254015366 0.1453926087201691 0.1307800907143866
0.1306758708101827 -2.513123656208274 0.1550030446216599
0.03104835541107689 -2.56335713948894 0.5212989807063746
-0.4562254304837399 0.9723027861567706 1.222824800775938
-0.3257860715837622 1.907155466393908 1.103528032056836
-0.8965129983546365 -1.585729210695667 0.7037724387001284
0.7002707673489033 1.223431922311284 1.130146685909251
-0.7339291711874859 0.9277878859800803 -0.02920831072822014
0.4142400750610181 -2.546428612822393 0.2496300219086703
0.7909984760767541 1.953212020831392 0.692307173487914
-0.8761956220683863 0.5994887349163462 0.2025064912708732
-0.0270853517001801 1.733855843983092 1.178030190982863
0.7506920358403824 -2.381219520343512 0.4120907254852826
0.9946713736590103 0.7859322472609718 0.9076875696983772
0.9818557780000681 1.356246721889769 0.7071761705870509
-0.7510899243626614 0.1400075994340095 0.1400403883633958
-0.4605045823313203 0.772647220430405 1.263270898915835
-0.3566184029138446 1.941353777077259 1.226679415282971
-0.07147803262762491 -2.089094236664041 0.8642659730151431
-0.2334494878881557 1.941070263425674 1.019039794981504
-0.8118824995474115 1.913233053118492 0.5255996789750512
-0.07401203217691479 -2.582683796679873 0.4488393832128209
-0.8819002485193348 -1.095926752787658 0.6636330927248402
0.5723819718915321 1.946703931007864 1.281193756954079
-0.1278415647933575 0.02639323950018424 0.1143445891327163
0.1387977522345309 -1.790853966596563 0.1062256469836071
0.8215594793045233 1.421266378157299 0.9851076792687527
-0.8367711048574364 0.809211010616454 0.9962620111269128
-0.8819939847936423 -1.255264137094506 0.3061080053292414
-0.8626594319469286 0.9169302085057131 0.1005931507313274
0.2221874484589318 -0.3767504280788037 1.154354464122927
-0.63546897312286 1.66837213820337 1.174737906941996
0.4620622897442718 1.91181862450009 1.178910365989591
-0.8824129299646295 1.22658039423473 0.7123366505049804
-0.1275600952323757 0.6561731378562257 1.289721014096705
0.3332356625107819 1.904625836930079 1.1768037166185
-0.2576184339996339 -0.8070681979955124 0.9996615472074435
0.7322244391719029 -2.208952827387823 0.145629252569867
0.8369244432719546 1.363864546340871 0.111349549940667
-0.8403872983301186 -1.915361999877664 0.1332213634311117
-0.7351779706432012 1.928573359035401 0.8810278235164694
-0.4829446384829601 1.148926048795218 0.1073110206864416
1.008754125107387 0.9822716013895361 0.5574536851607645
-0.4037728094297172 1.937161493831684 1.226730796975476
-0.03044269533572344 0.9547653117781521 0.1040238158435102
0.4031002103644501 1.812153786817537 1.110209650757307
0.4486470285083722 0.4576560047906943 1.306125224670649
0.6472231039240652 0.6156850793635783 0.1259019387522781
0.06094298055997957 -2.589370957043213 0.2288434457562596
-0.8551535759603972 -2.116523856752116 0.6352570185130572
-0.8995750713292824 -1.531190564422321 0.685665348629775
-0.4448363884906875 1.99876634043382 0.4491198978211285
-0.3492451486119048 -0.9976999504624426 0.1216763688623538
0.8984142831716506 1.761172615645781 1.194720923451329
-0.4817570171426395 -1.789966387606219 0.1025433520874572
0.9741061086406413 -2.053630432248137 0.629537159042274
-0.7490769503291077 1.800070987740713 0.1954379886849973
0.1369952034329661 1.707585068639168 1.176165966834953
0.4247326663141886 1.916641389063177 1.275682952470681
0.9865900930741861 1.286346588909299 0.7461245755407415
-0.555540758028465 -1.942680191486995 0.08912792763432027
-0.1663948766819768 1.970232090505193 1.24120339931092
-0.6722848702979432 1.760333281219744 0.1562281386552531
-0.8337136203522703 -2.114340166039038 0.2783617618957257
-0.9046110340008899 -1.430926156676337 0.7078981309139587
0.03418361666788011 -2.594958149868784 0.4155365259632103
-0.7027967988333854 -1.104981446726659 0.1389818078273022
-0.5925953685985967 1.353349138226301 0.08760359031273242
-0.8035714894700327 1.901130653935321 0.7040501457279806
0.2769544631040508 1.898885900948487 1.270405436860609
-0.2363852768566206 1.756221666471367 0.9942401963920069
0.06094298055997957 -2.589370957043213 0.2288434457562596
-0.7119535549033407 1.942497267475706 1.275369326917651
0.8327569508519788 1.878511072755366 1.260590899564782
0.2817483680293972 0.6196373918735895 0.1154649718557183
-0.4829047508050688 1.271018019324978 0.1124779132898445
0.7394640766028902 -1.675294464644289 0.9066116524944291
0.4553454478093391 0.5676647885515118 1.295964183403569
-0.2379436484643622 -0.3487226970060124 0.1172686436496393
0.4270633519270671 1.736170036937268 1.225197739825572
0.9070804237357953 -1.395117778362062 0.9209127512933589
0.9907992471789684 -1.095902346513017 0.7008277569621884
0.6022346450120427 -2.483399197157747 0.4923240458578864
0.3628561747545321 -2.561189325951666 0.3986378281431318
0.573226647793553 1.881137886379846 1.266448058664475
0.2015643853253614 -1.154291940542406 0.9729601386385005
-0.04785347700862865 -2.393613079972601 0.7096822293893632
-0.558926209354251 1.617853672503985 0.1412470108690889
0.8737091095674622 -1.701072401025855 -0.02415877318597031
0.4624216946364442 1.326133748168121 0.1192663637188098
-0.9028532871529906 0.9169636804999328 0.7463311806750679
-0.5383789262218701 1.843818234982904 1.001569097754324
-0.7438192146223008 -0.1016274413423033 0.140047240996482
0.6515576624182241 1.977006617676751 0.3947660002338229
0.9750516560994886 1.286346588909299 0.3291127411595413
-0.5318974026345043 -2.198921496477385 0.7925760411954519
-0.2443859012810566 -1.602509225142547 0.9219063193614572
0.3368026922714995 1.899799540306975 0.2141317286730254
0.2822272219405533 -1.709387916557257 0.9262622916650187
-0.7815749338533372 -1.165783398596628 0.9267048675392733
-0.2619496444612061 1.671851155463185 1.182719408573972
-0.8447916078941107 0.01961579517703492 0.9237085010007683
-0.3567049971818877 1.913149294897834 1.274901645617601
-0.441798758435607 -1.504973566606233 0.8981777380088222
0.8109573599758796 1.67983806297686 1.203702531296031
0.4594410312440868 -0.0971143612385301 0.1205529870699201
-0.7552615001044711 0.2564140569435515 0.1400479266145006
0.1111129185784569 -0.3767447645773415 1.156045571841616
-0.7158246667979977 1.796102409361306 0.9837694558491401
-0.7283154024969702 -1.596915922766082 -0.02414949783033291
0.7498371265748873 -1.402881766661391 0.9283757967072547
-0.001530919745722727 1.986427783039455 0.8316155877731062
-0.7818648197086364 -2.180122565078364 0.4065090871845508
-0.6875978403742304 -2.076538114249061 0.1445626451735215
0.4244816451649888 1.991108161145335 1.273214423016625
-0.7226186785227289 -1.955596377385615 0.07234321129102332
-0.07816701619996036 1.602259003514167 1.015982889916281
-0.1983072362226532 -1.5686144926083 0.1085093347634239
0.4250473701699462 1.891581144650851 1.26877668870909
-0.9157794195665233 0.5940227418753195 0.626922948673
-0.5355227953442873 1.829458661376497 0.1776136682100682
0.663334282642599 -1.566962032814613 0.9008106233745052
-0.8926552220079693 0.4537595921826852 0.8869115075547596
-0.8852078446487086 -1.503534208952426 0.8356776426086432
-0.8548279090602929 -0.5787711676110964 0.29942477627757
0.979043999472447 -1.800575072469737 0.3113021303123631
-0.3152125589585629 1.992662930012652 1.26463042339378
-0.7308754523102945 1.733279955162903 1.182251493386052
-0.4562254304837399 0.9723027861567706 1.222824800775938
-0.8294941505293823 -0.9792645458499006 0.1943748997774883
-0.6340386972922782 1.975871447364062 1.261246975880555
1.011593073326514 -1.478415440277386 0.6556092322568946
0.7465593235888659 1.658959040576959 1.180267594472185
-0.8751600927884058 -1.918773501936488 0.6591956519585309
-0.4646002923953378 1.852924853219294 1.258023552697771
0.8913911547496995 1.725032384885169 1.211645631450032
0.05225389006853458 -2.411722381666527 0.725092870589131
0.22269341186095 -0.4918935658240962 1.100160221866658
-0.82371953478085 -2.1160871186095 0.3608662665990012
-0.8412193565816162 -0.8024801462524654 0.8204091199676974
0.6652508975078957 1.205624205220905 0.0714201870576489
-0.7909112235901875 -1.557428843555893 0.9099734363974265
0.9873261846117809 1.286346588909299 0.6215708544148634
0.3348622053986822 -1.150665795937473 0.9651988869282746
0.8241226175940564 1.692643968890393 0.1513503351345487
0.8265302557446957 1.94853816288071 1.242045736065544
-0.1136207659651278 -0.7475615781865292 1.011165664525588
-0.3049962882615458 -2.546428612822393 0.2496300219086703
0.3450746343778989 -0.9945478050327569 0.9764271850435173
-0.6768395874311 1.941834161070582 0.8434252646365306
-0.4482653146845687 -2.399817696583993 0.1513692839469797
0.3142525601489959 -2.503716223406801 0.1653847570660585
0.3388973396944501 1.921450604571899 1.022425734543185
-0.8728591562291381 -0.2253254198678787 0.4120987661640551
0.4391221329678479 -2.528036501930351 0.2091317803759078
0.1306758708101827 -2.513123656208274 0.1550030446216599
-0.5562337747540687 1.265411334804468 0.080942127328374
0.4674453182607187 1.828571283080232 1.250099242445595
-0.1018733164622228 1.716920023380416 0.9952295880103215
0.3706280998551808 -2.172189135091801 0.1276363177781177
0.1164105237070877 0.1498944641740044 0.1120480321732002
0.7498371265748873 -1.402881766661391 0.9283757967072547
-0.1182557541269595 1.247068795659053 1.149656393396394
-0.5776365495664674 1.863414729028475 1.001948755857739
-0.4852686224723924 1.021307329284084 0.09945178076611221
0.908324451621095 -2.180035217449841 0.3520360304333613
-0.4078319073478984 1.774704060330298 1.167329086142054
-0.5488521974098639 1.033814047199331 1.201690200771125
0.8167438986900046 1.895027396341209 0.2878611325121824
0.5939114632108875 1.765947496491458 0.9920798349683565
0.7466199272372146 -0.2604695320471483 1.149458373262108
0.7602291738777256 0.5923079400113589 1.260453207207628
-0.8302581498704265 -1.854449021736357 0.8429890008949253
-0.8948864387807669 1.045233491852108 0.7347042738046294
0.1082986385448119 -2.444844646403349 0.6893173293413877
-0.5484689828615375 1.878908877219946 1.265574663682168
0.6003101917956195 -2.487067164942292 0.4216689372287878
0.5079717991899858 -2.512537082893135 0.2132974459879838
0.6548576527380675 -1.729858374210993 0.8841510589364163
-0.1666260359572034 -0.9972263589971748 0.9812749643161249
-0.803038201441352 1.479761980821774 0.9107406021402613
0.8013491186671973 -0.9019292249743756 0.1381418492320702
0.8295997372560757 1.94886952423277 0.6730561930170824
0.6838400316246298 1.938566635990326 0.9756669590054593
0.2233603594155473 -0.699954555782347 1.021477366283534
0.5132322740091527 1.729292950076492 1.223699436976957
-0.006891630709327874 0.02636149075803628 0.1120537591876417
0.6485334967568432 1.955668120734107 0.3382385517790503
0.8194642466687157 1.754715828932804 0.1589035206926114
0.6456200074628795 1.818556479053648 0.9955097987653977
-0.8172086435717296 1.135585151042584 0.9463077311423372
0.3103311480815048 0.8189841402647666 0.1102107817370881
0.3738262147060627 -2.303199641916812 0.7292383854770114
0.9161555441288752 0.2735175006601308 1.03408394448559
-0.4658305346356012 1.789256254727163 1.239246135102513
-0.691503133752939 -0.7002427276179474 0.1376406497541491
0.921164169558096 1.911827810749614 0.5831296755745439
0.9667517510443554 1.578587101482623 0.5575740058380876
-0.8152493080910012 1.855134392048025 1.229818294899308
0.9458304904067565 0.8514309324015419 0.03035715213130713
-0.8196107935901109 -2.152514930394917 0.7376382631620311
-0.3894873047677264 -1.908692811862418 0.8506184562435144
0.1228770582328713 -1.494532989939523 0.9568031982814973
0.9779817442635198 -0.1034968040685202 0.2992631933501186
0.8896220649284918 1.72341707331196 0.9624341047562233
-0.709565875202852 0.08140857642672403 1.163286340669424
0.5130165962291894 1.937161493831684 1.226730796975476
0.9635286959346067 -0.895204026212952 0.2998116183221429
-0.02985669580803583 -1.990598691722235 0.1156264885197613
0.6889394471163348 1.752018075569437 0.9826955849354297
-0.5723311703961984 0.2631745521467161 0.1307877544756917
0.9496310851295904 -1.915361999877665 0.1332213634311117
-0.7680655838888416 1.113762983138197 -0.01314991545192387
-0.06972650451180507 1.716613622474717 0.9963638198320328
0.79917307492209 0.9973355168711946 -0.0408314926882153
-0.8147384500477655 1.577561624866777 0.2059651829539488
-0.321726257518794 -0.7067998281973302 0.9990621429714427
1.021372603947141 0.5393329334845806 0.7503966621660588
-0.3566184029138446 1.941353777077259 1.226679415282971
0.8731570857948712 1.950677672942502 0.5180691530493963
0.9025815549889957 -1.502877629652359 0.913770836238601
-0.8963943812942411 -1.585729210695667 0.721285253957526
0.9617115215491201 -2.116523856752116 0.5773253940052627
-0.3152470924657352 1.984413017824808 1.279993517328212
0.8678404745321737 -1.951893616926835 0.07836304321721782
0.4613085476941793 0.02615566084443636 0.1205515749284449
0.6091361571195506 0.5631398833205668 0.1260894094586497
-0.8551680841238853 -2.116523856752116 0.6738132129103014
0.4180676817937756 -2.552045536766609 0.3236996005335344
1.012432603389014 0.6563715539112141 0.3177409523068244
-0.172504581229925 0.6196373918735896 0.1154649718557183
-0.1226832422389269 1.882925960896569 1.193602363406546
-0.2592437951374692 -2.532516519173313 0.5181718505681652
-0.6992534797119219 1.628649952716025 0.9796990990585773
0.584454786199914 1.948471519947794 0.9767654580619278
0.2407952383896392 0.4402725340099022 0.1144355505804789
-0.4517554566579353 0.5232499537594988 1.297705449390692
-0.8551653509333638 -2.116523856752116 0.6516676706662048
0.831163417955006 -2.132386012814702 0.1500668808929098
0.1364723616392787 1.926212112380295 1.277824215028171
0.7604045241383055 -2.378780726428674 0.5653612443106268
0.05462189339960405 -2.1738501473384 0.8456091803348464
-0.3232078391959846 1.908895336454403 1.14190771342263
0.3467029904713057 1.047276882754191 1.210696700255441
-0.03216052464155287 0.764657371440964 0.1101513169134863
0.916250916844249 1.903655077160547 0.4050668665774935
1.00871948353647 -1.531190564422321 0.6062507452202662
-0.2239918757113097 1.904625836930079 1.1768037166185
-0.5575424481802545 1.388548166282883 1.051887976314731
0.8884847888670278 -0.3479042592481164 0.1484695013990174
0.7233967222825909 1.810807857634031 0.9866321333699972
0.8317695065319725 1.910943117037244 0.9796067046112255
0.4685215833413366 1.683436960510599 1.208421461158322
-0.8162182234670322 1.791573216038795 1.211074220045773
0.9171539546813583 -1.363602446489763 0.1305078254488527
0.6815749571956705 0.2631745521467161 0.1307877544756917
-0.1954284652806768 1.212079852158065 0.1158112636430852
-0.1029097941047311 1.329484550025516 1.114513619336957
-0.689467250509811 1.927706828861312 0.9690924674077319
-0.8061358676963063 1.776196674610211 0.9322135224389299
-0.03097074430829947 0.8853806273075734 0.1056310112785655
0.7780604147002241 1.8584541224683 0.2314719585347655
0.7972477984856791 0.5019585910451337 1.241461365703496
0.3501120919119649 -0.9982544261140832 0.1183888770231058
-0.4628810087791485 1.973870054108025 1.27762878488302
-0.5474790859352006 1.925717492221318 1.277513301742566
0.4138754580248762 -2.110150580088879 0.126767614993605
0.4549909649256439 -0.3486958880190428 0.1205618223899263
-0.6367716547196141 1.344739699443484 0.07941943208976601
0.1794592762632542 -2.583789068327568 0.2792158580403304
0.1143893043667811 -2.593343163717294 0.4187551823990486
-0.8966867315102161 -1.478411315623279 0.4035783118697205
0.8821875563979538 0.9892081156918035 -0.02780421679029883
-0.1217331382507006 2.010630230096491 0.5059635892492789
-0.6135416161153725 1.706470199793096 0.9843043327267191
0.452486959561441 0.5262249409803602 1.300375657855594
0.6018553356273471 -2.485585449889882 0.4724119793961576
-0.3383198527463835 2.00308181562319 0.61531484675308
-0.8371283679498457 1.827333594867591 0.6808817996775616
0.04779731414719204 -2.595563433614096 0.3848930619791525
-0.8324680484653299 1.680418097087706 0.8559420588232078
0.7591187714216729 -2.380905040347108 0.4948716535336022
-0.8527151842058157 -1.304993576454718 0.8874604764823929
-0.2500730865211931 0.4812824765878239 0.1174566286885588
0.8919609281128977 1.433099398832909 0.9279935976873626
0.1290969007259794 -1.156560624010289 0.9758925570198374
0.8433437945003073 -1.541896879058523 -0.006603731832779073
0.9991940661652027 -1.403276747844679 0.838319967613634
-0.131551451590167 0.4402725340099021 0.1144355505804789
-0.8283227857285294 -2.180122565078365 0.5604294476609886
0.6595346805211475 1.666735089142069 1.173567800513869
0.8504041297608422 1.111565976845707 1.059371833418651
-0.8302243455523023 1.741272267212578 0.8484873066058448
1.014665528629751 0.5931787804908348 0.8443062742804834
0.6711604462848451 -1.402975611637144 0.9121492930425552
0.9871400136529892 1.22658039423473 0.4187213778359035
-0.02778169738767412 1.695973599912442 1.211150277221119
0.9726333384540353 1.16644436488702 0.2204400881936214
0.5579390153616261 1.727733909304875 0.1369593763113517
-0.5464891521901771 1.944320089625885 1.28030979518992
-0.002435689421380154 -2.320906986855826 0.125488971934303
-0.7933377681895235 -1.502877629652359 0.913770836238601
0.5008118937629147 -2.534129922524865 0.4330295443176976
0.2794469673718899 -2.57225920202354 0.4250201198361299
-0.1687180183534577 -2.420716330463313 0.1382260751785494
1.020709117466116 0.7820442273708343 0.6932229547878139
0.9617115215491201 -2.116523856752116 0.5773253940052627
0.7005419619479145 1.309916542267039 0.0627575112721267
-0.2359999837871285 -0.8216589022515959 0.1178074994806557
-0.3520580034851885 -1.846473935679474 0.1130784692677782
-0.1463574287101499 1.851311558759614 0.9921239266944395
-0.8959220759856692 1.045209411563423 0.6250258375004084
-0.5113251453357426 -0.4921943574707895 1.08845872379784
-0.7230514030406378 1.903530698330552 1.267477033228915
-0.696799978416915 -1.399514916508615 0.9423960111755912
0.8059863085622377 1.852245676517403 0.9960017330066171
-0.8116011033137884 -2.117435427444408 0.1959803965539083
-0.8689187879977594 -0.5787711676110963 0.690161006008106
-0.02717541681961985 1.994021771095533 1.282148633501015
-0.1214446087163637 2.008587588880809 0.4434160022755915
-0.1115570845135058 -0.7706844821462808 1.011605742865226
-0.8912339540780772 1.045238872234185 0.7763916517875323
0.9966688886709134 1.166444733840062 0.622328053087562
-0.1249795647740869 1.736405064825449 0.126109027073875
-0.5575858220106378 -0.9915128074196991 0.1318954867905704
0.6047062891820476 1.966142345262655 0.8458210011818643
0.913991792866125 0.6756732791484119 0.1110941499259656
-0.3469749488212583 -2.546296346521828 0.3636254336805803
0.8064575437300472 -1.289817029545035 0.9475124394120839
0.4226022728349438 -2.539868689418455 0.489120563283951
-0.8748185829500517 0.986193962404627 0.8863281585130338
-0.4822624213840128 -2.460002155244105 0.5581964200260698
0.9122819882408242 1.479761980821773 0.9107406021402613
-0.6172565567518706 -1.014155818791905 0.9476851580860832
0.4536807655727448 1.734979985340436 0.1321992899065848
0.714960661020866 1.954761763201538 0.8005501150136063
0.9889677323290063 0.01590599269728892 0.7985120083055912
0.4887523352696008 -2.307900992272692 0.729976198528271
-0.6799040031584154 0.4351033408394899 1.246727923992841
0.7693892649431943 -2.283774667059944 0.1502786013654177
0.07135883542663803 -1.49453298993949 0.9589372214770625
0.9906919124232484 -1.095926752787658 0.546335830282392
0.06540520136903084 -2.39015179157534 0.7402209218576716
-0.007486647756168788 0.2688263106829796 0.1120559071886051
-0.7345345784225756 1.763100696387774 1.18910942082972
0.1331637188927057 1.953102517697623 1.234331620277155
0.9462602566736305 1.831409785421264 0.541462804466246
-0.7484608157916495 -2.264567267920741 0.4402287738141573
-0.02985370878058194 -1.680698153352807 0.1053076729812282
0.7524221873016881 1.021557620344796 1.180283711332101
0.8908187206528093 -1.165783398596628 0.9267048675392733
-0.8509009348975443 1.675107969238604 0.7017045630838856
-0.8834040149035641 -1.800575072469737 0.6769355106712756
0.7985614717674456 -1.600468325542719 -0.02775123568708204
0.7909984760767541 1.953212020831392 0.692307173487914
-0.7694177464985754 1.686869338931592 0.9628710737864636
0.3503809562066981 0.7773945943352363 1.268270601179161
-0.2605567211808696 1.827861091547873 1.111589908622081
1.005832303429258 -1.585729210695667 0.6845687199087451
-0.004048969780432017 1.799476169423877 0.1316503154623649
0.9706250531588176 0.4188358396242232 0.1929955274338396
-0.3593849881183471 1.720364724562712 1.174020671585688
-0.6855739119836757 1.122666140234875 -0.02575159996048708
-0.3407651445246291 -2.540229818762935 0.2512087552524244
0.04740730435119647 -0.8010350143057889 1.015828256252961
-0.1221608655320831 0.4581934428344548 1.311798995703762
0.678152291939404 1.885833337830798 1.00949337323428
0.05462189339960385 -1.655729512956674 0.9456700665242013
0.4476762132783995 2.007263594229057 0.5675701657302197
0.7726181951045574 -0.8079136584135602 0.9642313087313681
0.6868803363659395 1.863414729028474 1.001948755857739
-0.01467589841639031 1.909748903421178 1.216932018095547
0.8729817153149591 0.4241511377818758 0.1401332754506501
-0.5460411968903691 0.5185865001008768 1.292403107412805
-0.1129436616594596 -0.3767504280788037 1.154354464122927
0.1784925967821732 -2.513386448417768 0.1577187981014969
-0.6078688022881639 1.883400125410482 1.007200876645313
0.9387826753308517 -2.176178617266444 0.68937042278567
-0.4952010624412629 -1.47235581104664 0.1110791345660798
-0.4376811463134411 1.806566318501756 1.14814557893849
0.07521573794183781 -2.592500087467807 0.4431308629458502
-0.8535185076050876 -0.695831355905151 0.299544702506952
0.572086510084169 1.980578070613048 1.270852467640027
-0.1777231082172003 -1.962529464127524 0.8715896294977811
0.9841780745770007 1.288117794427864 0.782178087116994
-0.725869107968632 1.057193006894734 -0.03439023243062173
-0.8606201341959008 -0.695831355905151 0.7632319199592839
0.8441182532490352 -1.612897643075224 0.9252427117728564
0.9161555441288752 0.2735175006601308 1.03408394448559
0.1389208479382941 1.211938070194645 0.1135260492278383
0.1366571001768798 1.872730920553907 1.262415788541452
-0.6119716162678164 -1.431592384926157 0.07321339506840868
1.012048965943151 0.8496117992073904 0.4180193781550172
-0.08698597711651285 -1.338287689089635 0.9637058947479542
-0.8926552220079693 0.4537595921826852 0.8869115075547596
0.3711934312606783 1.671851155463185 1.182719408573972
0.5579390153616261 1.727733909304875 0.1369593763113517
-0.834539449627523 -0.2251843069316202 0.1929229483681557
-0.9042981959430805 -1.37002059606328 0.6573429573583633
0.1117530677523858 -2.59199599922409 0.2753663994040989
-0.4658525174974945 -2.42695078426652 0.6057629928880925
-0.6653469902126543 1.900333682322441 1.009234929906725
-0.8673460405402873 -0.6958313559051511 0.5501821912304167
-0.06924880998270103 -2.513386448417768 0.1577187981014969
0.7322244391719029 -2.208952827387823 0.145629252569867
0.7584509376318998 -2.374569964682487 0.5930669841236883
-0.7185829496772478 1.923862977244407 0.9523427595591754
-0.885427586859538 0.7859322472609719 0.9076875696983772
1.017647641946298 0.4573846723880882 0.5573752016463396
0.8100040292506243 -1.493449698593699 0.0126840735486609
-0.3444691908090427 -0.4697186711530328 0.1205971636699545
0.6153321887777625 1.89146956114031 1.017937008563691
0.4856217754630425 1.696121282127997 0.9921831016722866
-0.6725781919498171 0.6831494835162182 0.1041872924172429
0.2822272219405533 -1.709387916557257 0.9262622916650187
-0.6118753846630362 -1.9177621241616 0.8725424365544954
-0.4828092127532405 -1.948449369443795 0.1141941896195494
-0.8758413112784067 1.168285738229722 0.8222392387303804
0.01944791878359558 1.779227957528896 0.9907293149784959
-0.247855877950557 -2.555088355216264 0.2476858194140191
0.2985785907112166 -2.056852793845865 0.1224708915142628
0.5132765831312892 1.661351801866473 1.18043412394212
0.3818296828232272 -0.771355958352949 0.9993389389918692
0.9843776683146855 -1.918773501936488 0.6956337270602411
0.7119662774763855 -0.8947447651359486 0.9561266200988552
-0.3223840248076973 -2.189391938957769 0.7819919506516611
0.7146444510010419 -2.291253662516933 0.1477075829261791
0.3457625982634432 1.986302030256337 0.8455790539377074
0.1300742929314182 1.793468442260171 1.185416892430563
0.9859245917685371 -1.693708404605439 0.3142758521426833
-0.8020783961898692 1.714209285961269 0.939418921838989
0.1014484956828675 -2.025456015585875 0.885637310660063
0.9329633215803221 -2.1160871186095 0.3608662665990012
-0.7637774911389798 -1.861807500525933 0.0262323853455934
0.3418422564488947 2.009152275997915 0.5665578180501567
0.6872092699945647 -1.416387049590175 0.107668411088377
-0.5854262050668505 1.829193289108173 1.1946615276063
0.04637721248282538 -2.563087227096077 0.5231010601107945
0.9567168291928527 -0.34773319137208 0.8481781423102144
-0.633379458429929 1.974339660740387 1.269115107869778
0.3288246245126569 -1.272871923397254 0.9587907284164112
0.836029884721347 1.478698286220204 0.1462344090438114
0.9760157019678117 -0.8064886297429936 0.6156944862368405
-0.5305488281388199 1.231388484160177 1.139353411422398
0.7584509376318998 -2.374569964682487 0.5930669841236883
-0.3563915931515397 1.987601996004695 1.272428017670992
0.9684958366877452 1.226906696767445 0.2230826076755991
0.3435542736537393 1.851156803956471 1.028080786578212
0.4613017902846607 -1.846473935679474 0.1130784692677781
-0.8446333037071929 0.7855234792410183 0.0532110296252074
-0.691503133752939 -0.7002427276179474 0.1376406497541491
-0.1646568867603342 1.761077380431642 1.17888096076633
0.178024761490817 -2.579782298013255 0.2398429751721945
0.9230095481890148 -1.749158721246585 0.0205104069950353
-0.7341252355494458 1.866918088368585 0.9932720992740983
-0.8828824542305332 -0.1034968040685202 0.5573714955321647
0.5079717991899858 -2.512537082893135 0.2132974459879838
-0.7885092254972285 -0.1023626659760221 0.1484597923010543
0.9741419634857245 -2.053630432248137 0.6674074479736847
-0.897419198969584 -1.531190564422321 0.472346653290153
0.5127508622999059 1.792537700825225 1.239965005667913
0.3533184507609531 1.981615757398419 0.9356536245866984
0.1147360442176076 -2.590886808293491 0.4460757372604282
0.4899522920027424 -1.11939054407097 0.1222271530114715
0.9098882937437997 1.334311815671426 0.1081252576952096
0.7214769027079335 0.958536270754822 1.207922507421076
0.4618841414162208 1.212260187618093 0.1187178759010749
-0.8941680619905301 0.8496419247071253 0.8631703831102283
0.6578102831800231 1.674995827863928 1.206283906095708
-0.8353460097836813 -1.480675636661789 0.05230487530581084
1.002689214523807 -1.640049182409899 0.6063086761013158
1.023391551208163 0.5934915442336823 0.750128934726782
-0.8910513158191982 -1.370821595902614 0.3137556298921451
-0.5633710133855487 1.73839548081118 1.176732765353455
-0.8243604401871818 0.6003602539772597 0.1502025103085256
0.7849193996929093 0.6532635747889977 0.1256229304754292
0.9429356890608325 -0.6919080291302673 0.8340057225993498
-0.4877885248008053 0.954000866208841 0.1000495116401421
0.4684605721302718 1.732807269355312 1.22446508974737
-0.3315359012841175 1.897999694526749 0.2169331788217955
0.9257725403040256 0.5009582307833662 0.1488688671382777
0.2765716898701564 1.996028891518023 1.257191195886501
0.9842936225862191 0.4166265190180313 0.9327036580394315
0.5813651097309539 1.96473182719001 0.889581041674103
-0.8447916078941107 0.01961579517703492 0.9237085010007683
-0.6021738586229974 1.156994400466354 1.15364697218447
-0.7753023598278146 -2.264330859867906 0.6024316472965186
0.9718243907103555 -0.6958313559051511 0.4100556848759717
-0.8458318233592203 -0.5787711676110963 0.8204443640757789
-0.2598940218060138 1.920388804004021 1.276521366597728
0.9988986091982102 0.2488446721677987 0.8017456222255184
-0.7674367340979671 -1.647126422471649 -0.02459054878868831
-0.8412193565816162 -0.8024801462524654 0.8204091199676974
0.8212249259952683 1.724705186681481 0.9797054708556503
-0.2225960330045922 -2.092976416167011 0.8206047822031799
0.7032999513474205 1.009177326421211 -0.00917597334057728
-0.8391675504649718 -0.0995879773211715 0.9143720087063038
0.3832080589046232 1.806084936517218 1.147454250780831
0.8333282168711123 1.238393394516857 0.02270130178379764
-0.6414482490409101 -2.381219520343511 0.4120907254852825
-0.6412646059053442 -1.292843098360752 0.933779815713484
-0.2254931468265397 1.825536906713718 1.152110950383303
0.738306487545921 0.1092115280753844 1.261496609978433
0.8404929661636381 -0.9003083260939864 0.1408367035806636
-0.9021999450263998 0.9169302085057129 0.4893761172328854
1.015095008558155 0.496644122180153 0.4122624454081771
-0.6629721388577948 0.4290321276886971 0.1347995795907195
-0.1772646614862606 -0.8803598743986798 0.993982196035994
-0.2344296909246664 1.179398232214101 1.171735699366692
0.02116230460320341 -2.594084236587907 0.4347638121785808
-0.1683669662351642 1.839158511370779 1.252432000591911
-0.03006559271506801 1.40019578642066 0.1191437045423634
0.5547092754409044 1.986471218394324 0.690454064804464
-0.9097103644740225 0.4966026559699129 0.489142841316539
-0.6054006642015698 -2.291253662516933 0.1477075829261791
-0.668703139078757 0.9492623824627943 1.187531470849172
0.4648120541787757 1.793231674140864 1.142528553837921
-0.681754689277282 1.955148622632483 0.6732868019712446
0.9750030102541076 -0.695831355905151 0.7320437708028563
0.7499039037329051 1.903111028567693 1.270773469256764
0.921601373893614 1.906508386545575 1.253788648029933
0.8733836398892511 -1.91142966392393 0.05228199017379277
0.7337845917595801 1.948833749707144 0.8451708785859989
-0.6201188418604349 0.6976114032039558 1.258120673629616
0.3389386325641097 0.356179419675855 1.314708702294319
-0.3544978681012201 1.022394388560968 0.1093212212212148
0.9330022327245133 -0.8072547359652189 0.1936307188015804
-0.6686372451189654 1.949120200294064 0.7566861705428394
0.3058429997130418 -2.022383717923796 0.1202854727139735
-0.4393391738831243 1.827869544981287 1.059821007667797
0.7785931727183502 1.929856014769317 0.9720774869120408
0.3079764058026246 -1.383197068319856 0.1156826801543466
-0.7546494019066805 1.745435585861001 0.9747697083651306
0.3712240423610951 1.690388450466016 1.209934569888582
0.8545510643863075 -1.448243732798431 0.04091644688923386
-0.004061447245881407 -2.594293701100824 0.3509199386202417
0.4437026721996902 0.3556335801960087 1.3119230377548
-0.6216813101740886 -1.849691347557737 0.8838408504484953
0.9230095481890148 -1.749158721246585 0.0205104069950353
0.7132299443991694 1.922350639939463 1.002068433871429
0.03928443452948904 -1.655729512956699 0.9451583127509098
-0.4662450807607029 1.69893894920075 1.215289647876103
0.9815291457784388 1.356246721889769 0.5575314824782842
-0.8732984560387315 -1.914823989283524 0.7536681611951829
0.9893193875568964 0.4567860305352969 0.9325074287014372
-0.4817739105123796 -1.845230383359992 0.1054092044774154
-0.2265565643127611 0.2399934519335054 1.314094754383056
0.7183502525035467 1.94751955920851 0.8885720580137579
-0.7864593036959114 1.909728469413227 1.237114771831001
-0.01467589841639031 1.909748903421178 1.216932018095547
-0.4454654886414342 1.990929873345503 0.6497213360388943
-0.8152493080910012 1.855134392048025 1.229818294899308
0.2980453674507124 -0.8081946361128531 1.004142280036595
0.3518039432745643 0.0264336213927923 0.1172583439011522
-0.8951098013935068 0.2514184636337435 0.4891149628337831
0.6730717545368085 -1.292927444661227 0.9177403675702249
0.7650859516565158 0.8021129108527467 0.01495118370813458
-0.1965809405460084 1.400355040560321 0.1214074923975475
0.4916873170774091 1.801888854140256 1.107693701812115
0.2015643853253614 -1.154291940542406 0.9729601386385005
0.124316206237795 -1.440001593062651 0.9604706578712592
0.08170951367101076 1.671708509199217 1.007731201250949
-0.3213078642499572 -0.607637496696278 1.040367863850169
-0.3593315371915676 1.694582005552096 1.173336352675996
0.02212581783040495 -2.596183963682468 0.3488021472173392
0.7436655632195919 -0.9041648772864224 0.1355104275739673
-0.7402697434878827 1.710249779123652 0.9750077752580207
0.9224374515367187 -1.857061823961513 0.05435587207423435
-0.6282291466599551 -2.144370656801836 0.1448379660210045
-0.7632822189344126 -1.75457294169649 -0.01392382502386455
0.456364211139122 1.991620980407081 0.7166556704190148
-0.3922059289435489 -2.522538698813404 0.493881661441871
0.8596043421366452 -1.41837670811604 0.06664386669351187
0.5641861822180471 -0.3485793766075868 0.1253959299935123
-0.1898012624047178 -1.894707936926256 0.8835914896553437
0.9645124421546553 -1.366047439811968 0.8865350464357298
-0.7630516061821682 1.959723639457482 1.265615988424632
-0.2497773800770151 -0.8749296738145915 0.9897156073447984
-0.8371712337829724 -1.736095899943197 0.8589906247045611
0.3707525226036279 1.803086834270349 1.24227611468124
-0.4822624213840128 -2.460002155244105 0.5581964200260698
-0.5894719013871368 -2.039858501267465 0.127886029128821
-0.750594828251738 -2.19005545201155 0.1583078967027701
0.09941043939112453 1.977756572829394 0.9787167453135404
0.4657809412430301 1.959576971851885 1.23820061297586
0.3044875911616345 -1.900492841392152 0.1128813323728247
0.1858228339789343 -1.548849595983305 0.9501245041805577
-0.8835261979057144 0.8496117992073902 0.2178978888464445
0.9939970875106687 -1.746924556696231 0.4708215953989997
0.131192566844679 0.6195505893217886 0.1131784315758394
-0.3152470924657352 1.984413017824808 1.279993517328212
-0.08288807630887565 -1.440001593062685 0.9575540350741791
-0.8551680841238853 -2.116523856752116 0.6738132129103014
-0.542313875618752 1.977006617676751 0.394766000233823
0.3388650877527192 1.97832727855707 0.3285825149305447
0.07575668815842582 -2.582391186375263 0.4801533579974389
-0.002509280952913601 -2.59199599922409 0.2753663994040988
0.9876973411377925 1.106548964750375 0.829531631037179
0.5075813712671347 1.738530511418686 0.9926409344674838
-0.6984258530585499 1.955590237367716 1.275781230415714
0.7383580926135736 1.291406137456181 1.081382297492155
0.5686315353465135 0.6057522561957358 1.288021787421861
0.5102610916355072 1.985552774908946 1.26303525133688
0.4451742127402082 -1.442462810671719 0.9116485140934638
0.9443432764780989 -2.053630432248137 0.4291767160618218
-0.8195165005844093 1.752023340194891 0.897392757771627
-0.7845684516332829 -0.07613501683707928 1.013531187467376
-0.8574402154352403 0.352393942413772 0.1929509867911091
-0.01359993574971269 -2.377551973983783 0.7388110542695973
0.5087592963472167 1.320370022369434 1.107147733321189
0.4584889354113771 -0.9976999504624428 0.1216763688623538
-0.4671018663637944 1.668379543667423 1.173722172523188
-0.324113031647766 -0.004183446788357343 1.281346174883065
-0.7462112191231896 1.928509399859201 0.8416951367350849
-0.1168809694027712 1.996228516740823 0.688726081668013
-0.6038140457551062 1.904171103972866 1.010999442674503
0.3452566023794031 1.114585813349033 1.191839769347057
-0.126056087069045 0.9081557771067288 1.244545153780114
0.03348709864101481 -2.582391186375264 0.4801533579974389
-0.1326050060427318 1.716728831081639 0.994517240730541
0.2729736283979238 1.963674943853957 1.007616969244428
-0.8940524087950457 -1.581777988679707 0.7848263828176501
-0.8429602456240413 -1.629100578271241 0.8705031038576683
-0.7183252112599105 -1.36338033692943 0.1186587030198837
-0.3593418083924729 1.961746825958471 0.9771853210368057
0.9483761968744915 0.7444017996328455 1.005402776760497
-0.2835908729881118 1.806607859165824 1.032193017077412
-0.8933068312247584 -1.640049182409899 0.7197859412977196
-0.8756165950524546 0.2478090904158471 0.8835651599040275
-0.5907091819207757 1.953290793391524 0.8455834360584449
0.4999038924311683 0.5662563198577109 0.1212597410317564
-0.142652801576101 -1.119949031487502 0.1160369583579499
0.7797886019153263 1.901214715514779 0.2864845848378764
0.8646027702246439 1.919532438797658 0.891420172574128
0.7787711640857965 1.810438871007496 0.1837600653321844
0.6654775615535408 1.265411334804468 0.08094212732837401
-0.4351093986806329 0.2375799953975907 1.308572435165752
0.9848603818519268 0.247809090415847 0.8835651599040273
0.3058429997130418 -2.022383717923796 0.1202854727139735
0.9624833971669593 -1.413581025200331 0.884606789757464
0.74644059548997 1.950297122846873 0.8002777298059763
-0.3593315371915676 1.694582005552096 1.173336352675996
0.9145930598208923 1.826183229119509 0.9121183928624833
0.2575347119741819 -1.386809304158894 0.9583842480529885
-0.5547275430211538 -0.468321560432391 0.130830646042633
0.1309633154398651 -2.520348491697849 0.5776013339485341
-0.7923987659217011 0.01794790695147372 0.1484584506179272
0.798956972685415 1.368437759421664 0.1087938782894513
0.0398208332979724 -1.709387916557129 0.9390741893678917
1.005764042385253 0.2503229539739817 0.6927852393874094
0.3790960234227515 1.637142827826664 0.1279149101183001
0.9603946252874535 1.106164382407986 0.1043946604667793
0.5547331548886642 1.994888412224797 0.6170020315464175
0.5665317925225696 1.859209028580565 1.160783372222207
-0.8261169032184349 1.009429918854403 0.9666586648214998
-0.2408683051124927 -0.9982544261140831 0.1183888770231058
0.811143729223569 -0.8093209942234254 0.9472837027228838
-0.3995155095477444 1.320370022369434 1.107147733321189
0.9741419634857245 -2.053630432248137 0.6674074479736847
1.004658018332381 0.8496117992073904 0.3272273796648872
0.6963425288603097 0.5134410944135851 0.1311822356479475
0.7756960707148288 0.4693396539318243 0.1349047367768509
0.8069932142620335 1.938821870485346 0.8418044093677698
-0.3102025902815835 -2.55260966327097 0.362155187350128
0.2435593061339506 -2.173207597472596 0.8166768938959512
0.3591597936759918 1.987779159605178 0.7995085850153225
-0.1961396882198979 1.369800671101048 0.1190588049401475
-0.7206438146649332 1.925041226429485 1.27253830750571
0.654553608850049 1.971022858998384 0.7189122064533016
-0.8751208298963195 1.16644436488702 0.3285079787591278
