-0.2044643823521969 -1.232861056721341 1.100578905319008
-0.03926331900464401 2.554449152660484 0.9994301731285009
-0.4885367971983279 -0.9341632074874524 1.102837154787588
-0.5761442603325664 -1.574364955547223 0.9358548011922558
0.96922098069407 1.980095415341064 1.081089620828974
-0.1280718870268601 -1.720812299254044 0.9388047432508101
1.119030297424682 1.325095740664473 0.2464474071694887
1.097593065501767 2.200137041714382 0.5828655345563801
-0.6209470269166253 -1.581743941289969 0.243783323126559
-0.05612088949031077 -1.666386521828998 0.9671286651787492
-0.3270526685698929 -0.5306189537191544 1.275939700061334
0.8999246359630443 1.51240917949562 0.09122593150560412
-0.168608803205044 1.106538100005364 1.358847426279882
0.3718288443067901 1.292623859832477 1.335978817007455
-0.04341629239559704 2.572432736996252 0.9380760288100345
0.1115553996824188 1.336630801568145 0.3209750758178823
0.2575758132310555 1.531775397243115 1.287194305055816
-0.39769611652438 -1.019629068545937 1.10945204172163
0.01796477696298567 -1.475856935087889 1.0441870281468
-0.4024005292637971 -0.8908160761776927 1.124149597946225
-0.1355090222571905 1.799325910159446 1.153682291145437
-0.3978192269688472 1.958646771039455 1.171753554519937
-0.607824926029598 -1.928011174035817 0.3280401465206279
1.060574065629615 -0.116164429303598 0.3515678038697369
0.8640835380502145 -1.172573180387002 1.094850369401143
0.8551202662422053 1.670228717203518 1.126725044489229
-0.7515424418097169 -1.264199373742852 0.6927595065050982
0.5136617032795684 -1.720812299254044 0.9388047432508101
-0.6994892334367387 1.906460803121216 0.8906416302291623
0.6503103463729493 0.8937573315703777 1.404656785590031
-0.3150196281253069 1.244531207675653 1.308357655420553
0.7669810569479197 1.991149879321691 0.3304851035527725
-0.713766153206534 1.318434812344106 0.8335323428555304
0.6580666587805708 1.085833190729746 1.362521010260292
0.9718146641771959 1.493886255412428 1.044892900053739
0.4290552228143156 2.477438394823619 0.5753981162417958
0.8848678337020585 1.544137021726823 1.102663831919462
0.6066523961407395 -0.2973073631573918 1.369546391420972
0.8548921700586095 -1.059184188321643 0.22480000715027
-0.7435852134370263 -1.377002104415931 0.8833218340761985
1.107754674820965 -1.644971623665883 0.693963007397761
0.6664999203960589 0.8634196006395614 0.325589916031157
0.3623329388391041 0.4628539569406561 1.475012633785779
0.02294091306406602 -1.541383727810712 1.021759679538944
1.147364618953696 -1.093621612970897 0.4011562736542463
0.7158191297464662 -0.5563039074734247 1.26126941689102
0.5367046214513445 0.2421390382912039 1.4631471666593
-0.04965520490172542 -0.8590838020414499 0.3211682925227438
0.8534815054107019 -1.340420612342679 1.064078005552719
0.9789662982839945 2.416678868207514 1.000680572131222
-0.7393377306392522 -1.374181187059753 0.9235974418952881
-0.2435098327682376 1.40587100818279 1.279099415369719
-0.6067719969170885 1.395607548441368 1.012562711744508
-0.7122511155357038 2.209498424054355 0.6540560721355818
-0.5833157848839685 2.279723118074796 1.062626855188356
0.3437353725440091 -1.790795861205746 0.8981105212846076
0.5672036297784376 -1.709074930409941 0.3215897259888111
0.6387619637681168 0.454807527571135 1.461742428432548
0.5210988385098989 1.799325910159446 1.153682291145437
-0.4069056138737049 -1.20221689450591 0.2777577611455311
-0.5086739957850377 2.290456932207245 1.094790032879713
1.139829161441998 -1.20898769145484 0.9021130585297502
0.5411600905741311 -0.1313325358512132 0.3117755183176352
-0.721859774393472 1.604586430380919 0.8107646046001558
-0.6771665157668756 -1.892976291232331 0.4589557518618324
0.7319608041487892 0.2372590176597829 1.436152219628163
-0.1769693400814223 1.943798654037868 0.336618968627298
-0.04850522217182173 -1.678360781009773 0.3174476096842974
-0.4651150522987175 -1.180819861783104 0.1933723765652244
1.053756821489747 -0.3327618300562123 0.8661775471264375
-0.4279087418077029 1.184252902359802 0.3257138718728764
0.6989621237141055 -1.150636974577105 0.313157219327139
0.5701062819828664 -2.137920758133341 0.4479998082818357
-0.7301987394204035 -0.9353728566585311 0.2104417303165867
0.2544653672691226 1.29578654024307 1.344773383273059
1.114498016208475 -1.579740435715814 0.7250342004959526
-0.3702617243335108 1.049206907848184 0.3306367809871054
1.13349214480875 -1.320457547114169 0.3599022451032175
0.1132598482782261 -1.878532444633354 0.3195900305906198
-0.4298815512444253 2.3532759825382 0.4801012874489725
0.3334281127746638 -1.944584215507086 0.7923642928780079
-0.7651681914862576 -1.032267338909155 0.4011561252025851
0.8544870803538816 0.1831398756478726 1.225756323829029
-0.6944224969032458 1.836208041657826 0.9118367397091817
-0.7548778263882071 -1.210821768989129 0.3599022451032176
-0.7618572156764283 -1.092046143127796 0.6901554105550202
0.4556738953781718 0.05095076424678356 1.455898002222656
-0.6677314881551414 -1.901021999594466 0.335201795806068
0.9050259328201764 1.025420237566243 1.096752520052423
0.2727890662598297 0.8703009210894752 0.3195900305906214
1.120057690208633 -1.512088915098238 0.40115553139594
0.5539983223981194 0.8660210992101993 0.3231967268130616
1.113469590383479 1.458390120799529 0.6622226227264627
-0.7269180905932373 1.716127647392259 0.6622226227264627
1.113650199521258 1.397745509448326 0.5821538562382717
0.67670957404914 2.336815546110741 0.4153297036879166
-0.7243171402387533 1.602945330893996 0.3128674537740502
1.101242924352565 1.90550387842764 0.6616614952656283
0.1113844094506044 2.379120121041735 0.4436172312037174
0.9000506838810942 1.340900284950084 0.1631344098093963
1.101932613272914 1.507905286062281 0.8619772184738886
-0.6681281044770417 1.669965039996453 0.9842557288482063
-0.6118889184825697 0.8371262666059453 1.009260500866168
-0.471454209461956 1.831441091864552 1.141959108386136
0.8848678337020585 1.544137021726823 1.102663831919462
0.8722574377594771 1.201756374543418 1.146132098593812
1.150774148477466 -1.031968522949849 0.5142507453532601
-0.337869322407967 -0.9858190463491338 1.107325305984048
-0.4943297479433347 2.38929490666365 0.5818082445652053
1.097840931788412 2.209498424054355 0.6540560721355817
0.8938228132565459 1.240026597062591 0.2639798964688234
1.099283630107306 -1.716901406615733 0.5739432558540177
0.6756282746803846 2.56086620067283 0.9860083846582279
1.051024617654721 -0.3272931623343555 0.3146769087019528
-0.3030406487735197 -1.164876329496446 1.108576369764697
0.2741504685215631 2.443147056505512 0.5293972024668477
0.2404384281810619 -2.091996224042212 0.6964609255259868
-0.4866676215067684 1.201756374543418 1.146132098593812
-0.1816138135257293 -1.709074930409941 0.3215897259888112
-0.1771341412286742 2.571903703749346 0.9720085747011324
0.7769963593058372 -1.651316238317159 0.3163619553231414
-0.7163734473061907 1.988135791726047 0.5817530509091042
-0.7583386481116606 -1.153214531623028 0.5142507453532601
-0.4125034954839247 -0.5749017868522823 1.209636157699183
0.5760974257689884 1.518336747431155 1.253415487643618
1.055296299006363 -1.531308704712012 0.9154221535068465
0.8791580630123764 0.1347837686855532 0.3270770494181021
1.050779088644598 1.786517844417991 0.9812303733025058
-0.04560156056496335 1.90542560707138 0.3365818704277152
1.082821006059111 -0.6813387867053973 0.3237517388031496
0.6947667008768035 -0.6773124262755269 1.215422478226246
-0.7027392071681093 2.228091067879242 0.8995436982210343
0.8264062177434878 2.210416873485105 0.3873869022955954
0.816394685462708 2.334604090828052 0.4586699485412148
0.2513032227297254 -1.546938013197796 1.017843433108026
0.4323144953493898 1.731872007917761 0.3333776751815798
-0.7217830955517773 -1.649713572350163 0.6412566029875206
-0.7479023285560416 -1.320457547114169 0.3599022451032176
1.068488010147608 1.775777882633284 0.9500134284416321
-0.2221128335244113 0.6928253140950733 1.431615776913644
-0.705273481566205 -1.794200265283183 0.5704174552183315
0.8251526873139725 -1.84294214298879 0.7969538927500544
-0.6681670052370388 -0.3327618300562125 0.8661775471264375
0.8493858735644856 -1.402860160213645 1.047373625958915
1.105302766508755 1.317680225279261 0.5821538562382715
0.4167698055166901 -0.1322177649512434 0.3096549263674404
-0.3735368595818185 2.23921402469702 1.119976383882049
-0.4298815512444253 2.3532759825382 0.4801012874489725
1.093287872538181 1.603989207809911 0.8926814701683258
1.031514550488429 -1.746850962846395 0.7584378334765732
0.4065330502893005 2.191988135047895 1.118810927767986
0.9847511626169183 -1.16718879732623 1.063080312550397
1.04311748696376 -0.915586674933394 0.2395885118735749
1.086583473785261 1.026256675499662 0.853587178027386
-0.5466044161443913 0.6323227952712323 1.065021621861828
-0.7076980562854726 1.603989207809911 0.8926814701683258
-0.5215614696874757 -0.5228036751628976 1.14694159438623
-0.7270342354543036 1.714555263595425 0.4011562736542463
-0.3515107585441516 -0.1189837488408664 1.388297923743761
-0.4432856790041425 -1.720162970926007 0.3366834244452066
-0.242261790361201 -0.5988191048284997 1.253353071645684
-0.3790940231890034 2.550376559567589 0.7758909929558091
-0.7134460758626589 -1.71959619020613 0.3599251517122962
-0.4104647101471068 -1.078704195021298 0.2921405246826579
0.6528567462160052 2.538186157698192 1.007200629413715
0.7711066090846726 1.552402374223919 0.2888622841684181
1.018889498770236 2.160486177600047 0.3600356214416903
-0.7508984489460195 -1.263943191251891 0.898576112542421
-0.4866676215067684 1.201756374543418 1.146132098593812
0.9210931281919864 1.422966199896667 1.087528732670578
0.01330940849388309 -0.5908556561943965 1.274138016055379
0.8342216349940206 -1.584464090198557 0.2728649443225164
0.9936584978755786 1.89214760582078 0.235299377465001
-0.7508984489460195 -1.263943191251891 0.898576112542421
1.009738770136607 1.602945330893996 0.05015105336585437
-0.4289013564350151 0.8489161573515304 0.3396491696245838
0.7870857154156524 1.842855859733402 1.159260632633684
-0.605555094788869 0.1351497360528376 0.3100808704318905
0.1329215689457996 -0.4386675548188909 1.347817871707199
-0.6344625135426645 1.698952563693078 1.032252514245701
1.147381467392146 -1.093323621242028 0.5142507453532601
1.112464315313542 1.657240531371493 0.3599022451032176
0.7869743653518403 0.4334438144120518 1.394664486695926
0.9609678187005252 1.585654102500728 1.060609922700312
-0.1846864661533023 -1.578840923253835 0.3148715369652135
-0.7393377306392522 -1.374181187059753 0.9235974418952881
1.088815052517435 0.8359869802699511 0.5142507453532601
0.675097845332051 2.562873891434869 0.7739686442311249
1.012137551893849 1.714555263595425 0.07830988805843536
-0.6604209815190369 -1.034086868190913 0.1110352277069503
-0.1528437285214835 0.4607453417550738 1.457196376219021
-0.6288841513828511 1.396236160590373 0.09229021258681029
-0.7345228713022907 -1.507242676094098 0.8292075882602695
-0.7035010019326786 1.024574434296365 0.4539774848161501
1.101371096636735 1.903975425790869 0.4541570554436202
-0.6785649088112322 -1.878208901315135 0.5729593450783124
0.1278521576517875 -0.7043723639939166 1.224418165861806
-0.7602486601928815 -0.9072425805791773 0.3174847947214943
0.1199989546660588 2.108705993143934 1.139831467046486
-0.5638071953995727 -0.07378708569179093 1.017947718201677
-0.6888598216393908 0.3926714323168327 0.5138357774709937
0.7978421348576034 0.8638543508884862 1.337025737128263
1.082821006059111 -0.6813387867053973 0.3237517388031496
-0.05826569479513881 -2.114275027570522 0.3328997901150402
0.8806177054086209 2.425122712023574 0.6389246567150109
-0.5960693213923587 -1.968873609163278 0.3546222955124824
-0.7197018227028746 -1.425563835903737 0.937177457409821
0.8292724342504894 1.479043742453738 0.2030053448294189
0.7343262259907892 -1.426446536302238 1.058537906539734
0.2703770139929929 0.1319064268906314 0.3138434389713002
-0.7408100629967767 -1.093621612970897 0.1337683926584833
-0.1797003565239769 2.163330524168088 0.3491617296255581
-0.469945753401126 -0.01258776357371251 1.210541639754795
0.6956821309021821 -2.05737413492542 0.6266691997952661
0.8304925346126627 -1.884386641200649 0.7639644166361448
0.1309224223655829 -0.6123692648912615 1.270359250109068
-0.3829288218157593 -1.139982043915021 1.110140845492513
-0.619930117110772 1.549194940614568 1.023414749616616
0.7001447060249905 -2.086435651621885 0.3776916939893419
1.023472555022896 1.182868046845381 0.2817960972682849
-0.6408625358116724 1.036884886954149 0.3107134341479229
1.101296962590353 2.091183958897962 0.8018507394438027
-0.6866574281397093 -0.5100124627745568 0.581960851894882
0.9255977226305668 -1.160339312931687 0.09655776367513269
1.136975716577839 -1.263975407167231 0.8135277217150828
0.1113440886539051 2.512988067080283 0.6362488053157613
1.097171847795013 2.170553690254144 0.4198705144790432
-0.3899449383608936 -1.687761427841499 0.3251141162385833
0.9899652676227161 -1.049964808246086 1.067420972798723
-0.7548778263882071 -1.210821768989129 0.3599022451032176
-0.5202962492319865 2.177076999879732 0.3807175071405066
-0.2807842040717746 1.387602322053671 1.275178493142675
0.571653318448947 -1.517160853301942 0.3122339925071329
0.7924954301264132 -1.20221689450591 0.277757761145531
0.1073043873760541 -1.163264617932048 0.3127854673496788
0.3312047251663638 -2.177514348034582 0.4001937990331074
-0.277090065131574 1.260041644114349 1.316689647281891
-0.7649862219234545 -0.9032095916680341 0.6864690929114035
-0.6627808162437902 0.1392827495949793 0.9374432128324517
0.7943165557377134 -1.140182018124024 0.2840792917081771
-0.1752916494152058 2.547780964824956 0.7008315284508504
-0.7181325032216606 2.083266936006519 0.4576949335515348
-0.4627808884551735 -2.004958927941394 0.618839673440557
0.3724153426260358 -0.6102793010194301 1.264637700227084
0.8822246149745511 -0.5907398630461034 1.153826663571119
0.5769606090215743 -1.846218212767712 0.8443665119241927
1.081805635063542 -1.655831706220218 0.7927331195543245
1.017201910066204 1.815380034365208 1.028544631017033
0.66894130090485 1.279731698120626 0.3254316555699622
0.1309224223655829 -0.6123692648912615 1.270359250109068
-0.6806755878888442 2.334001183907283 0.7325366409571767
1.065495028940326 0.6325893386250707 0.9414731400307903
0.1123884012854527 -0.7283213914490927 0.3176745000508454
-0.08569433740472293 -0.5617371679453074 1.280181207877114
0.5647031096044773 2.261400460297644 0.3774124653758432
0.471259997600851 1.28898956733339 1.325872823969162
0.3306081328122861 -2.141270951416656 0.6115371635928242
0.1080499490974858 -1.344719645713359 0.305016247755501
-0.7048423992625748 1.024600662102811 0.4011158274167994
-0.4388325738624854 -1.793298624031589 0.8356973801805414
0.8251526873139725 -1.84294214298879 0.7969538927500544
-0.7150384647779775 1.905665686571821 0.7413666475295965
1.094362773226691 -0.6800391863219104 0.5842323849261677
-0.6994472501131535 1.603664584722857 0.914601851324398
-0.1781900081173557 2.570476437095558 0.978995064938829
-0.289508029079343 2.562873891434869 0.7739686442311248
1.113510965935295 1.45775215923952 0.5821538562382717
0.4809153596329046 -2.050134226371895 0.7117473590429866
-0.469191931039361 1.88970835719936 1.147682117630303
-0.4669292142078361 1.947113191334167 1.151560102338232
0.6951933082034781 -0.807017849653595 1.157845905652127
-0.7338698028884372 -1.194965168835306 0.9859825620748005
-0.6788907203933003 2.334312774890477 0.8144614713847809
-0.1860635021962386 -1.517160853301942 0.3122339925071329
-0.705273481566205 -1.794200265283183 0.5704174552183315
1.058541966807589 -0.1158082975777572 0.8595372924931324
1.046627400338511 1.848087775383917 0.9797677326447951
-0.6784022076210484 0.136947891717814 0.8620476060604847
-0.6288841513828511 1.396236160590373 0.09229021258681029
0.8203533164413819 2.29188014818508 0.4277960622268479
-0.723851535213756 1.77355356407867 0.2419770290336918
-0.6344934200732277 1.756086905962291 1.030132625129042
0.4167698055166901 -0.1322177649512434 0.3096549263674404
1.117217100150221 -0.8155063572934467 0.3216181078460918
1.049866298097467 -0.116164429303598 0.3156131005882474
-0.7478626003750768 -1.318660112700104 0.8099966183432054
0.7169006002086911 2.270591133225639 1.090948655271469
-0.7281088842107518 1.396851847642441 0.45397748481615
1.026452352064381 1.036884886954149 0.3107134341479229
1.074461873769165 0.3933103685967276 0.582743183320271
0.6580666587805708 1.085833190729746 1.362521010260292
1.032738835890118 0.8372327627966278 0.9822387941407591
-0.7026186484098728 1.836604022030501 0.8910284155906871
-0.7562199415090973 -1.088944418149908 0.9507748831762115
-0.648403000307782 -1.265773963168404 0.04920200077407803
-0.3691237844491158 -1.850740120087989 0.3311973680990269
0.4811130965631384 -2.159632587328423 0.4436618765453686
0.03275913808098329 -1.674554361351166 0.9624652016337699
-0.6602392640992545 -1.818071007309449 0.6980200743666741
-0.7547897654254611 -1.209022153543344 0.8148467794280692
-0.03792641317416383 0.6530264932705305 0.3212682522992038
0.5310597984186528 2.293636206235807 1.088179633083606
-0.5516001089290367 0.8369327365474205 1.059475565603651
-0.6846219783742468 0.8373535612126857 0.9371350043322657
0.371844374992882 -0.5639919617565697 1.287089090539336
1.137038776414757 -1.265773963168404 0.3599022451032176
1.090162671994417 -1.801410539376822 0.4535963621331003
-0.7251485024907329 1.506324979747125 0.2286316691634047
-0.4824018849581778 0.8380143402398999 1.198084578310952
0.1449508758124146 -2.009815327694669 0.7555438393019668
0.8810904898985545 2.469890070931834 0.7801980056835642
-0.04354583307989687 2.379825761058418 0.4439785697021829
1.086583473785261 1.026256675499662 0.853587178027386
0.008203895245117041 -1.351263143383746 1.074401450765851
-0.4397992953052455 1.85472519331467 0.2525218977042814
0.7854507725848472 1.462534466164201 1.174132167303578
-0.5905862533556825 1.735285803660408 1.080363664145822
1.101454542625513 1.554756181592817 0.8597472107885356
-0.4455912624720325 -1.658750738437714 0.3242874322415191
0.9605091311885852 -0.8596518816474122 1.091710032659466
0.4939328850756418 -1.236251970762867 1.096663568205629
1.13349214480875 -1.320457547114169 0.3599022451032175
0.2538474147550506 -0.5207712458585069 1.314291892105455
-0.3929081009997575 -1.612093095579737 0.3056863191031488
1.062706008262355 2.336336816828462 0.8790977208335823
-0.3118863413745633 -1.213158565660645 0.3094461049948196
-0.3156109013188617 2.012181377170316 1.125636712175919
1.04216654989695 1.518931656039828 0.9851516910668388
0.2742054068021043 2.379120121041735 0.4436172312037174
1.093550138884547 1.195918209188851 0.45397748481615
0.4719623485615526 -0.5885156521779196 1.267423481621644
-0.5192376638718348 -1.629515167951665 0.3102163952852283
-0.3805581980358675 2.346570675006661 1.095788110852619
1.140467642640916 -1.210821768989129 0.4011562736542463
0.9609678187005252 1.585654102500728 1.060609922700312
1.074337010224184 0.6310374067141275 0.3252298094535661
1.112603304186593 1.714852827068435 0.5142507453532601
-0.03943409099494944 0.8683094891684891 0.321268252299204
-0.6887553182634338 0.3923732601770461 0.4004503838976692
0.4569817374040848 -1.535001199354011 1.026259908199668
-0.02233332765020567 -2.064590944553 0.706803989595188
1.065573324637287 0.1369412452644024 0.763105200748156
1.150520626124359 -0.904487713473306 0.5142507453532601
0.1439955011153924 -2.176999627712395 0.3597620934669807
0.9934147422823068 -1.928011174035817 0.3280401465206279
-0.5516001089290367 0.8369327365474205 1.059475565603651
-0.4289013564350151 0.8489161573515304 0.3396491696245838
-0.258517606224453 2.485405077894805 1.032524892986048
1.062096116595929 -0.3272931623343555 0.3935084032607494
-0.6291936787179395 2.272537809418557 1.035908247056541
-0.3855167928319643 1.55240237422392 0.2888622841684183
0.8272203267651571 1.630917428460376 0.1964758542035923
1.101039908202127 -1.489351309408964 0.9048423514934751
-0.6706479312222092 2.223394061578007 0.3949750745945242
-0.5563475996251044 -1.807869564627745 0.7697477049288274
0.3818556428943929 -1.294908252119532 1.084915510884583
0.9975254201782245 2.229089787030308 0.3998594481977395
0.9609678187005252 1.585654102500728 1.060609922700312
0.5210988385098989 1.799325910159446 1.153682291145437
0.9750102077921174 1.196478543036498 1.009497068020702
-0.7617772096207657 -1.093579042723916 0.45397748481615
1.109197099396563 1.604694591074177 0.7424977100852811
0.4102760110357369 2.299702656997723 1.096700192757109
1.080941892890715 1.657631646404203 0.9305999596747655
0.431839849992913 2.564042283348415 0.997243847347255
-0.6932403176750996 2.257637357069563 0.9538745033385556
-0.4397992953052455 1.85472519331467 0.2525218977042814
-0.6450540876746954 2.161659885339649 1.021293413278214
1.093478995800217 1.197450746823837 0.662877326637652
0.8993119125730538 1.779220022372533 0.1430972119025315
-0.723851535213756 1.77355356407867 0.2419770290336918
0.4812836642809796 -2.009995207335675 0.7407481878201006
1.101932613272914 1.507905286062281 0.8619772184738886
1.071204245840421 -0.5109588175165174 0.3544338358110795
-0.3710073052459362 -0.4098220383132932 1.300539891936819
0.8135861907296001 1.357946587802627 1.192360413565692
1.113598276866241 1.45616896279312 0.2322236353110997
-0.73067226327003 -1.501886740441343 0.8679220893347999
-0.668198284494074 1.727144642541623 0.9828033266514978
-0.3187306688239905 1.37024233927389 1.258765220793337
1.063548564080952 0.392373260177046 0.3242728755364734
0.5471418515444051 0.4015141905299232 0.3220824625696051
-0.3104048870800324 -1.272985216210909 0.3066485737817585
0.9733673714774043 1.851396905666449 1.078513904917667
0.5601921429273131 2.574215127863633 0.9326788563524315
0.8253039257726065 2.394306293039998 1.089459738854273
0.2751830701231651 1.856554189861123 0.3353547204749894
0.2496271032726019 -1.613465279497616 0.9898668056069179
-0.6584898119593561 -0.814724269159663 0.3099904520726005
-0.0700840791254634 0.05095076424678358 1.455898002222656
-0.4619197163818632 -2.021208854561475 0.5624730409001429
-0.6099493957901219 1.864092407415882 0.1892919935409054
0.9299537992979964 2.40051251803885 1.051339450885718
0.9299537992979964 2.40051251803885 1.051339450885718
-0.7529898509271213 -1.148841269213358 0.9520871792675318
-0.7047767754729284 -1.799240280481907 0.5115828865719125
-0.4309261588550786 2.512528526875765 1.010072152029206
-0.03931841300383424 1.06214906640781 0.3213866496153521
0.6496789474367442 -0.1302444106335789 0.3143342834125786
0.2670730288944421 -0.9912365880168437 1.101367118777104
-0.6408625358116724 1.036884886954149 0.3107134341479229
-0.2973965039234047 -0.2823248398789093 1.372908761769845
0.5537933276985648 1.210908374792179 0.324018371144123
-0.4015680910315113 1.785552143937137 1.155985359770869
-0.6459247342357204 -1.746850962846394 0.7584378334765732
1.113562147799593 1.456858666990933 0.45397748481615
-0.7026186484098728 1.836604022030501 0.8910284155906871
-0.7101654598838847 1.658237207079912 0.8924540541816201
-0.605555094788869 0.1351497360528376 0.3100808704318905
1.120734664141622 -1.437012658366425 0.9046466065634868
0.1112763700190921 2.544685623700564 0.7064014356145906
-0.4824018849581778 0.8380143402398999 1.198084578310952
1.062727338323249 -0.3272505524727668 0.4477852844679581
1.124927546891961 -1.374181187059753 0.9235974418952881
0.7707440742887981 2.55536840280486 0.9832891792200559
-0.7194313303780909 1.833220028846094 0.2510129051587579
-0.4672584082813231 -1.119727927921665 0.2062592298748562
-0.619930117110772 1.549194940614568 1.023414749616616
-0.7286528001568897 -1.583644816045621 0.4011492866462985
0.6233747029082799 2.091473626601551 1.115519398225146
1.153955676326365 -0.9718639014569013 0.4539774848161501
0.2496271032726019 -1.613465279497616 0.9898668056069179
0.037623497200252 -1.739198550695416 0.9297640750499416
0.2655029598370263 1.805386053092156 1.167144747771346
-0.5930967053834164 0.1506719069736489 1.006677187842161
0.1185167873582666 -0.9912365880168438 1.101367118777104
0.2743134462336166 2.544685623700564 0.7064014356145906
-0.6264063545734137 1.657240531371493 0.05970187158982903
-0.7206478053113488 -1.613553656560411 0.785649093367971
-0.235633866948512 1.099421521985804 1.356639696806366
0.4564902940345083 0.4618516502940215 1.465050808624003
0.1164987634754153 2.490566266110923 1.049774339545962
-0.7282979522398974 1.396869279283316 0.4011241800491384
-0.4881784650487731 -0.9942951299754494 1.098733819494211
0.6575287615895868 0.4006310952215124 0.3244918055317834
-0.7583386481116606 -1.153214531623028 0.5142507453532601
0.7805042596012644 -1.558659607718687 0.2947442882997599
0.2752657229360629 1.460995969209535 0.319588434807963
1.121955959032362 -0.9560195434815686 0.9938330659797574
0.2549942726726268 -0.640748424816024 1.256295045612516
-0.5907007713171694 2.069272260147456 1.074675659555221
1.150506991038665 -0.9047923553095347 0.4011491070864819
-0.7250430932285816 1.508028131563885 0.6622226227264626
-0.7076980562854726 1.603989207809911 0.8926814701683258
-0.1752916494152058 2.547780964824956 0.7008315284508504
-0.08810152995391063 1.420079053905069 1.294288728901078
-0.3021020230215339 -1.572397865550738 0.3132933373605132
-0.6775739898980027 -1.888515084684156 0.5161715935316588
-0.499766311678904 2.473588633333865 0.9793489405803557
-0.7243171402387533 1.602945330893996 0.3128674537740502
0.9449442086343868 2.186631979889902 1.087386216725526
0.1199989546660588 2.108705993143934 1.139831467046486
0.431191376817672 1.90542560707138 0.3365818704277152
-0.703492309469013 1.024829934091764 0.5142507453532601
1.058541966807589 -0.1158082975777572 0.8595372924931324
-0.1760759067418475 2.012183804829769 0.3343329134990738
-0.6209470269166253 -1.581743941289969 0.243783323126559
-0.7099575734772203 1.901507850725482 0.3178167689974585
0.8264062177434878 2.210416873485105 0.3873869022955954
-0.6761676220963382 -0.3272931623343554 0.3507686502630438
-0.6985671874342656 0.8364807765121887 0.3253127775767581
0.7378696110827741 1.649716682909204 1.178065271148359
1.109906956491462 1.602945330893996 0.3599022451032176
0.1085863866374598 -1.463153732465797 0.3058042565864055
1.103667634402194 2.078394726770314 0.3693835927828151
-0.6828981938948999 1.775777882633285 0.950013428441632
-0.4285209096541088 1.037074471976043 0.3377452259162433
0.8159708794980175 -0.4311295119706852 1.257016798948087
1.008706211846362 -1.548506317069455 0.1974167873858273
0.968905601136677 2.279723118074796 1.062626855188356
-0.7231463907449278 1.209191220962923 0.3161414182051283
0.4045811453510558 1.858130721164612 1.149279339874461
0.5596215428256918 1.32959219611003 0.3245596316212722
0.6775735577402364 1.937210010321355 0.335176750487244
-0.03296104166609795 2.538305190341079 1.017410525371261
1.12956123250144 -1.378802005444799 0.3137554578127954
-0.4130737974930949 -0.9815805220112339 0.3091200032907432
-0.2444626359707064 -1.514529460719829 1.034513878029348
-0.5233116522706485 1.196830021988261 1.08449381301885
0.847509532634572 -2.021208854561474 0.5624730409001428
0.4289761594123263 2.444122188564592 0.5286458322565175
-0.03243172361180709 0.1319475981814445 0.315603215259319
1.11361075401391 1.39838361273949 0.6622226227264627
0.4070665181686237 -2.098887220649973 0.6685329817512768
-0.7651843322247574 -1.031968522949849 0.5142507453532601
1.113598276866241 1.45616896279312 0.2322236353110997
-0.04696378300790732 1.792117585517079 0.3355719841134215
0.9823898990710557 2.422214114661249 0.8409157224911077
-0.7120032492490581 2.200137041714382 0.5828655345563801
-0.6857799545424695 -1.758083155707041 0.7111169315330966
-0.1846864661533023 -1.578840923253835 0.3148715369652135
0.8799195641960435 2.38929490666365 0.5818082445652053
1.109331813824751 1.774995020173808 0.5821538562382717
-0.7649608731788838 -0.9038487575167087 0.5856176376932633
0.7834090432215559 1.958646771039455 1.171753554519936
1.150510328972783 -0.9048182832285107 0.3598664122643954
0.2766990418861209 -1.527063717271647 0.3084492064210277
-0.4108301449783065 -0.2980596987279569 1.303324355062329
0.7214695548286256 -0.6018914647785646 1.237687241746893
1.065495028940326 0.6325893386250707 0.9414731400307903
0.3700348821326026 -0.5189334269161747 1.307998206816475
-0.1843061815208265 -0.8558929926599641 0.323097627820022
-0.5722514898504506 0.3976774984549786 1.03411297315929
0.9178845046115004 -1.327982944721179 0.09179706091869111
0.8938228132565459 1.240026597062591 0.2639798964688234
0.2751809851438167 2.565229798667152 0.9977082235886073
1.107372911804486 -1.649713572350163 0.6412566029875206
-0.4298815512444253 2.3532759825382 0.4801012874489725
0.7579759174272029 1.557990204880744 1.179224313171601
-0.3515107585441516 -0.1189837488408664 1.388297923743761
0.7646838394417115 2.550376559567589 0.7758909929558091
-0.4950278891559121 2.425122712023574 0.6389246567150109
1.147364618953696 -1.093621612970897 0.4011562736542463
-0.5996388220123703 -1.928851261447691 0.6433170765158713
0.8844023074035968 2.29484033771095 0.4545340195786687
-0.1158349473302574 -1.178121835574766 1.100764731567061
-0.3899449383608936 -1.687761427841499 0.3251141162385833
-0.4942663874387058 2.330801966815325 0.5008603043938917
-0.6729521505548803 -0.1158082975777573 0.8595372924931324
-0.3695623989488115 -1.251650272554027 1.0988373567076
0.2749135276231126 1.910279823688394 0.3350184064258288
0.9719319528596329 -0.2829510534781264 1.013063906532944
-0.03792641317416383 0.6530264932705305 0.3212682522992038
1.080941892890715 1.657631646404203 0.9305999596747655
0.004731115648720828 1.527898747093274 1.27649259598281
-0.4720966385225191 0.404344512519884 1.229342299203093
1.063548564080952 0.392373260177046 0.3242728755364734
-0.7242106390340838 1.604518459586762 0.6622226227264626
-0.7420999038799621 -0.8130047881130676 0.3598122120193363
-0.04419849464415883 2.571796112184217 0.9668990578679448
0.7960545263998151 -1.078704195021298 0.2921405246826578
-0.5628157618516583 -1.843207171152522 0.74083123299798
0.5601250650509936 2.399277761536153 0.4663084366511958
0.4142882986754225 2.48962064164281 1.043574425769839
0.9733673714774043 1.851396905666449 1.078513904917667
0.8556473630504538 -0.9003318911662462 0.3233716521312701
0.7003802386688185 -1.088676807314529 0.3170422834102479
-0.7268744990608329 1.657240531371493 0.2302192311156386
-0.664137270013091 -0.8718751131149088 1.049907320701758
1.102142796833822 -0.8897009160457408 1.005684519129156
-0.7648571419752124 -1.030463881724837 0.8043165831850504
0.9718146641771959 1.493886255412428 1.044892900053739
-0.7514516661276508 -1.265731418647928 0.45397748481615
-0.05826569479513881 -2.114275027570522 0.3328997901150402
-0.1732158104366205 -0.5857362174364674 1.262367717676573
-0.7115444116882775 2.095726774332743 0.8582021768923389
0.3724153426260358 -0.6102793010194301 1.264637700227084
-0.6888111037405754 0.3924158561970156 0.4534270670074219
-0.2647205301202406 0.8937573315703777 1.404656785590031
-0.3187306688239905 1.37024233927389 1.258765220793337
0.6036112558303719 -0.128389332597589 1.413788998429144
-0.3578616825260365 1.926622342615015 1.150630524009312
-0.4991716382816574 1.331077737185815 1.12290425967749
-0.7440704992781222 -1.377251142612159 0.6898172162757894
-0.3836707341633246 2.051405467960365 0.3365226375336287
-0.1237743262734739 -1.117413351075278 1.101347544118097
-0.4720966385225191 0.404344512519884 1.229342299203093
1.124927546891961 -1.374181187059753 0.9235974418952881
0.6575287615895868 0.4006310952215124 0.3244918055317834
0.9004170863537661 1.02901768269471 0.3303681159229586
-0.3702617243335108 1.049206907848184 0.3306367809871054
0.9607039479251077 2.411742064780835 1.02609643334194
-0.6675739008910339 1.456684504729225 0.9549939460843088
-0.6486897687053299 -0.3258587286304906 0.9436267060298952
0.8166944505015814 -0.6991010696321489 0.3378447166921288
-0.6962158188108333 -1.655831706220218 0.7927331195543245
1.099528128645772 1.458289074434241 0.8706547129000419
0.8607016744997452 -1.227466798028787 1.087569369184923
0.7994357270482759 -0.9514721481503414 0.3177847787125565
1.006040209795319 1.823501993177194 0.1444634659450386
1.140557591534361 -1.209246885573696 0.693030061928483
-0.3109673279800119 -2.028476424122901 0.6805218220556262
1.088265961999837 -1.774664261431599 0.6673945038045693
1.109406547745266 1.773987275402933 0.3148921211094551
-0.7100842053292982 1.396820268905933 0.1412106425053579
1.150508223636453 -0.9047432790645786 0.45397748481615
0.8140314879973004 2.310633027322262 1.114614296701351
-0.3402846399333586 -2.041320308409667 0.3491998253764823
-0.5990592963585028 2.422931880012268 0.9478242942059089
-0.2807842040717746 1.387602322053671 1.275178493142675
1.109125361588151 1.458483531167759 0.8161629008369278
0.4721722230170472 -0.6078776862380827 1.258062965154391
0.8277118722886176 1.802730134166974 0.2312288321937201
-0.7181213662999726 2.081206861559899 0.4077138623898723
1.127669327662516 -0.8129486527549744 0.4011382670374701
-0.5970730061367561 2.293984510631184 0.4736326573202109
0.7871579072842201 1.785552143937137 1.155985359770868
1.133452416627785 -1.318660112700104 0.8099966183432052
-0.7648571419752124 -1.030463881724837 0.8043165831850504
0.816394685462708 2.334604090828052 0.4586699485412148
-0.05248468592088688 -1.397948791694027 0.3063136731338816
-0.5538314471012846 1.025469464735205 1.049072910332705
0.7168127538231308 1.578126037320359 1.201003929630146
0.1112027037109976 2.558179511656843 1.001376302635659
-0.7139913818763691 -1.573617245556759 0.2647130322368015
0.277284505495203 -1.402212984781383 0.3045233842968629
-0.6337151097558325 -1.736266794155774 0.3161998660503277
-0.168625251475434 -0.5143073477579723 1.295264120165518
-0.04337316592595293 2.398208253124774 0.466241900413809
1.133452416627785 -1.318660112700104 0.8099966183432052
-0.2552888457292499 2.395050072059727 1.058228513841196
-0.2934121251605074 2.569746847624082 0.974727938522908
-0.6799835083845784 0.1369412452644024 0.763105200748156
-0.5862248479244874 1.493886255412428 1.044892900053739
0.2723299679744825 -1.878532444633354 0.3195900305906197
-0.3101105916882126 1.072891492364895 1.358384068438669
-0.5930967053834164 0.1506719069736489 1.006677187842161
-0.7280084606135319 1.45616896279312 0.2322236353110997
1.071402204493667 -0.510951741158976 0.39661302058073
-0.6156473324675096 -0.3027352775960391 0.9883878744741343
0.8664198696449319 -1.981777820691711 0.3435798912830885
-0.7226541395153687 1.555078002023583 0.742497710085281
-0.5596696014802484 -0.4346348117632132 1.070286469006567
0.4811130965631384 -2.159632587328423 0.4436618765453686
0.2544653672691226 1.29578654024307 1.344773383273059
0.5252380870638541 2.185913318639962 1.109577187550676
0.7126424848226015 -0.5306189537191544 1.275939700061334
1.062157862462299 -0.1145879415898013 0.664985494560995
1.058541966807589 -0.1158082975777572 0.8595372924931324
-0.3836707341633246 2.051405467960365 0.3365226375336287
0.5233371635976883 -1.657801530256518 0.9713697310394999
-0.7067804811290402 2.216731732018378 0.8639643266134492
1.125196828623377 -1.441189932311086 0.6853327810320766
0.1096760863868787 -1.683399004254156 0.3157407567155566
0.6208473312064162 -1.054423435720509 1.103933733442573
0.396327193682095 -1.117645023966956 1.097117143812515
0.1325725017443093 -1.480622402579624 1.040327950122171
0.7743864399488383 -0.4879421594226249 1.266743173350796
0.7849542888852484 -1.434881989386244 0.277298872439502
0.4293864385247945 2.561852318974573 0.7804869352196784
0.1393441916767117 -1.74709315567546 0.9256430507696712
-0.4780745203133966 0.633552698413631 1.218010987868672
-0.5175115487016194 1.402052617783954 0.1276434025783416
-0.7396070123706683 -1.441189932311087 0.6853327810320766
-0.5958642997105954 -1.969156982500479 0.4806871103675964
0.7927014002632551 -0.1226682890227344 0.3284706965002798
-0.04341629239559704 2.572432736996252 0.9380760288100345
0.9299537992979964 2.40051251803885 1.051339450885718
0.4164779849471509 -1.871989069935876 0.8355061953520897
-0.2612723589592982 1.507909285941434 1.244545850284275
-0.4363787892932342 1.963915215946765 0.3252343475774764
0.8993119125730538 1.779220022372533 0.1430972119025315
0.8363850665944568 1.036004223460016 1.247822777631197
-0.4435859858889725 1.68630149426562 0.2030120841762856
1.008890815832429 1.553326185162042 0.04808839479456049
-0.5092182483130967 1.937540089483505 0.3074790774255561
0.5696535197450375 -1.990621641963685 0.7450705430168315
0.1078023730380511 -1.286797973949922 0.3067735274155351
0.6794110316146299 1.563072960137278 0.3239155338507402
-0.7238077982323892 1.774102621225105 0.45397748481615
0.2547469584005553 -1.415397306337626 1.057275953423448
0.6212236832012203 1.099421521985804 1.356639696806366
1.066210539967042 1.457552121784539 0.9355577739788673
0.9058633865262858 -1.558021066432225 0.2276001965512259
0.2677089705518158 2.304981881218493 1.104115062961818
1.078830133927808 2.257637357069563 0.9538745033385556
0.8664198696449319 -1.981777820691711 0.3435798912830885
0.4427083234894249 -0.9987082743057005 0.3199437970855088
-0.5017607716008928 2.471785677129706 0.9882371908442451
1.062077609848743 2.349241592374725 0.9367893769862019
-0.5401895522244975 1.818535835579578 1.113001667977378
-0.7180778181494854 2.078394726770314 0.369383592782815
1.129562469689922 -1.37878256426197 0.45397748481615
0.8847614545343661 1.331077737185815 1.12290425967749
1.112464315313542 1.657240531371493 0.4011562736542463
0.2787260053091801 -1.045523177694495 0.3178745032856912
-0.7290451591259974 1.39710923530787 0.3597417770776783
0.6014611102405637 1.611012324180666 1.218901301398078
-0.6231163955936534 -1.548506317069455 0.1974167873858273
-0.4178202687366199 1.052754579393205 1.293801576886983
1.012254104742005 -1.798408580558247 0.7347833462915413
0.5640244363330641 1.669953832808404 0.3327882298429221
0.8751866032831365 -0.1177903942333823 0.3213950130936339
-0.274764558426934 -1.330851765074981 1.086757307922369
0.8822246149745511 -0.5907398630461034 1.153826663571119
-0.136612324694616 1.854034357633967 1.140875561508996
0.7924954301264132 -1.20221689450591 0.277757761145531
-0.5630825894913243 -1.75918032138453 0.8031800738559748
0.05435412590487981 -2.172072850600668 0.4969306729804996
0.7532143069308115 2.543040500546878 0.9977365775294929
-0.5894203915394088 1.196478543036498 1.009497068020702
0.120864813611427 1.697994244057288 1.223794704797977
0.7684840829038984 1.923626862529725 0.3198251000783927
-0.7069382893379242 1.197643261184019 0.751765798721728
-0.3039192700595469 -1.51094597570002 0.3096393878987973
-0.05078504145769742 -1.522455843398683 0.3102102946248314
0.8154065426330637 2.521515308733886 0.870172462057391
-0.6758676821051013 -0.1161218236552095 0.4483357022766862
-0.6799007866938254 0.1351497360528377 0.3977413182832614
-0.4418531076077532 1.53192864347268 0.196244858635734
0.7943165557377134 -1.140182018124024 0.2840792917081771
1.074337010224184 0.6310374067141275 0.3252298094535661
-0.6846219783742468 0.8373535612126857 0.9371350043322657
0.8105865935240388 0.639485212532288 0.3395811907176433
0.110408831108892 2.565229798667152 0.9977082235886073
-0.4637960573117767 -1.402860160213645 1.047373625958915
-0.04379662227208592 2.561852318974573 0.7804869352196784
-0.6269476525312943 0.1451063616897904 0.9812016109615266
0.7870857154156524 1.842855859733402 1.159260632633684
0.6814866097470038 -1.76544122701624 0.3251424328621106
1.086583473785261 1.026256675499662 0.853587178027386
-0.0713919211513763 -1.535001199354011 1.026259908199668
0.7269240594895714 -1.489758901310225 1.036334810380736
1.072260570696033 -0.5093731248818109 0.6726404717978274
-0.2833514846521421 1.279731698120626 0.3254316555699622
1.078987105388916 -1.700543304848721 0.7470978947748175
-0.6933972891362078 -1.700543304848721 0.7470978947748175
-0.7068282069979801 1.714555263595425 0.1319830037434917
-0.2552888457292499 2.395050072059727 1.058228513841196
0.7964199612310151 -0.2980596987279569 1.303324355062329
1.137057718173973 -1.265476151525073 0.5142507453532601
-0.7164290638013687 1.987499133357324 0.5144752086375977
0.6077026497771196 0.6928253140950732 1.431615776913644
0.2550038275304674 1.4276839867562 1.314022294334276
1.01975248501574 0.3957321202940534 0.9869689617915787
1.09949219342197 -1.714933468289143 0.6317552534120544
-0.7469738176160806 -0.9774798301155886 0.1799664197934716
1.065490602946534 0.1351497360528378 0.3977413182832614
-0.6777074090890775 -0.3269948933032355 0.5095823566777643
0.8227357868735046 2.519387230502418 0.9911449821532663
-0.3578616825260365 1.926622342615015 1.150630524009312
1.120059169472221 -1.512069256167672 0.3598985338116858
1.05332130440785 -1.901021999594466 0.335201795806068
-0.7243171402387532 1.602945330893996 0.4011562736542463
1.072260570696033 -0.5093731248818109 0.6726404717978274
0.9974787347352783 0.8371262666059454 1.009260500866168
-0.631863684986657 2.045141092187472 1.027989979265765
0.574296904674074 -1.393048731321147 0.3083709259849072
0.5760974257689884 1.518336747431155 1.253415487643618
0.8741266134510367 -0.9341632074874525 1.102837154787588
0.7046403085465763 -1.679879639829312 0.945492227789582
1.140467642640916 -1.210821768989129 0.3599022451032176
-0.1369045397389455 1.912160464064496 1.132714524718479
-0.1754444762543393 -0.6334568083252106 1.239554662769311
-0.6602392640992545 -1.818071007309449 0.6980200743666741
-0.04547325694672382 1.622643899099517 0.3286618852903511
-0.4279963744768915 1.357946587802627 1.192360413565692
1.020052329795373 1.698952563693078 1.032252514245701
1.127677254729968 -0.812636391857491 0.5142507453532601
-0.6105888031623075 -0.5112461838952738 0.3084228052843442
0.2782854288766545 -1.163264617932048 0.3127854673496788
0.8570440257146648 1.831441091864552 1.141959108386136
0.8607064047307639 2.094052752397606 1.1391614157557
-0.4403162822113689 -1.744268896503467 0.8726382130897541
0.7919936623093222 0.6595653683538048 1.370847756956344
0.8337959854548709 -0.3028498702501828 1.258123815347858
0.7707440742887981 2.55536840280486 0.9832891792200559
-0.08810152995391063 1.420079053905069 1.294288728901078
-0.3164229813271981 2.077044713686904 1.122664234480279
1.108702910283432 -1.583140772887854 0.3176453742550616
-0.6067719969170885 1.395607548441368 1.012562711744508
0.9149998078437331 -1.386089306275998 0.1092481531848763
-0.7548778263882072 -1.210821768989129 0.22795816929155
-0.5067384587853027 1.904548052087071 0.2670825393375417
-0.2241562746338548 -1.643358362749651 0.9756526856415561
0.6766556508553964 1.599767904667742 1.209192775553836
0.4305279357757709 1.949516575175855 0.3351429575966494
1.143997151736279 -1.151937285985173 0.6921845762304058
-0.7469738176160806 -0.9774798301155886 0.1799664197934716
0.9205206699885228 2.000898981868423 1.116574149481807
-0.4672584082813231 -1.119727927921665 0.2062592298748562
1.06145749835781 -0.1161218236552095 0.4483357022766862
-0.6514288430544049 -1.210821768989129 0.05077912444689206
-0.2705831806616295 -0.5423711399900875 0.3182691793686667
-0.2910658346026881 1.599767904667742 1.209192775553836
-0.04346540656160702 2.477438394823619 0.5753981162417958
0.6383577782245228 0.05478788737935091 1.453410209171123
1.105266194334193 1.318318503907066 0.6622226227264627
0.9486332693194058 -0.2678831518879307 1.030605573108774
1.076836833671471 -1.178259746855888 1.023217188804317
0.9285106395070782 1.525786034541439 1.078144556643457
0.8337959854548709 -0.3028498702501828 1.258123815347858
-0.7602486601928815 -0.9072425805791773 0.3174847947214943
-0.4356702688614594 1.299577635092321 0.2654550818025909
-0.1605438710873787 -0.5449895536826656 0.3157682985233527
0.894304426110806 2.254179285660154 0.422104992982029
-0.1780012403626508 1.899847540131367 0.3383784748129118
0.5607836988934378 2.563619876662878 0.7765932592091944
-0.7268112232347427 1.65817588547797 0.5821538562382717
0.5538183996257481 1.059245827654498 0.3233141045746418
0.3312047251663638 -2.177514348034582 0.4001937990331074
-0.08296355921282168 1.110042334096713 1.366842924040736
0.1156439776759641 -0.1329881203186927 0.3078095177710138
1.051024617654721 -0.3272931623343555 0.3146769087019528
1.114360820658997 -1.582079089009654 0.6560528836703458
0.120864813611427 1.697994244057288 1.223794704797977
-0.51685726717817 -1.77063465198073 0.3333328863489277
1.089764935148617 1.602945330893996 0.1129161922722453
0.3312356903478289 -2.172072850600668 0.4969306729804996
-0.6097125498708944 -0.6967364149461024 1.042443618844079
0.8547817472920696 1.88970835719936 1.147682117630303
-0.02594260472153768 -1.930536240334746 0.7971769414208142
1.011996170826123 1.657240531371493 0.05970187158982895
-0.05078504145769742 -1.522455843398683 0.3102102946248314
-0.1188300281696479 -2.000392490084846 0.3231967268130609
-0.3318474599568219 -0.5748752704043494 1.251021528564143
-0.03637237430267627 -1.822309080982579 0.8713831416610907
0.05390011883868527 -1.996698590045048 0.759735994150603
1.114264892394009 -1.583353911791349 0.5141154676415677
0.3991367069720235 -0.8141187818660901 1.166415318438894
0.6657834033057428 2.555490793974402 0.9895558932834994
-0.3865316262127214 1.827383234310629 0.3069823730351097
-0.3724628354684732 1.236887766577925 1.277510417889277
-0.4509944727014695 -1.53184712291371 0.2432318190835292
-0.5166804493581372 0.8367720693742025 1.11092036979561
-0.2892335249585853 2.514685865727627 0.6311959621724322
-0.4455912624720325 -1.658750738437714 0.3242874322415191
0.1102370879284577 -1.78070345019891 0.3192634092729129
0.4305279357757709 1.949516575175855 0.3351429575966494
-0.3620908319030894 -0.7860571583524619 1.164709976136075
-0.2503234510979517 2.286411140092087 1.083051282737929
0.2544653672691226 1.29578654024307 1.344773383273059
-0.7230780956189959 1.775800294935523 0.742497710085281
0.6805414985129754 1.840211271565622 0.3353398632728916
0.9831532397886121 -1.949379803545056 0.5931196196139622
-0.440788881297049 1.580303193532604 0.1942478235257243
-0.5971604325751557 2.347782105130345 0.5562242808091045
-0.1702704141205463 -0.7231438459812757 0.3213396197406334
-0.3385490604661041 1.469285621613679 1.213824145693733
-0.6802627729765767 -1.862957013139843 0.6245536913774028
0.73400931847408 0.05473096074311674 1.421429472740806
-0.5663202691840663 0.1550803098454131 1.025343193370856
0.6009050748393403 0.2417515873482569 1.461334480642339
-0.4881784650487731 -0.9942951299754494 1.098733819494211
-0.7216581662416213 -1.651276083478124 0.401139164836553
-0.6985671874342656 0.8364807765121887 0.3253127775767581
-0.648403000307782 -1.265773963168404 0.04920200077407803
0.6974761576272713 -1.213158565660645 0.3094461049948195
-0.6681281044770417 1.669965039996453 0.9842557288482063
-0.7045728557417079 -1.801410539376822 0.4535963621331003
0.8471566880969166 -2.028216757829756 0.5053998770593666
-0.7646934496879234 -0.9700604170654914 0.8934994078150516
0.1114295947289825 2.56725524182264 0.8736000168289272
-0.4992780174493499 1.544137021726823 1.102663831919462
-0.2949516822602674 1.840211271565623 0.3353398632728916
0.5776904417062322 -1.218267713861619 0.3132032266257844
-0.2527706977172088 -0.9245038422448038 1.116808548447309
1.104819531378023 1.835731789319895 0.3598985338116859
0.7646838394417115 2.550376559567589 0.7758909929558091
-0.242261790361201 -0.5988191048284997 1.253353071645684
-0.3948187728812815 1.627530074616626 1.161458223318964
0.9394212633539931 1.025469464735205 1.049072910332705
-0.7156909807030241 1.988928779845632 0.7368423973068585
0.4736482024651832 -0.6363191973901277 1.244334995915856
0.4164779849471509 -1.871989069935876 0.8355061953520897
-0.7221648585682561 -1.644971623665883 0.693963007397761
-0.2778458456087638 0.6496133655949489 0.325589916031157
0.6274949040118087 -0.5796788698527645 1.262504617062096
-0.3021020230215339 -1.572397865550738 0.3132933373605132
-0.7345357925819364 -1.511158721386879 0.5837624154321173
