-0.2468120835177325 -0.6020250050623519 0.07030686406484912
-0.8349384796559897 2.284202563824667 0.645308075192621
-0.8521235158932391 -0.656416004670777 0.2499533591559372
0.61617045713199 -1.971317727076719 0.1798160087315338
0.5046300959140563 2.545075018028828 0.2567206085730854
1.224001296703486 1.085709257578407 0.127343447518769
-0.7126221958979596 1.84974061025045 0.9341816670893295
-0.5118371234280489 1.256459972830465 0.6668282213175436
-0.8158638019355358 0.6654819521160353 0.1270427426431629
0.8077045081815315 -1.310190353306188 0.06675963179924788
-0.1357151217175616 0.5587921990604917 0.6395557496388443
-0.5801346096883003 -1.148851456205942 0.8477374630391319
-0.2647294728984601 2.715365153798542 0.8600994311827167
1.222329459600061 2.280704482420899 0.3689560995786065
-0.1020276725475588 1.501633734199418 0.06588418198619117
0.9215086125622762 1.986463306881721 -0.02042743026291841
-0.440792074794732 2.659691262079744 0.7524642341731581
-0.311093929345254 -1.95210014544315 0.1259242509538544
-0.2412994059506293 2.71033298454794 0.9646200584764992
0.6525336153620231 2.726683027417658 0.9285296580510496
-0.148947677723007 1.213090147117504 0.6390506829435706
1.239757821715624 -0.06279166110650203 0.8471739643666105
-0.1387862155249655 2.393388416854585 0.1482709530548668
1.239026927042559 0.1274777026245722 0.7859407236168244
1.088412657416138 -0.7804087541022998 -0.0642103888355063
-0.1443922782250762 -0.1780197006515405 1.194185911144738
-0.8023280315983639 2.427595391972272 0.7785762860906962
0.8610317675568017 2.592578154359219 0.4986007845847718
-0.2589873331757962 -1.386922704977411 0.07647037988631897
-0.7372533125072673 1.353371179396694 0.05802799037984404
0.251761331017109 2.721591406346229 0.9646200584765529
0.4731570753134764 2.64361256823273 0.4986007845847831
-0.2685033873738577 2.632296057939009 0.4986007845847728
0.8790826746112604 -1.966062149118971 0.3010987629549032
-0.8714747122654434 -0.8717448341516447 0.3500369337403517
-0.67500798769577 0.9374232168718544 0.709055154259258
-0.5699637092822834 0.3735237878723477 0.665432106348218
-0.8694444856378597 -0.07077458439368314 0.6531806178550066
1.258262599453662 -0.2892867909798301 0.5848667709480016
1.140061194007888 -1.659364785888565 0.5456710109383198
0.819177482700141 -0.8738262067394529 0.8892714022619139
1.208313766762934 0.1621760912276312 0.1274121726388825
-0.8234681322072068 1.588447522918495 0.868289424624094
-0.6755074482834824 2.27081512599431 0.1347111560374573
-0.8592111443852529 -1.144747745659699 0.5379169154493459
0.416934290440365 -0.06557620945245678 0.06840662492205912
0.649595176883357 -0.1751521971958998 1.194185911144709
-0.608221086651551 1.346236149146821 0.6777283090253664
0.8977935492982374 -0.9150843531166204 0.8756479468295324
-0.8748383917999492 -0.9261538684444457 0.5722685391849566
-0.7698615026034898 1.108642566972765 0.7783672194817619
1.26022744495792 -0.1632060005523928 0.5138132437452373
1.275355003568236 1.685614899029997 0.7205553466399425
-0.8630667969943617 -1.088158546726477 0.495530977824484
1.202180158133933 -1.557426354729753 0.3710891154291445
1.193429702173531 1.556104388347159 -0.06033983903734393
1.225410318725273 1.748733713085372 0.01356104742976556
0.1278581520237238 -1.424667718012557 0.7829717139790773
-0.786951770696636 -1.260928911382368 0.05805181876693627
-0.5792344253448493 2.073821983503277 0.01060147234472226
-0.8666286951552846 0.1518124360502166 0.7262491781956807
1.278977792967154 1.551712724038017 0.3668439741673638
-0.2152660268524657 -1.777679061430329 0.08249505479696047
0.02953381407783582 -1.997217244736148 0.4016035399624371
-0.3524014322750962 -0.6700626470557729 0.9878558527115643
1.044053895224944 0.03470607166994496 0.9260896201999325
-0.8780584604084321 -0.8715911637849927 0.5715924086340156
-0.7886107517515243 2.469103568343546 0.514096682822335
1.257231070531234 1.748733713085372 0.2650543282980841
0.7995606363473538 2.212989225088357 0.08494745506006773
-0.5370857664467559 -0.8582924885296809 -0.04487330358004289
-0.8072424248570138 2.419770554188505 0.7230064741034581
1.250936647769468 -0.714542694889198 0.2532646966342296
-0.8255651780728249 -0.9805120128251871 0.01302874823979351
0.7951663116273653 0.5541397272233826 0.6614243528163901
0.4933930587122403 -0.7897173609733378 0.0658743551609054
0.2952491446564969 -1.333645219736211 0.07164581886101527
-0.6846877311496113 1.70409930121925 -0.1212695758405881
-0.2913847549231567 2.578020928007375 0.3553785637099884
1.208018351512879 0.8792474052070879 0.8069255028922111
-0.3608062200204335 -1.114460851668279 0.8594292325786604
-0.8543821301762774 -1.207219536452748 0.6015043298331988
-0.8039413660216217 0.09273549216586711 0.8341177184876598
0.2502484909899648 -2.075415409822912 0.2880508787537204
1.275355003568236 1.685614899029997 0.7205553466399425
-0.1428449461798488 0.001316776869379879 1.221515549432393
-0.2711862325654939 1.828781413053669 0.06250372267996997
-0.8913126307785237 1.551724258044453 0.6694463990434909
0.4050715119894281 2.391202337129087 0.148270953054872
0.8631266505383106 -1.900188311645405 0.1250817047281132
-0.8797000562139921 1.487935201845092 0.7741299023947091
0.2715358002249964 0.1498916954704584 0.06801999590130009
-0.3451781240126542 -0.1714833751268705 1.194185911144693
0.3884069430011474 -1.835577964252363 0.5343682792921993
1.266183286533217 1.619522393540529 0.2644895088561614
1.114894553530417 0.1601553470191919 0.07570936381502526
-0.8894091146109912 1.551712724038017 0.4474616550533027
-0.3788452574957534 -1.880224208616571 0.4539647415814965
0.4731447880441272 2.673040387137874 0.5786582073574587
0.8439217013216952 -1.527808589386349 0.7062151555617411
-0.1460582611021477 -0.3731809281988417 1.123147187644253
-0.3479676779013274 -0.3649959958744523 1.123147187644204
-0.05805251485664293 -1.99841373971735 0.126098090142277
0.6638894447152419 1.893677560473492 0.0671836481214492
-0.5104100771210436 -0.7710072307844245 0.03240839597871503
-0.352003879029861 -0.9411669463185088 0.8756479468295357
1.206144779070533 -1.55999095354315 0.4885144009174617
1.027019901155885 2.602078617646073 0.8449077034687254
0.0249648068749063 2.700072060251361 0.6838969569396881
1.206144779070533 -1.55999095354315 0.4885144009174617
-0.6599572948044309 0.3527571526743996 0.7014299735066744
0.6752102319764205 0.4623735361316116 0.0678867410169903
-0.01425515471567812 -0.0008892161603092606 1.221515549432429
1.218452552455242 2.356465475827572 0.4480820873853065
1.133527103954009 -1.686267491060765 0.3392803706670667
1.00783275564085 0.1578274877960109 0.06801999590129318
-0.8423856178420293 2.199117199759972 0.7272913452677216
-0.266267588068728 2.661381747569143 0.5786582073574446
0.9402092213197404 2.497459416684185 0.2562079325425248
-0.8892898384299038 1.552455349709452 0.7254955162600805
1.221826170245782 1.810137515386759 0.0191333708703474
0.5557420686958963 1.0503150239976 0.06792270894390856
0.903486796561664 1.188211114146966 0.6691344392929117
-0.5715267941999537 0.06461246192613573 0.7449003005227356
0.6637067792741924 1.957850886763658 0.06943548293952483
-0.09682024832863095 -0.8887949459263461 0.0617220914145149
1.25989711302376 -0.6571020253207289 0.632632965077085
0.8741299902408326 0.2097734176018554 0.6802467235155324
-0.1751032659356782 2.698686401390356 0.6838969569396535
-0.001136422468795143 -1.701062925448721 0.6298750221867537
-0.5763321759460167 -1.014688141444228 -0.1113286028313418
-0.7386282921701201 0.3214066879171096 0.7645836887522333
0.9183324557108585 -1.083384937778791 -0.05722789751644895
1.074311706060419 -0.690038031815558 0.01756679657934407
1.291201016044874 1.252478987635397 0.6694983081815791
-0.6901651967034468 -0.8329719073762665 -0.08863011008280854
0.8964460374646877 1.116733188120552 0.6681793717897233
0.3969565756524269 2.286191104461619 0.965194577823782
-0.5188379228215794 -1.836380655489029 0.09549256115716252
-0.5796049608869083 1.848114890188348 -0.09933107763580365
1.265261732511257 0.6678360997613356 0.72951115602994
-0.3580765217747278 -0.998264069014451 0.8704189298486922
1.184178915450721 -0.8210101024249038 -0.05702517890351425
1.280588961336448 1.083029900586136 0.4474154963604213
0.8849773838510824 -1.950991006465532 0.3368457094688896
-0.8634689427305109 -0.5617276163680061 0.6347114772549993
-0.2881559069486294 -0.3143132165375276 0.06919945374719777
1.261743074795609 1.685340619230486 0.264769608756025
1.254201207902158 0.871080852693944 0.2426082751293379
-0.5601509728401009 1.43351816129791 0.02169503674173717
-0.06957144734176314 2.741964192954172 0.9549617407584244
1.006294974295396 1.448988410672274 0.7415273934252632
-0.8308338095791368 2.044432310621432 0.8415033338932874
1.291994373894114 1.352375262968758 0.4473428058695821
-0.5752933763114997 -1.12511792507772 -0.08191198632318039
-0.657495017900724 2.463959948891285 0.9310166783732359
-0.420260581284398 -0.8764330890652593 0.0520329275088469
-0.2809529614761137 -0.7840911204933987 0.065874355160903
-0.8558349418365185 2.012522482261463 0.4478128174381037
0.09956631441352146 2.21714639163564 0.08592849969342541
0.8778234019119424 -1.945953709024191 0.292272179512691
-0.8598291624175728 1.876780617959144 0.7907425640091365
1.181387910262872 1.689002113051482 0.9091466013934317
1.059548468438077 2.099688409074783 0.03755090263011716
-0.3388926927559984 2.641250746764851 0.9653206181732364
0.3996295932915592 -1.417614455273573 0.7829717139790646
-0.3463524899129368 2.708121216867591 0.9244321932411352
-0.8305981457838012 -0.6603178838241521 0.1386852484235522
-0.8849922326230227 1.012115555041828 0.5267021500102673
1.180289627402352 -1.260928911382368 0.05805181876693627
-0.4107779797025741 0.01342575292885896 1.223179528610873
-0.6939064765030292 -0.737261496695914 -0.03690856947111913
-0.8443758670367971 -1.274775166463952 0.3775859083977054
0.47553331315132 2.609773095625238 0.9675992011332156
0.8680052900152038 1.68782020419062 0.9833822944374021
0.2504099885829002 -2.097569578197661 0.3090622228952009
-0.7334818795589229 -1.677189394596662 0.2511615532705949
1.272893889541931 1.686586961137283 0.7658883615703731
-0.854332547436927 -0.04046445237054806 0.243088902137989
-0.2809800957594769 0.06364076607264813 0.06817223801170941
0.5909539475605758 2.565860166846035 0.3024257518112602
0.6459482138968475 -1.563754526437113 0.07976338815115312
-0.8267384301435605 -1.176803432959279 0.794150878679284
-0.8187857562168106 0.8732698510348448 0.1270496673244613
1.222329459600061 2.280704482420899 0.3689560995786065
0.7982628641968728 0.7706969052204014 0.6644194130492241
-0.4921104423440268 -1.207220971629607 0.02488478455484822
-0.5747257947683355 0.755597367218146 0.6681769606422066
0.7420953748904946 -0.829150512377143 0.9119223943629293
-0.2390129744911063 2.483522498549309 0.1849807314887665
-0.4828211022101009 -0.5895626024915462 1.016582801259043
0.005347065651512797 2.543647272776541 0.2567206085730955
0.8968950976954567 -1.406217035046946 0.07645257969874378
-0.3484619008658115 -0.8847057090496103 0.8892714022619171
0.5504589754543486 -0.1921528162166187 0.06873378949745254
1.225410318725273 1.748733713085372 0.01356104742976556
-0.8632049047182602 -0.5548092436358819 0.508211720949792
0.7767369668817146 2.58455731333868 0.4189062913058468
0.286345941142946 2.267799111394173 0.1036697997445276
-0.100055202006425 -0.7897173609733377 0.0658743551609054
1.26088074265857 1.810137515386759 0.3673532355657866
-0.8701642552086728 -0.9792826498919716 0.6184756061971748
0.4017028785159935 -1.277488932283301 0.8301679710436121
1.261149512594397 1.870857394720307 0.5245055673236154
1.253167019123289 1.876780617959144 0.7907425640091363
-0.1311294651457335 2.052842009357837 0.9631816162427881
0.9696597118866421 -1.389359146041771 0.07579937310684509
-0.8954186326215866 1.484344425699373 0.6700445221498
-0.8699940148935175 -0.9238788467279482 0.6667073550495162
-0.2647294728984601 2.715365153798542 0.8600994311827167
0.1098944054207914 -1.457849208368831 0.07798043646664342
-0.4026980103392152 0.2041522951279926 0.6769389879681544
0.819177482700141 -0.8738262067394529 0.8892714022619139
0.5504589754543486 -0.1921528162166187 0.06873378949745254
-0.4832825203557132 -1.366830265514342 0.07169466071160087
-0.06489538435266652 2.722567427937383 0.9646200584765211
1.194649821415054 -1.527713069175761 0.6305389905418397
-0.4598076661512173 2.369207780163324 0.1482709530548597
-0.4934049706285096 1.939056823367162 0.01996047123089326
0.4414592980725186 -0.463591384880354 0.0698844288247841
-0.242779648122765 -1.399938232891861 0.7829717139790362
0.6743179524651929 0.06364076607264813 0.06817223801170941
0.3537132293310316 -1.995366758455105 0.264369109122114
-0.8947103747251122 1.422332678485985 0.7271620726882295
-0.4916395271453664 -1.950991006465532 0.3368457094688896
1.212123612922526 0.8732698510348447 0.1270496673244613
0.8058435710662109 0.9847686852011554 0.6642052720243838
-0.02312427269482089 -0.1948419730736384 0.06873378949745473
-0.1395886154786194 -0.9562523914608254 0.8756479468295718
-0.525567724367761 -1.194263380691449 -0.02485095440648601
1.015736144610058 -1.855193426132188 0.3780357171068578
-0.6151986100081641 0.4587818273472809 0.06788674101698906
-0.07236004829344751 -1.985584318731648 0.4016035399624264
-0.2818897631353873 0.6828631683177926 0.06788117794961651
1.210035947126561 -1.440279350303272 0.6799167689352829
-0.02499247871279043 0.9085825495676008 0.06788954370691824
1.231496063010088 -1.206318812528778 0.2316045331514436
1.089656313807461 -0.9698430123481132 0.8568135188864454
1.208313766762934 0.1621760912276312 0.1274121726388825
1.070485021386759 -1.430627374294894 0.08458975806748242
0.9046682991631594 0.2177385835377416 0.06793480178428706
-0.1491858932380877 1.276208033521063 0.6367444649682017
-0.8578198762517378 0.6641641889634324 0.242604051855476
1.067801110091005 -1.162310682218657 -0.06207311193767266
1.184178915450721 -0.8210101024249038 -0.05702517890351425
-0.006976874562215289 2.061398591710431 0.9631816162427996
1.26689741362338 0.4556540328503044 0.6014514790525287
0.7099150211269419 1.191204350960242 0.06825648082729507
1.234880978614069 1.619522393540529 0.01505168414517257
0.8278365999902425 2.445665953064708 0.9640863379447037
0.2677466357655787 1.652722177260894 0.9677441414609362
-0.2700240174901881 -1.225435958204479 0.06634045046230398
0.3684380761005726 2.642677446723317 0.4986007845847915
-0.5194997881204165 -1.882084450145145 0.4087516766624179
-0.3614695184075545 -1.055402887371418 0.866462966645533
-0.8954186326215866 1.484344425699373 0.6700445221498
-0.8675428859528545 1.810137515386759 0.3673532355657866
1.002822559151831 -0.4360810630164771 0.06988442882477888
0.7517002619018982 1.905515917389774 0.9695240968369038
-0.02640641130928889 1.054080114872787 0.06792270894391113
0.977815526657716 0.964617522267494 0.6695134087757992
-0.4915697385405844 -1.15189507362282 0.01499943317116481
-0.8516364388293479 2.101757578719373 0.6473282665398746
0.2549046875307289 2.641923631668079 0.4986007845847982
0.8987439545893865 1.605682199918075 0.01165235870990151
-0.542934845444574 -0.5826781591979839 1.01286376986049
0.6699447139901312 2.602153265564252 0.4189062913058476
-0.3633972086247213 2.270972964124259 0.1034735908178522
1.288048231430828 1.422332678485985 0.7271620726882295
-0.6939064765030292 -0.737261496695914 -0.03690856947111913
-0.5370857664467559 -0.8582924885296809 -0.04487330358004289
-0.8526676077294297 -0.7630207365098575 0.7444271700609041
1.027019901155885 2.602078617646073 0.8449077034687254
0.4102116446695729 -0.6247801850033792 1.016582801259139
-0.5969283634137812 2.618939893886916 0.8926451767203183
-0.02359643373458067 -0.06557620945245679 0.06840662492205912
-0.8714461777352789 1.810153529747143 0.746303078514347
0.900976487489319 -0.1814370783093381 0.06873378949744959
-0.8339541535477886 -1.406412986562782 0.4030928648976298
-0.4873943089206947 -1.96627639925825 0.3148090576703123
1.013131939264515 1.396706922508018 0.03366586008517026
0.5392076158281909 1.139391476915652 0.6382258231927704
-0.5227941692947885 -0.4436326013642864 0.06988442882477888
1.02026451557469 1.101921440481147 0.06798442365372148
0.5104810393105257 2.472442735075406 0.9667519887287731
0.8903095892628324 1.745268266471671 0.001221822642573384
1.235265145122572 2.195512056354084 0.447958937352291
1.209032058338494 -1.202199821362571 0.04704402273243859
-0.8593580289708653 -1.1447477456597 0.5798822821713354
-0.01039004038124297 1.864563259387755 0.9741430602447828
-0.8450947157978248 1.26155625103969 0.1332792239977816
1.091162372257174 1.568606366317344 -0.09243340832040478
-0.680973849354703 -0.6900380318155579 0.01756679657934407
0.6643232314544567 2.075444300128641 0.07001771335207105
-0.4107779797025741 0.01342575292885896 1.223179528610873
1.24811109248882 1.942004738742645 0.7878767514711716
0.2689189761034356 1.378025700545052 0.648091758835989
1.267847157587711 -0.9264612091777497 0.5052013659785728
-0.7739409909399959 -1.093344986390657 -0.05511182047470542
-0.8664159899246371 1.870860597592384 0.7384709777572612
-0.471998845902292 -1.896192776746231 0.1776113238500815
0.6523251898815321 -1.386922704977411 0.07647037988631897
0.3956656756954545 2.516694867853424 0.2172004899082438
1.220189506646707 2.356994230193769 0.6813555174354706
0.04021204871756817 -1.993831986138089 0.2300361757572498
-0.3388926927559984 2.641250746764851 0.9653206181732364
-0.8782592957232277 -0.8711301526850368 0.6260198003517541
0.5244673218514694 2.052842009357838 0.963181616242788
0.6594728562518185 2.678894634287054 0.6357381257725655
1.268564421814199 -0.8165126206976565 0.6749153615929718
0.8082960733508627 2.115625355905326 0.0691597981843643
-0.7282504086629236 2.525081140321327 0.8361833460016084
1.255303017862234 -0.7633940548382053 0.253399518442928
-0.7882601901174758 -1.212944611484426 0.8089089460457877
-0.6251465915460381 -0.3565248776068408 1.105731615994282
0.6637067792741924 1.957850886763658 0.06943548293952483
1.250936647769468 -0.714542694889198 0.2532646966342296
-0.5364378443105612 1.665309033953786 -0.06267154379222571
0.7297995335583656 -1.667276681692238 0.6298750221867184
-0.6321407099210222 2.535231097452923 0.4197323657074543
0.03833680607002461 -2.087596129464451 0.2958772564157511
-0.5422216666748411 -0.8048230036730097 -0.02693878731590483
0.9823049777266573 1.652571328311539 -0.107078640498267
1.245744932446975 -1.034116513036721 0.2482282669420409
-0.1465394130752653 -2.063417221762379 0.3090622228951581
-0.8234681322072068 1.588447522918495 0.868289424624094
0.367859761775258 2.72714384461279 0.8600994311827701
-0.4630594758517359 -1.307509515300135 0.8076532438574596
1.21860477158113 1.01237200536255 0.1270771195216183
-0.8720943006176872 -0.7633193911725358 0.6766147548465058
-0.8817773521274002 1.010252360597383 0.4476812270153836
-0.2493567825692373 -1.189829945020068 0.847737463039137
-0.01091290296212396 0.01410696268635966 0.7155708803421701
0.9648646509056696 0.06461246192613573 0.7449003005227356
-0.4746674333094876 1.68782020419062 0.9833822944374021
1.228276336361706 2.284202563824667 0.645308075192621
0.8273631291874661 1.470121309338936 0.7459734473418662
-0.8742167723444072 1.251568768742427 0.7744118516863224
-0.1458697591224749 1.139391476915652 0.6382258231927704
1.078025587855327 1.704099301219249 -0.121269575840588
0.8631266505383106 -1.900188311645405 0.1250817047281132
0.3683812487972213 2.690059855911383 0.6357381257726
1.263740146955048 0.1628859333213602 0.4426284068096751
-0.8297780311189861 -1.24447095293925 0.7706031707439257
1.256908571673329 -1.088035610433155 0.5963840670758924
1.207466873036947 2.404892216626076 0.3696147955947972
0.3610583707537485 2.670612613397673 0.967806248154243
-0.7800443483595796 -1.409318828403192 0.724816319291132
0.6086516583395707 -1.441749314977431 0.07798043646663896
-0.3979083229383054 0.06571784181411323 0.06817223801170844
0.2977477534399877 -0.7623059845628319 0.06638330571151624
1.280301480174023 1.619539130583948 0.6686531882722324
-0.09360392993416176 -1.284222875055443 0.06919791844408962
-0.8689849184703462 -0.9805120128251871 0.4316173852665502
-0.5781077453397201 2.025600004883088 -0.02203593695623426
-0.07969728586304838 -1.923492439421616 0.09233039869871977
-0.82697926985228 2.356465475827573 0.5942522154196377
1.250422824429182 -0.8694928983139004 0.7289064075510849
0.2972657518387708 1.562796848342356 0.06351941468117661
-0.004552086884248846 2.482723919795886 0.1849807314887799
1.256648525278936 -0.4332174203424676 0.6379659390103369
1.2402086227027 -0.9264612091777496 0.1350586848405367
-0.4315977642551959 2.53963667415676 0.302305130921234
0.8201302072941475 -0.661087869666612 0.9878558527115606
1.185833777362547 1.624160088052767 -0.07658650287301991
0.03619393239994045 -2.039387283649226 0.3626744800013422
-0.8690956382197205 -0.04046445237054806 0.5147167391107189
-0.832072462019557 1.748733713085372 0.01356104742976556
-0.4542196893680736 1.547585575125443 0.8765651048191241
0.4113843529585428 1.217437325018563 0.6390506829435937
0.7297995335583656 -1.667276681692238 0.6298750221867184
-0.01229045617032269 1.722728570181151 0.9860479452214824
-0.8260722644373264 2.359109247658557 0.7243269538647819
0.6525336153620231 2.726683027417658 0.9285296580510496
-0.8252669148754143 1.01237200536255 0.1270771195216183
0.9633015659879993 0.3735237878723477 0.665432106348218
1.265927042910382 0.2209016948277032 0.6693072334952271
0.9688782840378223 -1.179646857386277 -0.05795570886122954
-0.8380028216589107 2.193755482089585 0.3678910142948436
-0.1392155579155743 -0.02158724903350041 0.8857277370441661
1.266913172429033 -0.714542694889198 0.4280864117670846
0.9273752103831214 0.02134592075401418 1.221015759525493
1.266183286533217 1.619522393540529 0.2644895088561614
0.9356139158385395 1.595070378149955 -0.0477238144287435
-0.1231554408038932 2.379814509812355 0.9661709646737231
1.002859148298509 -1.803203344123693 0.2767938535539292
0.5308029485512251 0.01465952873921247 0.7155708803421266
-0.8849922326230227 1.012115555041828 0.5267021500102673
-0.8671074655658929 0.305392076125745 0.7256336187096404
-0.6489528307168542 -1.014884922600469 0.8638680708977005
-0.9002949962035138 1.352270183493944 0.6702310766813829
-0.1036762746591778 1.46131056805887 0.06775484655204303
-0.3788452574957534 -1.880224208616571 0.4539647415814965
-0.2450120554284759 -1.333255583893397 0.8076532438574648
-0.8682541747478885 1.870857719910119 0.5964826898545267
-0.8122069387271726 -1.559981464498542 0.4571328541697498
-0.5821441179897361 1.998539367159303 0.9498533623225434
1.25989711302376 -0.6571020253207289 0.632632965077085
-0.812469395149778 -0.04193024189934473 0.1278476433614634
-0.581071900015987 2.120620139803704 0.04138240088039523
0.4065188377718402 0.03909689710795865 1.10804409311236
0.7041123837668056 2.556786199027377 0.3024257518112561
0.1201327338456367 1.131865589519964 0.06798442365373003
1.260737817573272 0.6641641889634325 0.3621516342542573
-0.1316862528467217 -1.341840253134764 0.8076532438574724
1.034414638255036 -1.797262834117479 0.4544164315902173
-0.5188379228215794 -1.836380655489029 0.09549256115716252
-0.8774811197201912 0.6682417948311552 0.6736429532807078
-0.8859383028468379 1.353184489134081 0.2576619167367329
-0.2355720648480406 1.300078337135797 0.06885790099528785
-0.8719404310740941 -0.7633940548382054 0.350176141909158
-0.1361478435347771 0.1886655804608477 0.6507342536798324
-0.8128069223648169 -1.55999095354315 0.4885144009174617
1.133527103954009 -1.686267491060765 0.3392803706670667
0.9249910774184343 2.137867091933036 0.05127589606985679
0.1242704658545913 -0.6286446343267873 1.016582801259172
-0.8728454298275006 1.619522393540529 0.2644895088561614
1.220478739103767 -1.205487120611727 0.1333072766886436
-0.513621466515539 0.8926922114489385 0.06788954370691272
-0.2725556159262396 -1.351323442841717 0.0741618130499998
0.4730524058018744 2.700721673332226 0.683896956939669
-0.8089259704767546 2.320751277263812 0.8388192615622646
-0.8521349053028643 -0.1632060005523928 0.2432535898954785
0.8484308524032257 2.16451193918345 0.961299577479537
-0.262705363991299 1.272138997950684 0.6393200018741112
0.2524027088633382 2.669970818408624 0.967806248154259
-0.8481410545890755 -1.274775166463952 0.4957192698934283
-0.4070699647074701 0.01402676138685385 0.9040315080079295
-0.8255651780728249 -0.9805120128251871 0.01302874823979351
1.254093546426857 -1.034116513036721 0.3469997155792258
1.235723474547745 2.199117199759971 0.7272913452677217
1.260502541603847 -1.034116513036721 0.5036690861194531
1.156613398870808 1.037922338491263 0.7781636478307066
-0.5693013519339529 2.234703211070484 0.9518663239035262
1.079992849541829 1.073824702228019 0.7103715638415151
-0.352003879029861 -0.9411669463185088 0.8756479468295357
0.6752102319764205 0.4623735361316116 0.0678867410169903
-0.4483487541174348 -1.623680885610257 0.08093223571239469
-0.6662106117323611 2.099688409074783 0.03755090263011716
1.260834512028505 -1.033962842670069 0.5659219726789074
-0.3396920980078011 0.05165582325280822 1.112068692758133
-0.6144948989351335 0.1578274877960109 0.06801999590129318
-0.8631355533204803 -0.2822117974291794 0.439224741622118
-0.2466581889964407 0.775961824625871 0.6447331892831116
-0.8782592957232277 -0.8711301526850368 0.6260198003517541
0.9349517867427707 -0.4881890772756273 1.057593242596715
-0.8330179469071285 2.284202563824667 0.4480419210340489
1.271396317114148 -0.8715911637849927 0.5715924086340156
-0.4072020213077914 2.520450227755522 0.9645392891414003
0.9298320136130064 -0.7958274674006144 0.9081834350979336
-0.8150319450900884 2.413507078284729 0.52209914295163
1.255986846135119 1.935609844358663 0.5245203244020071
0.6847226116288729 2.578020928007375 0.3553785637099884
-0.05805251485664293 -1.99841373971735 0.126098090142277
-0.8677723378616526 -0.04046445237054807 0.4401348467587893
0.4115323451110292 1.280817471350444 0.6367444649682242
0.2657119904606586 2.068296177247541 0.9631816162428091
0.6224319207366269 2.271443671629423 0.1036697997445248
-0.3598273696216577 1.55142534739007 0.8736362332939377
0.61617045713199 -1.971317727076719 0.1798160087315338
-0.5674093492696443 -1.506757273419469 0.7058760082245748
1.102620911721459 1.911680800263753 0.9300507058663002
1.195456446217419 0.460570041760184 0.796330044719043
0.840290973423401 2.491800011898373 0.217266794149776
0.2984964750466455 1.465801799593518 0.06775484655204322
1.221409039753765 -1.464436518339173 0.6221624728887876
0.1305717494261455 2.469208237698716 0.9667519887288044
0.2640324488009028 2.377148473172996 0.9661709646737473
0.5684588749683075 2.688774814581683 0.6357381257725723
-0.8521235158932391 -0.656416004670777 0.2499533591559372
-0.399040676404256 0.6803582743200902 0.06788117794961551
-0.5601509728401009 1.43351816129791 0.02169503674173717
1.27471570736579 1.622207377166701 0.7703584585448428
0.2504650463289647 -2.08090666783963 0.3307198310050269
1.25464094234849 1.935850187252389 0.7349177760508794
1.260502541603847 -1.034116513036721 0.5036690861194531
-0.4697887938325945 -1.900188311645405 0.1250817047281132
-0.4107779797025741 0.01342575292885896 1.223179528610873
-0.8759756301487027 1.748733713085372 0.4476019097804951
0.8586681322744112 -1.043008632306278 0.8664629666455308
-0.595428378542098 -1.747272364536897 0.5244468010802688
-0.8692491810559226 1.755176907429078 0.8039185110327612
1.077199879165712 -0.8886753015288252 -0.1073587273106
0.2502484909899648 -2.075415409822912 0.2880508787537204
1.121798454315871 -0.3841457961679163 1.059851937649651
-0.72380509646032 -0.7337982314459227 0.9024940522084791
-0.2472687063389528 -1.261220899718307 0.830167971043602
-0.6614479671694378 0.06500560461589577 0.7759520031722634
0.001712148307752417 2.470651875588799 0.9667519887287904
1.287132816486031 1.150491545072563 0.6694038064842363
1.020541878475064 1.520002249076729 0.8568931335868162
0.9349517867427707 -0.4881890772756273 1.057593242596715
-0.6553907469175252 2.557226891112046 0.6371157484956641
0.7236421669159192 0.3785527854149466 0.6484615725575689
-0.8955974693289397 1.352372710529298 0.7269842705670039
1.156613398870808 1.037922338491263 0.7781636478307066
1.169978111358633 -0.9853078843183004 -0.07974790196387134
1.138367765729912 -1.704219682754544 0.4275802444540094
0.2688166885088211 1.1469959692119 0.6382258231928077
-0.3522030293808025 2.032943574481768 0.9631816162427738
0.09606905215618913 -0.7942527552889169 0.06587435516090731
-0.7739409909399959 -1.093344986390657 -0.05511182047470542
0.918905581073477 -1.194263380691449 -0.02485095440648599
-0.4970092664864071 2.152629165908382 0.06581076415030744
-0.8630667969943617 -1.088158546726477 0.495530977824484
0.2667689944534504 0.1886908683025139 0.6507342536799038
0.5250241095524577 -1.341840253134764 0.8076532438574723
-0.8336267943204969 2.287807707230555 0.7257080017904092
-0.7886107517515243 2.469103568343546 0.514096682822335
-0.8665592563180439 -0.6571020253207289 0.632632965077085
-0.1784404132125091 2.608201695888883 0.9675992011331983
0.5684411226413942 2.710658382034181 0.7610575932881297
-0.2553351440615468 -0.7818141432278194 0.9377457348929148
1.258271424387703 1.81607831098433 0.7962264757921597
1.201339632022639 -0.2851151920864794 0.1288838228171514
1.261187899038911 0.4556042339191198 0.7259652173154971
1.052816208943816 2.49156783971624 0.3000713698206348
0.5402288869174631 -2.046987647748527 0.330719831004987
0.61617045713199 -1.971317727076719 0.1798160087315338
0.1409351478425764 2.669970818408624 0.967806248154259
0.9186553826495354 -1.352414218025215 0.0657753825110728
0.9744177876463112 2.586542665461623 0.9320593432450151
1.237678207369016 1.432812960643306 0.814864464748901
-0.2358478430962072 -2.000004242535304 0.3626744800013141
0.126851073215709 1.938205484108692 0.9695240968369385
-0.2917576215594053 1.120841426267733 0.06798442365372298
1.212952505577546 2.266712156805829 0.2703750029002985
-0.6197940825587993 1.396706922508018 0.03366586008517026
0.5524397938154361 0.684820960780688 0.06788117794961832
-0.8454581043855606 -0.7140142507169769 0.142044754156093
1.231340678364627 2.193755482089585 0.3678910142948436
-0.2781053212817296 1.388431135548936 0.06926972482484649
-0.07971454909613857 2.712755028647431 0.7610575932881477
-0.02435486245238285 0.6867399732282457 0.06788117794962056
0.3683623249919634 -1.934814946363222 0.09233039869872038
0.3571439243058749 -2.039387283649225 0.3626744800013422
-0.8570849677234664 -0.8694928983139003 0.7289064075510849
0.8494887020572848 -1.43953354330833 0.7530199397806094
-0.5128830267486793 -0.6816379114385633 0.06302619451707726
-0.2716973271138961 2.124093345191336 0.07337083671951684
1.26209426106595 1.484381405039981 0.1436291563509493
0.7492822600147101 -1.250709744767796 0.8301679710435993
-0.874509300881995 -0.9264612091777497 0.5052013659785728
-0.273288099193965 -0.9407370163959834 0.06044946135893242
-0.3585436394904061 -1.179787052228791 0.847737463039133
-0.5322237886795178 1.733484911137267 -0.06867214328589544
-0.5647813864104082 1.603106535907038 0.9573757973317604
-0.06489538435266652 2.722567427937383 0.9646200584765211
-0.689990215677911 -1.308303255999884 0.06109588181990723
1.205807251855494 -0.04193024189934473 0.1278476433614634
-0.440792074794732 2.648011089481524 0.6821782851166509
0.4731570753134764 2.64361256823273 0.4986007845847831
0.4876429661902327 2.132228314633167 0.07337083671951711
-0.6949031285328543 2.116271364478554 0.9282539836868919
-0.8699940148935175 -0.9238788467279482 0.6667073550495162
1.14667567312145 -1.563756099522632 0.1182269970265032
0.9045503882710224 1.361908763675834 0.6760612939059392
-0.9002949962035138 1.352270183493944 0.6702310766813829
1.247682549528588 -1.207219536452748 0.6596369497825086
0.2547086187126689 2.726728739957733 0.8600994311827894
-0.5969283634137812 2.618939893886916 0.8926451767203183
1.18697159050448 -1.556688934829132 0.1910964172998509
1.127475145554857 -1.02541980861499 0.8525492201854886
-0.2358478430962072 -2.000004242535304 0.3626744800013141
-0.6866549928361129 1.073824702228019 0.7103715638415151
0.4881410522521583 1.768884308535306 0.0594607525008381
-0.8174176687913601 -0.9142913909071887 0.7854154600162322
-0.4275863633425512 -0.7116512878394488 0.9633596644982692
-0.2517648243090092 0.9922767778074529 0.6418064200341292
0.09648646634297831 -0.7030157588285853 0.06942224698322025
0.3683812487972213 2.690059855911383 0.6357381257726
1.23520369161692 -1.343060593451462 0.4751697087671359
-0.5278233716124507 -1.285766149205481 0.01793125970479492
1.223936002489517 -0.6603178838241522 0.1386852484235522
-0.1283827167281236 2.443083444956641 0.1633546487460324
-0.7498956164347963 2.494652718413005 0.7219461133047725
0.1336683056905675 2.546238949405 0.9672049399255113
-0.5790909210570585 -0.9592398298666696 -0.1118077258707848
0.3550010506357907 -2.08759612946445 0.295877256415751
-0.5364378443105612 1.665309033953786 -0.06267154379222571
-0.5790909210570585 -0.9592398298666696 -0.1118077258707848
-0.8674966553227893 -1.033962842670069 0.5659219726789073
-0.2623849327355216 1.208835721576248 0.6416262198494797
1.2402086227027 -0.9264612091777496 0.1350586848405367
0.5164932975096291 2.379814509812355 0.9661709646737232
0.8341299315004481 2.648011089481524 0.6821782851166509
1.266453279334087 -0.714542694889198 0.578277755005074
-0.5227941692947885 -0.4436326013642864 0.06988442882477888
1.264019574280609 0.07914609142489193 0.516525757640091
0.4874359755815641 -1.326955499564873 0.07164581886101329
-0.2472687063389528 -1.261220899718307 0.830167971043602
1.228219130678637 2.284202563824667 0.594827121755245
1.256473410026196 -0.2822117974291794 0.439224741622118
0.8236614575381434 -0.746851773813016 0.06144595433954347
-0.2511744090926139 -1.124072432750511 0.8594292325786672
-0.595428378542098 -1.747272364536897 0.5244468010802688
0.2900778274002242 -0.6105426921597428 0.07030686406485316
0.8425415609803315 2.458658300432554 0.1850711599083209
-0.5748056665412547 -1.229640260890298 -0.03080272420002877
-0.1590890105956335 0.4631289640564612 0.06788674101699209
-0.8699940148935175 -0.9238788467279482 0.6667073550495162
0.2540125281751149 2.73828313919541 0.9285296580511191
-0.8767378573030666 1.685340619230486 0.3670943544820615
1.072785161812138 1.830637983150197 -0.1052128189215237
1.265075883117251 0.6645141889634326 0.4475623609191968
-0.4344987432845264 2.445665953064708 0.9640863379447037
-0.812469395149778 -0.04193024189934473 0.1278476433614634
-0.549349540525663 1.281336043690141 0.06715853780745892
0.624332182133523 -2.031322550878544 0.3307198310049803
-0.8234681322072068 1.588447522918495 0.868289424624094
-0.1020276725475588 1.501633734199418 0.06588418198619117
-0.2442631026066218 2.044112512861133 0.9631816162427788
-0.6141623381348818 1.422930851943019 0.005205182617562107
1.121681390983581 -0.6268011822790716 0.9540412833536873
0.6426946392749532 -1.189829945020068 0.8477374630391369
-0.404986498789321 0.04800161369177841 0.7405305680200075
0.03962462737478371 -1.995366758455105 0.2643691091221139
0.02342353523002869 2.608668798734247 0.9675992011332372
0.2727662672347594 -0.3236244216577839 0.06919945374720349
1.243014475505537 -0.7632883660037612 0.1398732769551668
0.3984932356861066 -1.485701619300514 0.7530199397806536
1.265203124589283 -0.714542694889198 0.6314574524556236
0.637600959312338 2.044112512861133 0.9631816162427789
0.8856617395677504 -1.039448819614501 0.003739372940291646
-0.5699637092822834 0.3735237878723477 0.665432106348218
0.3879907910543026 2.543647272776541 0.2567206085730955
1.20454850468697 -0.8099127090807501 0.8134897786218234
1.256704149628981 1.01167680178687 0.7784194706346643
-0.5222189931317081 2.641899408630882 0.9289385529720595
0.4721829288215615 -0.6067410332317496 0.07030686406485136
-0.5962700917624302 1.101907956894919 0.6708409043639151
1.145454791030142 2.486361081181694 0.6397870660636009
-0.5796049608869083 1.848114890188348 -0.09933107763580365
-0.722379880156532 0.6692332966506042 0.07554068905476784
-0.8597834592550588 -0.5664765312547744 0.6872521808806908
1.279245794083209 1.620082487385681 0.7239254567496395
1.261149512594397 1.870857394720307 0.5245055673236154
-0.812469395149778 -0.04193024189934473 0.1278476433614634
-0.8669631147243015 0.2172938416425516 0.7260153316708954
1.26209426106595 1.484381405039981 0.1436291563509493
1.146327980137861 0.9017487706506456 0.7771123852013719
0.4970141313649932 1.46131056805887 0.06775484655204303
-0.1349162168251429 -1.197679338978609 0.847737463039144
1.20017091889388 -0.6506325080860053 0.8697900528245699
0.3658066095526541 2.738652095743737 0.9285296580511007
-0.3472936827026844 -1.455478032384763 0.7530199397806116
-0.6577141834849954 -1.58291295637221 0.08576661504418465
0.8161502067190793 1.614030174701047 0.05123316278071816
-0.6232159282633099 -0.6542121749516934 0.9676230736377888
-0.4561508453515688 -1.439533543308331 0.7530199397806094
0.4080414509343546 -0.7389490638206604 0.9633596644983313
0.5316200035763509 1.787478151657543 0.9792195710250115
-0.09386280679496233 2.084113879253089 0.07001771335207141
-0.4087375630292075 0.06303301737597178 1.116363989004912
1.089656313807461 -0.9698430123481132 0.8568135188864454
0.2548826413470574 2.69954839769467 0.6838969569397037
-0.01625143691335363 -0.3767005541352719 1.123147187644292
0.8122414743993501 -1.781959580436483 0.5337388773822083
-0.5631987103475673 2.330605304341076 0.9528427107534758
0.1384588514549508 -1.943942183957163 0.09233039869872085
-0.7173157556297631 -0.1703094592680622 0.07642215222599738
-0.6141623381348818 1.422930851943019 0.005205182617562107
1.243607519952307 1.748733713085372 0.1410837768748142
1.182690914322908 2.085265926064185 0.07020868359288456
0.4916239531116556 1.393647015115528 0.06926972482484686
-0.07558347942428886 2.739109793161667 0.928529658051078
1.245423957969813 2.012522482261463 0.3679661338931582
-0.395723955903623 -0.18589914969581 0.06873378949744984
0.9048904033142675 0.4601783655247381 0.06788674101698906
0.4730656032650535 2.69075927451496 0.6357381257725847
1.220189506646707 2.356994230193769 0.6813555174354706
-0.6978245155514576 1.568606366317344 -0.09243340832040478
-0.1768506311340616 2.611526766293647 0.4189062913058509
0.5806299861492386 1.195445839576215 0.06825648082729696
0.1251126566728622 1.480636935079241 0.7274328713927326
1.250329325800274 -0.976082804815368 0.7115739803303716
0.7995606363473538 2.212989225088357 0.08494745506006773
-0.02359643373458067 -0.06557620945245679 0.06840662492205912
0.1210385725560885 1.057115209411289 0.0679227089439132
-0.6410767815493202 -1.797262834117479 0.4544164315902172
-0.09398759035760265 1.836217837970167 0.06250372267997068
-0.5549241776634591 1.472823125569429 -0.001885179506459296
0.7482229497916102 2.670418532546636 0.6835532225750444
-0.468095389391298 -1.101542521073585 0.8594292325786588
1.257806866519066 -0.9805120128251872 0.3494936098856585
1.138790419468593 2.504456656374567 0.7778308428045045
0.9725215113106186 1.910404709414706 -0.0790018041819423
-0.4024911776868818 -0.3100129469603413 0.0691994537471968
-0.8435581910322236 2.196233085035261 0.6843400969316869
-0.5442482752489324 0.07545464172785313 1.116126215030496
0.6525205345283366 1.365103307975111 0.6505418637496963
-0.1652104933048759 -1.97371631084976 0.4016035399624177
1.083503053409163 -0.8329719073762665 -0.08863011008280854
-0.09239163205773787 -1.925168281568398 0.4541931046954811
-0.08157764325432157 2.588699010569465 0.3553785637099984
-0.4970092664864071 2.152629165908382 0.06581076415030744
-0.3487575181847786 -0.8291505123771432 0.9119223943629293
0.2722992841496279 1.057115209411289 0.0679227089439132
-0.485318108381191 -0.6494937129987324 0.9878558527115606
0.7526693507521282 -1.551259015766922 0.079763388151152
1.277205796421748 1.013581642784143 0.7304281440317515
0.7247113401264063 0.1956980016241251 0.663422559426645
0.4520788205370798 -2.059231283052323 0.3307198310049994
0.3975038032668591 -1.673576322406984 0.0809316353533799
-0.6152279896221531 0.6735547748157551 0.06788117794961526
-0.8671513188828579 -0.7144680312235283 0.6783281550693677
0.6991661418632207 -1.93596742489664 0.2300012278118398
-0.8671074655658929 0.305392076125745 0.7256336187096404
0.7909856784558906 2.326724357114373 0.1283337517336431
0.5441279226992544 -2.015462562446261 0.3626744800013196
-0.1379807457748229 -1.573520854526237 0.07976338815115515
0.5396932505634452 1.368652151451594 0.6480917588359555
0.9402092213197404 2.497459416684185 0.2562079325425248
-0.7215566968247006 0.1601553470191919 0.07570936381502526
-0.8513026472940153 -1.138660178630665 0.7519701183331282
1.18697159050448 -1.556688934829132 0.1910964172998509
0.535427933977649 -1.970365072368662 0.2300361757572347
0.8807321656264109 -1.96627639925825 0.3148090576703123
1.260078275441638 1.081619450647923 0.7758141834579481
1.024050121140787 -1.831928512484076 0.4127946240638034
-0.8578198762517378 0.6641641889634324 0.242604051855476
1.212123612922526 0.8732698510348447 0.1270496673244613
0.656043220697015 1.272138997950684 0.6393200018741112
-0.2518501637286124 0.04384728497354584 1.10884894839539
-0.2568584345526505 1.63453927984808 0.9679197462499306
-0.1589773380488262 0.215879391667331 0.06793480178429004
1.266583546133902 1.810144019182988 0.6561180582447473
0.8758527463148296 -1.908371133172637 0.2842454901560743
-0.8694444856378597 -0.07077458439368314 0.6531806178550066
0.2685054917263384 -0.1830961537831203 1.194185911144802
-0.2814558948867895 0.1528133169871868 0.06801999590129439
1.004526010330896 -0.9594662378467357 0.8678815382730415
-0.6576635366526524 2.417230256088536 0.1904316921700165
-0.3498888593272323 1.365313348920593 0.660343267368274
0.2715774933322816 0.2150367099814626 0.06793480178429398
0.7453417357355771 -0.9411669463185086 0.8756479468295357
1.18697159050448 -1.556688934829132 0.1910964172998509
1.258571321695653 -1.034116513036721 0.4294396446590568
-0.146891030211747 -2.046987647748527 0.330719831004987
1.082275285318645 -1.363294555770881 0.08162353462942167
-0.8710038657524165 0.2209016948277032 0.4451487134146906
0.269067390851311 -0.6286446343267873 1.016582801259172
-0.1050188740547656 1.433621251047965 0.0689257928763857
-0.5111028215338658 1.53779212598256 0.02281004050433497
-0.845689070336843 0.1274777026245723 0.7859407236168243
-0.8617158837069834 -0.5548092436358819 0.4319046764286196
0.8070294513630825 -1.746582046000139 0.08249925731010291
-0.8767947618228592 -0.7633940548382054 0.6299508743853945
-0.09360392993416176 -1.284222875055443 0.06919791844408962
-0.06163959122904825 -2.027544583577054 0.3626744800013297
-0.862767727379303 -0.4164880291305482 0.5111490114326093
1.227772245690255 2.284202563824667 0.5245475234981764
-0.8451346607350513 0.2028624289019452 0.7735433168239725
1.215659161597277 1.934652960126813 0.03977970630528881
-0.542934845444574 -0.5826781591979839 1.01286376986049
-0.2280277986708727 -1.985812860661468 0.2814838233408283
0.941230056103821 2.43908353041995 0.1854328735865548
-0.8862657825354837 1.083191085857862 0.7268492884454356
1.083328072383627 -1.308303255999884 0.06109588181990724
-0.2809384680032551 1.551866191271812 0.06351941468117592
1.056372763298166 2.376206957784702 0.1685944722973813
1.054658883976539 -1.255259531228875 -0.004235491204593796
-0.36417961773281 1.770664850088182 0.9792195710249962
-0.835937043646103 1.965661573128767 0.8427965066026029
-0.8112675237063404 2.333931020229862 0.2757846065308136
0.1251582742718607 -0.002667499239877771 1.221515549432458
-0.3502942820983028 -0.7744474768738632 0.9377457348929039
1.235265145122572 2.195512056354084 0.447958937352291
1.227772245690255 2.284202563824667 0.5245475234981764
-0.8540431381886693 -1.207219536452748 0.5173846668873049
0.6639065304084755 -1.276136726170391 0.06919791844408714
0.9844398224530854 1.808897191848019 0.9608148063245267
1.249645687113157 -1.144747745659699 0.4126166755335667
-0.5296038729903436 1.799148786691893 -0.06562917310676299
-0.5128830267486793 -0.6816379114385633 0.06302619451707726
-0.8289916028943447 2.280704482420899 0.3689560995786064
-0.5370857664467559 -0.8582924885296809 -0.04487330358004289
0.4174923357846106 0.1507249907890128 0.06801999590129833
0.4172725865069547 0.0604260921418484 0.06817223801171335
-0.8616611605457067 -0.1632060005523928 0.359806622480389
0.9566097095691959 1.367735898095619 0.05964000009382547
0.2718199114609757 0.9111522507531751 0.06788954370692012
0.4656979049991835 -1.985584318731648 0.4016035399624263
-0.8859383028468379 1.353184489134081 0.2576619167367329
1.172198461150971 1.876406994597058 -0.0531407256125996
1.154556892822689 2.367488649839056 0.2023404634891041
1.223646918496811 -1.470475810348149 0.4833800783440508
-0.8921921951833519 1.485065548570202 0.7266004702867775
-0.3429139878859596 -1.544400638029307 0.7062999423960347
0.9121757795272953 -1.836380655489029 0.09549256115716252
0.9458833870954595 2.398133000168115 0.1634450771655828
1.198289544892692 -0.1013950439967757 1.041075871699016
1.265203124589283 -0.714542694889198 0.6314574524556236
-0.7077101310907028 -0.6579637086445698 0.05230801368423441
-0.4240169876216379 -0.6004275956313341 1.016582801259043
1.2402086227027 -0.9264612091777496 0.1350586848405367
0.3683623249919634 -1.934814946363222 0.09233039869872038
-0.846870765996984 -0.9264612091777496 0.1350586848405367
-0.8978631593391582 1.252478987635397 0.6694983081815791
0.4731447880441272 2.673040387137874 0.5786582073574587
0.8190951446642906 -0.6883918090727608 0.06814313922807125
0.8172000436775356 -0.8221586870234444 0.05596353109175527
1.264464073863138 -0.9802046720918831 0.5712276481497288
0.816774260076132 2.668572302760641 0.9517032473538112
1.00046815463217 1.24103761617171 0.6695276198796327
-0.0984836608967824 -0.8339695769756781 0.06425399838195026
1.266180442306609 0.3062263164741806 0.6698447661701138
0.8778234019119424 -1.945953709024191 0.292272179512691
-0.8280711830480489 -1.464436518339173 0.6221624728887876
-0.7061371949621251 1.50241864608285 -0.06261137858716859
-0.8988989922579622 1.421824880661674 0.6703627492130911
0.8876645242152326 -0.9829880105570841 0.003260249900848703
0.02496480687490631 2.712165574526503 0.7610575932881698
0.9714456020454361 2.025600004883087 -0.02203593695623429
-0.2491290960840027 2.729504241817311 0.9549617407584001
-0.7924959206568307 1.624160088052767 -0.07658650287301991
-0.8934321121558114 1.421889882701736 0.3663635782936888
-0.3476520465478298 1.130954084414147 0.65106114305782
-0.8742167723444072 1.251568768742427 0.7744118516863224
0.4176697423824556 0.3071141882467476 0.06789709491277036
0.7400304833836193 -1.432655071666467 0.07784399830608837
0.9725722820505651 2.073821983503277 0.01060147234472224
0.1259227199931127 -0.02359099870399899 0.8857277370442451
0.9142245643522932 1.442782625199928 0.04678715575992844
-0.7206525796568013 0.0749427516358198 0.07587018303031497
-0.7893530576171913 2.085265926064184 0.07020868359288454
1.244921626673218 2.101757578719373 0.5954009578298951
1.113990436362517 0.07494275163581979 0.07587018303031497
0.5684411226413942 2.710658382034181 0.7610575932881297
0.1384588514549508 -1.943942183957163 0.09233039869872085
-0.2702669806151307 2.598850004710211 0.9675992011331888
0.9075554360873425 -0.7397144299924801 0.04169456600848462
0.295488190350843 1.774608911295972 0.05946075250083863
0.9373366645978314 2.518750722544599 0.3018226473611496
0.5341272853863184 1.640953345624345 0.9677441414609043
0.885511115281943 2.554976094984138 0.9544509680160425
0.6224319207366269 2.271443671629423 0.1036697997445248
0.9685159360992658 -1.418935494317752 0.7530199397806094
-0.1751210182625914 2.688774814581683 0.6357381257725723
0.4031635851152754 0.5600109174790244 0.6395557496388793
-0.8403911297789436 1.359944827019176 0.8073122425627677
