33.65928451944406 -10.79337565958595 -0.5180466164698483
32.78902295446773 -9.746950898376788 1.808393600866677
34.43996732949152 -6.521468414024293 -0.6307950796015147
34.62103343305213 -6.322821395344776 -0.1469945361945779
34.59190477134288 -12.06300709812342 1.778155036745088
32.53386340409681 -10.97359792270447 -0.435823619451916
34.3630891875645 -12.73775045871635 -0.4147630131734156
32.56162122162102 -12.46949547252925 0.9064683311176618
32.61187222910984 -5.976198971012057 -0.4542067671573715
33.66380796485437 -6.416336933342281 -0.5089628955252292
33.52523570826028 -12.2606526282749 1.836878738011247
34.60602259029815 -12.25456304391 1.369505392842084
33.76291376953789 -10.85794015459972 1.800340021136016
32.52861463241626 -7.434911170134513 1.551418317262671
32.67765891054711 -11.65769976864367 1.839595840275846
33.39105634712177 -12.9411190105933 1.126011539742243
34.54504199461827 -12.30953791825073 -0.4832618659470056
32.50381870663856 -7.549140433472159 1.311347016287973
34.67644445975157 -9.971174973249942 -0.1333243892359472
34.11664265634757 -12.08417585965675 1.850168868587924
34.66130001371533 -10.5322326556875 1.346622637105075
32.78902295446773 -9.746950898376788 1.808393600866677
32.78330333757254 -11.03023365572071 -0.6581172132327087
32.6422978123836 -12.94941750242215 0.618504937820865
33.17651117858846 -5.428724580069055 1.751293087788519
33.14566698615688 -7.440873704304828 -0.5302793385137004
34.63497186687528 -11.13114652276606 1.730367542760212
33.26076572660352 -12.80902769250311 -0.2777963925595778
32.90011301236659 -10.31701343997035 1.806817796622797
32.56499945368304 -6.687483989742187 -0.5901518437730567
34.67901591948224 -7.775288196970918 0.6286651969949506
34.5872189309015 -5.591183181007673 1.05273779949993
34.1685312753655 -11.68911469198229 -0.5478683392423601
34.68237993117771 -9.971211947790311 0.9094201428481823
33.6382858469823 -12.61652751713402 1.727813976671671
34.5472294569906 -5.440516249767204 0.6522238398349821
32.50792284530014 -11.23640479442621 0.07357463651228216
34.63445581245904 -11.77132334427648 1.127721875492151
34.63821718561518 -6.683593398730002 0.8535894054238119
32.97359391703017 -10.99512540371811 -0.528479771939113
33.12242419112969 -9.971174973249946 -0.520465503559258
34.02498475932557 -10.31701343997036 1.806817796622845
32.99964381969912 -6.276285351177682 -0.5082200940083663
33.14728626285456 -11.3609134873114 1.813457788314112
34.336045076199 -5.361139199116299 1.491007355917986
34.28236402808184 -11.08078115380923 -0.5863493616956046
34.11024052614462 -12.2606526282744 1.836878738010901
34.55474443482282 -6.216479653061315 1.773978331187328
34.61895032476457 -6.521789079730564 -0.3295311621743708
32.89740075164388 -11.85751333236536 -0.5803594495002844
33.15548732420824 -6.650044492344803 1.806581348901821
34.10599332059393 -12.43706348294266 1.809994838693144
32.55034902409057 -12.15007727541747 1.368721762307608
34.63322395382107 -11.21620709350711 1.732311393512617
32.54154710550547 -6.901297928417227 -0.470199643653395
32.50121234113213 -10.5322326556875 1.346622637105075
32.93514477476838 -6.172938295624547 1.801461592416719
33.51942800742682 -12.80902769250336 -0.2777963925595899
34.32262510589735 -5.494210150253542 -0.4848505103879031
34.6434731911811 -7.109503992712972 -0.3323530274464401
33.11361075063712 -10.32971208052426 -0.5197616511917632
32.91211684018482 -7.068941937873392 1.80403046343776
32.90701573358396 -12.03239759853791 -0.5155454514999662
33.41178689045458 -5.393755389733192 1.710374339370379
33.15343702904205 -5.361964179575212 0.6599926957735117
34.26090740122724 -10.8579401545996 1.800340021135828
32.79167136974859 -7.398564666127451 1.798275534880482
33.15159280434777 -7.78114645777506 -0.5197223187650605
32.60716299944945 -11.99457717617523 1.83602495324155
32.48476015599802 -10.32971208052426 0.1020094012430256
32.78874998323627 -10.09348813187251 1.808667076798909
32.92654062532371 -5.834016830453752 -0.5012267274608881
32.90258618942465 -12.73810199766805 -0.4143787816150076
34.0221744606859 -7.592617759301291 -0.5226460055953492
33.04990091998766 -5.983102436375667 1.799611790645181
33.15409512424077 -6.527516022836341 -0.5134343571715543
34.60602259029815 -12.25456304391 1.369505392842084
33.76378501451157 -10.31701343997041 1.806817796622982
33.66330924009112 -11.59895316162671 -0.5334626576057278
34.28236402808184 -11.08078115380923 -0.5863493616956046
34.64631141478657 -11.29534092881574 1.582266260826289
34.0214836466048 -7.502265974812479 1.798039316667144
34.6063776016714 -12.21901748289349 -0.04408484825787911
32.6105579614469 -11.50952159432542 -0.7884837336292827
32.85436132623037 -11.32805885852298 -0.7502464412839879
33.75492966212375 -5.711623649097501 -0.5003473463006376
33.52419012098287 -6.371980994085996 1.804992245016467
32.59707199388975 -7.605100243691089 -0.6129776404914754
34.40406430103562 -12.96268944527683 0.9025496081200133
32.55102435032301 -7.72682451045635 1.711533951825746
34.56885276596776 -10.82365517211942 1.784639073385499
33.32297164755188 -7.686158865459577 -0.5197078736048175
32.59763106227576 -7.546074158560968 1.776554559587365
34.47565773317585 -11.86170840762384 1.847126327962093
34.44987518124155 -11.68911469198227 -0.8013356850474124
32.55156561005126 -12.22007745150466 0.6224890226975344
33.83088978619927 -6.9012979284171 -0.5236754514502533
33.88646455992186 -12.30999776259018 -0.5010035382662452
34.2368012254187 -5.361964179575343 0.659992695773497
32.47647079810132 -8.610487319236524 0.3714930456938977
34.31304252614288 -11.23640479442621 -0.7256307760150513
33.75719022685486 -5.361497216224354 0.8615878992411363
33.64368053938743 -12.8947132951525 -0.04506407675938909
34.61950830047054 -12.0004582680201 -0.03869369909673752
34.33769931831462 -5.359828780184941 0.1590231328525728
32.50053054245252 -7.21928451929547 0.8642405685650015
32.87274402071874 -12.94909421525186 0.2753829570911718
32.62783736952757 -12.30771742028138 1.819131441698884
34.6421691791811 -9.297731956528278 1.564809153808162
34.64647816547814 -11.49865852077622 1.125619079818018
33.40555183956646 -5.359828780184458 0.1590231328525885
34.60231954983166 -11.8850014985853 -0.4755491716570247
33.26995670503969 -12.73818988240618 -0.4142827237254289
34.63814044038861 -10.70595077891937 1.576046421430277
33.40016753161387 -7.502265974812291 1.798056851998295
32.89740075164388 -11.85751333236536 -0.5803594495002844
33.04363197186423 -5.495575323295822 -0.4848027154866031
34.03768820410495 -12.80902769250298 -0.2777963925595713
33.15485846610505 -5.361203853739966 1.49112514693096
33.40336990293945 -11.44857661966176 1.829012898771718
32.93124264835835 -6.371980994086525 1.804992245016217
32.67951116600337 -7.510436144511655 1.793818423806065
34.65202081087814 -7.003697702283316 1.068398322190679
34.65772677599728 -11.14729082647209 0.06085506533984196
34.45944483804092 -11.32805885852298 -0.838245511990481
34.67363600030683 -7.549144637309669 0.3654173869639942
33.5233013253369 -5.361378787449009 0.4419582686375496
33.32179627017982 -7.636110062040351 -0.5205356604414887
34.25085462661725 -11.36091348731134 1.813457788314042
32.78330333757254 -11.03023365572071 -0.6581172132327087
34.00464078724184 -5.380358154626577 -0.3658819075350051
34.24605812346244 -8.050437774369973 -0.5205266260385446
34.66390160918737 -10.8004603509282 -0.1608423821771775
33.63918908966933 -5.360561873693823 1.058308994255774
32.5289723474869 -11.7836663965431 0.2836958320955317
34.00405235969977 -12.41653695299096 -0.498985836212569
34.30415143066529 -6.702068942589059 -0.6815730517501443
34.00321677103382 -11.95328456964912 1.852146702481093
33.29087033197089 -12.26065262827463 1.836878738011059
33.52349644839377 -5.361203853739308 1.491125146931115
33.49870833399545 -7.109503992712822 -0.5375940871793098
33.32741673539671 -11.15028921623247 -0.5289554305592534
32.49896902407784 -7.332407304979427 1.078009519039975
34.60448314821134 -12.32695726036882 0.6223761136852031
33.03070310313638 -8.050437774369954 -0.5205266260385495
34.61200153818067 -7.629840892306239 -0.5510452722419102
33.97527196936015 -8.050437774369925 -0.5205266260385577
34.63437747970907 -11.72251348457866 1.363326748973906
32.47787472028961 -8.610487319236523 0.1005278758831573
34.22949604815645 -5.380458337902624 -0.3660264940538603
34.41069163004077 -12.62498295160353 -0.4886105822547117
34.57297125957649 -12.37356875481785 1.762806070494064
32.51191581795066 -11.23640479442622 -0.04372302777403208
34.1685312753655 -11.68911469198229 -0.5478683392423601
33.52330390087906 -5.361964179574694 0.6599926957735705
34.65590262439353 -11.0216443583037 1.346310951062601
32.57252630458977 -5.733095905541568 1.518169234175128
33.6438896259736 -12.94111901059341 1.126011539742281
33.90687928498403 -12.96268944527706 0.6184759757607394
33.64018920129183 -7.068941937872946 1.80403046343803
32.85812701882718 -6.276680857858974 -0.526029171114753
32.99182099016274 -11.92463453442566 -0.524439637452718
34.22623552019579 -5.421977864075038 -0.4542438765817745
33.3311972655967 -11.41934543252924 -0.5352036426224007
33.63605844562733 -5.483311821135116 1.779363506700288
32.86152856078025 -11.59895316162664 -0.7478969182793893
32.52805654238841 -11.77132334427648 1.127721875492151
34.58648877248707 -5.84811329952085 -0.3412821807058516
32.54418898671914 -11.51022453103625 -0.3909483977248482
33.295436543359 -5.568735595414634 1.793811256111614
32.52433985195402 -6.683593398730002 0.6253476641518984
33.03709921630683 -12.68785091627475 -0.4711626227099672
33.52390460238145 -5.380358154626066 -0.3658819075350426
32.51007896142006 -7.003741534017456 0.365526197492702
32.83401124439143 -5.380859071006294 -0.3666048401293194
32.61986881774102 -5.839436425065245 -0.4553728143777174
33.66380796485437 -6.416336933342281 -0.5089628955252292
32.52014197485073 -11.23640479442621 -0.1859349057640111
34.43421570876112 -12.60560739218963 1.72977954965971
34.02355979279513 -9.746950898376793 1.808574852166333
32.5601928050158 -11.8850014985853 -0.4755491716570248
34.26035180242864 -9.147735030741011 1.803734020598969
34.39737185091217 -12.89471329515197 -0.04506407675940491
33.15331234463457 -11.97620140022905 -0.5110990111525803
34.47950030515778 -6.759378719128129 1.802549759272447
34.6604650390936 -11.06578920500756 0.04178104215810745
34.56439949692285 -12.10645589197027 -0.4845988576455018
34.63877538717886 -11.32805885852298 -0.1724901609480924
32.5328816180586 -11.23640479442621 -0.3908675152583389
33.75639723620466 -6.650044492344533 1.806581348901963
32.55267127446918 -5.976336035833844 1.043524682974985
33.4053305285392 -5.359531169779054 1.270753660513046
34.68252458591093 -8.051164913768394 0.8665631027463501
34.50478480802176 -11.11816883424806 1.797209092362465
33.52237618362273 -12.30999776259024 -0.5010035382662583
34.61327885907878 -10.57091632185377 -0.4610809374656205
33.75415280956945 -5.495575323295299 -0.4848027154866605
32.66892897001795 -12.47504795289684 1.794345471028276
33.41250394514382 -12.43706348294312 1.809994838693442
34.65301550702615 -11.2780393368413 1.34940221547709
32.69029072686445 -11.14980829264349 -0.7604811558407301
34.01931641631458 -11.11046135186032 1.799906438919408
32.54582920047695 -7.219312442697777 -0.6341084092941656
34.33769931831462 -5.359828780184941 0.1590231328525728
33.38841395344274 -10.32971208052427 -0.5197616511917758
34.67916185321717 -10.32971208052426 0.3776587154554112
34.13991346247829 -11.19417450310282 1.800163711946811
32.92319577755603 -11.7558337838095 1.846042574248384
32.55884898844801 -6.901297928417226 -0.6267521645022272
33.40409187596798 -11.5453595418879 1.839101843314048
34.33194615962865 -10.93810934188782 -0.5451731379877537
32.8437116916004 -12.53019734199825 -0.4966728143836638
34.57331278483753 -5.586831274923374 -0.3543278695216787
32.63359859872633 -5.429897119983542 1.65365593913684
32.67438740044243 -5.426282366419483 1.721154186270834
34.37232562089668 -7.502265974812543 1.797793779192262
33.88165567552935 -5.361964179575033 0.6599926957735323
32.99297065217501 -6.799995352071708 -0.53744896447036
34.1078464131227 -5.822401398691408 1.799751337741562
32.54903033292469 -12.66928955111726 0.9049527434078961
34.512385402188 -7.675585735754325 -0.5442142150955246
32.83988724895012 -5.494210150253543 -0.484850510387903
33.49914380773491 -11.77747823500399 -0.5251951095735519
34.44893380703422 -5.370066320683631 0.1572654691989757
32.55703312447603 -12.32695726036882 0.9072460350713314
32.56458958279066 -11.59923433631098 -0.6129542075770565
33.39013678096447 -12.96268944527721 0.9025496081201246
32.90357864981709 -11.02572326611549 1.799720769910992
33.34430646836856 -10.79337565958594 -0.5180466164698437
33.02616287701418 -11.36091348731135 1.813457788314056
33.49666228928842 -7.529281153761509 -0.5260174222171097
32.56648948195826 -12.2921331670515 1.615144102536495
32.78901989553017 -7.6257629552628 1.796888561585707
34.40204970823191 -7.781064460730428 -0.5240124727681459
34.00893237338906 -5.359531169779482 1.27075366051296
32.58999222122546 -5.686071970707513 1.689879938356794
32.53612164167836 -11.38282685932394 1.749353324060499
34.47697359864595 -10.54274017733484 1.800527704225006
33.51843782886565 -12.96268944527732 0.6184759757607934
32.49626241556632 -8.052509878060803 1.30760824238679
34.33868827366152 -5.361497216224862 0.8615878992410651
34.30190836464539 -11.50952159432542 -0.762444961791399
34.57252013362201 -5.686071970707513 1.689879938356794
33.0427422545725 -12.61652751713343 1.727813976671335
34.64002178727476 -10.25520506625175 1.576131546023039
34.37348940037973 -9.746950898376788 1.808393600866677
32.55156561005126 -12.22007745150466 0.6224890226975344
34.44509857475367 -5.373005893623795 -0.1522955303709681
33.82471106209397 -12.03239759853798 -0.5069383824934168
33.90174662824395 -12.80902769250311 -0.2777963925595778
34.48451457754854 -9.155453126992352 1.79885071707995
33.14037323607904 -7.686158865459616 -0.5197078736048082
34.30155538198268 -11.77751478478023 -0.68954537511402
32.6083435678915 -6.799995352071741 -0.7405307877907341
32.53079624392512 -11.6919264388256 -0.1162495401847904
34.47697359864595 -10.54274017733484 1.800527704225006
32.92593017467019 -5.36056187369449 1.058308994255662
34.35387083763121 -6.533720010146853 1.806767397704228
34.01194354443287 -11.54535954188769 1.839101843313826
32.51486146586269 -11.41948601987136 0.07898229415365067
34.41174319262095 -12.54456944507235 1.781221912859544
34.22470174893056 -5.495302288687389 -0.4848122744668606
33.76298557527299 -9.147735030740995 1.805656506757788
34.61479486724377 -11.60035903504831 -0.4012697313055306
32.51169792367158 -10.96881299988014 -0.293119427587301
33.02752518244482 -6.959218671677554 1.808012550359262
32.9918424850995 -11.4193454325292 -0.5559376058874832
33.64092545975155 -10.94065009014049 1.799870691437872
34.67110168875993 -7.65227381163897 -0.1497572827068519
33.29218457980387 -5.822401398691118 1.799751337741677
34.58733376606831 -5.592517010196903 0.638146646884487
33.27458137989669 -11.19417450310292 1.800163711946939
33.40794459745628 -5.42193629505129 -0.4541031617276672
33.41004533002505 -12.62316042183489 -0.49024646100328
33.63889978357456 -5.362724050777273 -0.1519948586573277
32.60985925173488 -6.580952722111237 -0.6501656835195506
33.4053305285392 -5.359531169779054 1.270753660513046
33.41483739714234 -5.483311821135246 1.779363506700243
32.67337533438245 -11.55297424763595 1.83629708730292
32.5289723474869 -11.7836663965431 0.2836958320955317
34.5583836222742 -7.225729255351158 1.777787034789701
33.14728626285456 -11.3609134873114 1.813457788314112
34.6684329489286 -7.549034483277252 -0.1489996777009957
34.59344978661142 -5.745488760427981 0.10171917516846
32.67438740044243 -5.426282366419483 1.721154186270834
34.63639591044634 -11.06490757024991 -0.4140561012583662
32.56162122162102 -12.46949547252925 0.9064683311176618
32.80560485399117 -7.003741534017456 -0.8470202677748893
33.38244575331377 -5.972068647649462 -0.5022648844094316
34.40406430103562 -12.96268944527683 0.9025496081200133
32.67951116600337 -7.510436144511655 1.793818423806065
32.49203873085871 -7.444844266922839 0.6286147186390064
32.55247317755941 -5.976425855524672 0.6234830651675288
33.83462166157847 -7.332443336519208 -0.5345904148735438
33.28085667931812 -5.361964179575032 0.6599926957735323
34.46358887911526 -12.70977960512213 1.583169151910794
34.01374247439541 -7.332443336519251 -0.5345904148735353
34.2368012254187 -5.361964179575343 0.659992695773497
33.65057054205489 -10.56556815791414 -0.5187517925021288
34.62945027661909 -6.799995352071742 -0.3307534060404089
34.33811699344332 -7.781130058366181 -0.5227850064335929
34.00895279516283 -5.361497216224731 0.8615878992410835
33.33183633964435 -11.50952159432547 -0.5343401402027119
33.13790849703996 -10.09348813187252 1.808667076798957
32.64370685412074 -11.93960876475055 -0.6199428751425449
34.26142063374212 -10.78230027655104 1.800832407762938
32.52222127135939 -9.904350144482851 1.574489133285594
33.52120110667434 -12.73818988240639 -0.4142827237254543
33.03036160162084 -11.54535954188763 1.839101843313765
32.74274987315344 -5.428396679227288 -0.4547466068987539
32.69778450804596 -6.132091082146298 -0.5025245341495367
34.35218365452181 -11.50952159432542 -0.8454002443573681
33.03572785418561 -11.75583378380952 1.846042574248397
33.75665591852298 -5.361203853739486 1.491125146931073
32.54552269829181 -10.33078171331219 -0.4647500799945275
33.12242419112969 -9.971174973249946 -0.520465503559258
32.68301204968969 -6.759378719128129 1.802549759272447
33.15562122201751 -11.77747823500395 -0.5251951095735421
32.99180180564223 -12.89471329515199 -0.04506407675940428
34.3593986410563 -11.32805885852298 -0.8282301268637884
33.66360433603203 -11.92463453442573 -0.5156334770230706
33.01616637820091 -9.147735030741009 1.804782698857943
34.3389389418919 -5.361378787449651 0.441958268637499
32.59689760421136 -6.89721175524294 1.782317765936051
32.5050922456666 -7.109496433286799 0.6275515229728591
33.5212024115887 -10.69123254702086 1.801679135603197
33.52114881293006 -10.31701343997042 1.806817796623033
34.22736758007908 -6.172938295624547 1.801461592416719
32.5531981304641 -12.05671950145542 1.615009694915456
33.0530979318216 -12.54785783967394 1.781488587195645
32.64598555251622 -9.3434073083529 -0.5143452947705798
32.52353906417729 -7.003741534017454 -0.3318398899154489
34.47043653259215 -6.380104823399226 1.799909855283717
33.76201005728969 -7.398564666127156 1.798275534880685
34.37232562089668 -7.502265974812543 1.797793779192262
34.00893237338906 -5.359531169779482 1.27075366051296
32.68579210264571 -11.07837653586453 -0.7112762853956284
34.36327452695859 -11.6500269816928 1.842530161563949
32.52002448353004 -10.95930293012028 1.577592135870829
34.61375505796111 -11.23640479442621 -0.6003954881581932
34.48504439413577 -7.632124776628778 -0.5910929496532974
34.66766707335611 -9.327504091465343 1.335140001621473
32.78138882343745 -10.94065009014032 1.799870691437617
34.11977010027496 -12.61652751713343 1.727813976671335
33.02434708248768 -11.27720224803475 1.802952735341187
33.89849575793001 -12.85483727185745 1.352263747624156
33.66345548952281 -6.702108587202137 -0.5201878401354758
33.52348366925095 -11.75583378380986 1.846042574248706
33.03364393072255 -6.751243259374144 1.807459046190331
33.88186780350145 -6.751243259373945 1.807459046190439
32.49848758273208 -7.769244216083358 -0.3426157610327038
34.01931641631458 -11.11046135186032 1.799906438919408
32.57859660453369 -7.442747612458454 -0.7100257899171369
34.26142063374212 -10.78230027655104 1.800832407762938
33.50634523535393 -6.123501127569314 -0.5043237577483581
34.04499796610298 -12.96268944527693 0.6184759757607106
34.57331278483753 -5.586831274923374 -0.3543278695216787
34.12556731785024 -5.362724050777848 -0.1519948586573136
32.55371161684519 -7.059952664689918 1.711356261048824
32.52386199558163 -11.63025993080762 1.362527588003214
33.63789170334515 -12.52922908413954 -0.4966948255315331
34.60547923037144 -12.32695726036882 0.9072460350713315
32.52967411397498 -6.521789079730564 0.8514520299467574
33.04152406538935 -11.95328456964906 1.852146702481039
34.67324995780638 -7.774034320996652 -0.1505986317655501
34.62395872169039 -11.06612253693722 -0.5671097781995534
34.61505177640365 -6.750608896886496 1.709182948161871
32.82815269740429 -5.36282423405379 -0.1521394451761778
34.61109211478842 -6.634236687953377 1.707885221464766
34.47575361585688 -6.967363528000893 1.803101461293031
33.28095705545671 -5.36056187369417 1.058308994255715
34.47207145615138 -10.99807500037485 -0.6130977247221614
32.51325734852568 -7.109429538110762 1.301077645005237
33.52207677348714 -7.18200196530082 1.800581465046084
33.52348366925095 -11.75583378380986 1.846042574248706
33.74774902230175 -5.428724580068703 1.75129308778863
32.52429516923228 -6.683593398730002 0.853589405423812
34.24267876098291 -11.65002698169279 1.842530161563949
33.83462166157847 -7.332443336519208 -0.5345904148735438
32.71331591221506 -11.86089219497291 -0.7051515274677555
34.60617826115789 -12.63527425436482 -0.04705154831209697
34.65756657634618 -7.10947375500828 0.8624588178283525
32.84791615529311 -12.62410995623131 -0.4903189355201696
34.68227372445772 -8.050437774369977 0.3657343859089079
32.82646727864847 -5.361139199116299 1.491007355917986
34.35238864318885 -11.92538254412829 -0.6473792221480709
32.75340165463514 -5.426808473141994 1.744316976340604
33.99666777670853 -5.983102436375566 1.799611790645224
33.0008452067121 -12.21668555194893 -0.5025549327508794
34.60074807243876 -11.50966218166758 -0.6190118385951164
34.24445107033485 -6.853565079723592 1.809126853349935
32.51979173249924 -11.58763178985813 1.126599215346899
34.44987518124155 -11.68911469198227 -0.8013356850474124
34.23661347235462 -5.361497216224862 0.8615878992410649
32.82386024725851 -5.359531169779631 1.27075366051293
33.75719022685486 -5.361497216224354 0.8615878992411363
33.88793097495078 -11.19417450310292 1.800163711946939
34.29184529964268 -12.96268944527683 0.6184759757606895
34.00658371092086 -11.59895316162667 -0.5334626576057183
34.54699123462442 -5.439106325963885 1.056510872367012
32.9116577282302 -11.36091348731134 1.813457788314042
33.6636629578588 -6.527516022836237 -0.5134343571715696
32.68087189196116 -7.441461329085132 -0.7575993298693634
32.50478557885018 -11.14729082647209 0.06085506533984195
33.27348620998203 -7.294338643813881 1.798944289881582
33.33101040591707 -6.527516022836281 -0.5134343571715633
34.67979314932583 -9.3434073083529 -0.1364183859077344
34.1283252694148 -5.361497216224836 0.8615878992410687
33.81208430443631 -8.050437774369891 -0.520526626038567
34.60074807243876 -11.50966218166758 -0.6190118385951164
32.61527268895167 -6.026624399459028 1.771536161581429
32.87276480908074 -10.99512540371811 -0.5503544556495215
32.5435620300829 -6.521789079730564 -0.329531162174371
33.92647874083763 -8.610487319236492 -0.5214900325904601
34.1433125914713 -7.398564666127435 1.798275534880492
34.5346749853199 -12.30771742028138 1.819131441698883
33.77237557388303 -12.96268944527721 0.9025496081201246
33.52532319418383 -12.54785783967455 1.781488587196025
32.59620293818898 -7.669598080216508 1.775258908549729
34.61003917728804 -5.976425855524672 0.6234830651675288
32.90952342476939 -7.182001965301262 1.800581465045804
34.35757512380404 -12.03162416991296 -0.5344542256806601
34.5952287280731 -5.744516164616671 1.048061259488622
34.26239934248086 -10.31701343997035 1.806817796622797
34.58395539599104 -11.40158232540249 1.805572325152191
32.83401124439143 -5.380859071006294 -0.3666048401293194
33.64389091559505 -12.94909421525238 0.2753829570912324
34.57979526162566 -11.07260142583701 -0.6699456511319097
32.99399946703476 -11.59895316162666 -0.5529540127319198
32.51989918253972 -6.901297928417227 -0.1474710604392477
34.26643319644828 -11.92463453442565 -0.5596678157305333
33.05819629623262 -5.684180625659915 1.799060879046392
33.98600117625901 -5.428724580069056 1.751293087788519
34.24748795664035 -6.95921867167757 1.808012550359251
34.24578978529573 -11.54535954188761 1.839101843313749
32.53866263635621 -11.9873994754394 1.130372758935148
33.49856950832469 -11.32805885852303 -0.5358121806103265
32.50444922881206 -10.76112083745355 1.345008822363442
33.28768214416537 -12.52922908413943 -0.49669482553151
32.53906055440662 -11.6919264388256 -0.2562245522508271
32.50099508279597 -11.05696023566679 1.120727102049418
32.92568199538943 -5.361378787449651 0.441958268637499
34.6631155016006 -7.775980395579446 1.309661582595417
34.30718330421881 -5.427245299044155 1.750437465075864
34.37604629901149 -8.449872847560197 1.795625354171946
32.6577275468257 -11.11816883424806 1.797209092362465
32.86060399020208 -11.50952159432542 -0.7624449617913991
32.55156561005126 -12.22007745150466 0.6224890226975344
32.53306197063326 -11.82463491984678 1.364105192431975
34.59117335916824 -12.47174962029241 1.606090797728994
32.55077337218215 -6.683780477809414 -0.461429218538184
32.77847774619852 -10.9953191753435 -0.6057664397236624
34.02309020568672 -7.90275441765751 1.798149338223836
32.47607258144387 -8.610740821944603 0.6372930129152625
34.59509988857821 -12.31519752830719 -0.2793479521487237
34.58679210366518 -12.3105573445074 -0.4220818241917268
34.62273999728583 -11.46648936826735 1.758771192484995
33.63706298781528 -5.393755389733038 1.710374339370422
32.87766510541312 -10.93804529267845 -0.5311682475622555
33.17679105235084 -10.79337565958593 -0.5180466164698375
34.67364107510589 -10.32994486799974 -0.1381970137579305
34.30018920562886 -10.56556815791411 -0.5187517925021077
34.21282654032272 -5.393646622662803 1.710228736536557
32.52466313150747 -6.683593398730003 1.057144368916181
34.12297829427205 -6.533720010146833 1.806767397704238
34.1078464131227 -5.822401398691408 1.799751337741562
33.40336990293945 -11.44857661966176 1.829012898771718
32.97165262437329 -7.592617759301328 -0.5302032283179473
34.5896791190894 -12.43592288071301 -0.2806445995235032
33.83954070729561 -7.686158865459575 -0.5197078736048175
34.61178857459365 -12.22007745150466 0.9070845837574502
34.32509243854634 -12.61707771642194 1.727530038079538
33.27449578247983 -7.182001965301049 1.800581465045939
33.66380402085208 -7.109503992712822 -0.5375940871793099
33.0928249356573 -8.610487319236508 -0.5214900325904524
33.89149642926437 -7.90275441765745 1.798403899421325
32.5011234420349 -7.219312442697776 0.3654801606690915
34.63617008572188 -11.69052056540394 0.03531279174940154
34.41801573531755 -5.492901990083889 -0.4816383829800577
33.4053305285392 -5.359531169779054 1.270753660513046
34.63873447074457 -11.68911469198227 0.6180251279644292
34.66803135083749 -10.79929641355076 0.04046300799699623
32.88896195809127 -12.85483727185718 1.352263747624046
32.87766510541312 -10.93804529267845 -0.5311682475622555
33.89036836021064 -7.502265974812389 1.798056851998225
33.1545612545032 -7.003741534017381 -0.5321098756169034
34.25452114328535 -10.79337565958591 -0.5203520813823008
34.65010396578358 -11.40892332804056 1.124477475037962
33.75933265381103 -6.959218671677226 1.808012550359453
34.47536639036841 -7.077091784967523 1.7994267224003
33.64131194509157 -10.09348813187257 1.808667076799145
33.15331234463457 -11.97620140022905 -0.5110990111525803
32.4961932016455 -7.332424093652232 0.8656701375147669
32.5011234420349 -7.219312442697776 0.3654801606690915
34.00765388874242 -5.361203853739967 1.49112514693096
32.55548168537835 -11.7836506874903 -0.4532179259664583
33.40492127337191 -11.65002698169307 1.842530161564215
32.51970107296187 -11.38070545531921 1.589086870837063
33.03364393072255 -6.751243259374144 1.807459046190331
32.52374128454437 -11.67734373974734 1.1272172662221
32.59707199388975 -7.605100243691089 -0.6129776404914754
33.88165567552935 -5.361964179575033 0.6599926957735323
33.66380402085208 -7.109503992712822 -0.5375940871793099
34.26441849354016 -11.50952159432542 -0.6380182832999035
32.56458958279066 -11.59923433631098 -0.6129542075770565
32.60474730790977 -12.63544216711507 1.591540532324635
33.83956141181757 -7.59261775930125 -0.522646005595358
32.98981528673508 -12.94909421525188 0.2753829570911742
34.44919644263241 -11.86089219497291 -0.7051515274677556
32.90357864981709 -11.02572326611549 1.799720769910992
33.39872676542931 -10.53503433100317 1.803839124466766
33.5157872311587 -5.972068647649392 -0.5022648844094407
34.63784922334 -6.683593398730002 1.05714436891618
33.27068619809845 -9.746950898376804 1.808587796428935
34.43421570876112 -12.60560739218963 1.72977954965971
32.6105579614469 -11.50952159432542 -0.7884837336292827
33.66529144202001 -11.08078115380928 -0.5260351326729077
33.6438896259736 -12.94111901059341 1.126011539742281
33.89254888569701 -10.69123254702079 1.801679135603071
34.00464078724184 -5.380358154626577 -0.3658819075350051
33.51775257968251 -10.32971208052428 -0.5197616511917804
32.8661590526112 -7.636110062040449 -0.5414677819004607
32.55051081666679 -7.629840892306241 -0.5510452722419104
34.15654053425329 -12.03239759853793 -0.508659658041665
33.76291376953789 -10.85794015459972 1.800340021136016
32.50560434490676 -11.23640479442621 0.6178186195440097
33.49897466156863 -6.614365022091949 -0.5185677401052936
33.16315763302665 -12.52922908413937 -0.4966948255314976
34.44987518124155 -11.68911469198227 -0.8013356850474124
32.53615474206759 -11.73964670995912 1.608561242420746
33.87032777504361 -5.822401398691118 1.799751337741677
32.91502439820711 -6.95921867167757 1.808012550359252
32.54360982278357 -11.14735749285802 -0.5852139809473438
34.00765388874242 -5.361203853739967 1.49112514693096
34.47886188208447 -10.69894312501183 1.798558819720278
34.30130585473276 -12.03224291281292 -0.5262135067346068
33.87032777504361 -5.822401398691118 1.799751337741677
34.29276283279791 -7.592617759301349 -0.5604351541934217
33.13836690672886 -7.636110062040391 -0.5205356604414797
34.357494301675 -6.650044492344899 1.806581348901771
32.58221323631557 -11.4892000341856 1.817070983240314
32.92571112942878 -5.361964179575343 0.6599926957734967
33.83193031680739 -7.109503992712855 -0.5375940871793041
32.64502552476047 -7.77329695148204 -0.5167255481182785
34.5654403609577 -7.605100243691087 -0.6129776404914753
32.61916955287263 -5.436234216223344 1.498073770281617
32.56777522159592 -11.06709203258584 1.78445000555935
34.16997561114522 -9.343407308352902 -0.5213176932678202
32.78902295446773 -9.746950898376788 1.808393600866677
33.37076831996781 -10.56556815791414 -0.5187517925021242
34.64600245499678 -11.50966218166758 0.2979783642886534
33.66417555748001 -7.219312442697631 -0.5376385438663665
32.78330333757254 -11.03023365572071 -0.6581172132327087
32.48287432789607 -10.32971208052426 0.6583190053191232
33.63763648956542 -12.62316042183495 -0.4902464610032919
34.56604219856911 -11.7971310130265 1.830208961889144
32.54607233280049 -6.799995352071742 -0.466353949978407
32.63467079630901 -5.618988578295866 1.764189203735164
34.61001279714755 -7.603301625006576 1.713185270855779
32.54154710550547 -6.901297928417227 -0.470199643653395
32.55566627457229 -6.522724475127621 -0.4552947290447298
34.25893370503037 -11.02572326611549 1.799720769910992
34.61894142998585 -6.312820386426255 1.526791213369518
34.61700500167413 -12.11438289627384 0.6213500100258794
32.54154710550547 -6.901297928417227 -0.470199643653395
32.85488780127108 -6.416692795410485 -0.5568748806053773
34.37604629901149 -8.449872847560197 1.795625354171946
34.35111447318887 -12.72100362203442 1.581837249042059
32.76338505690045 -8.610487319236524 -0.5214900325904466
34.54334280197482 -5.436234216223344 1.498073770281617
32.57257355113059 -10.98201556811267 1.784402718541806
32.92440878299276 -6.650044492344898 1.806581348901771
33.49893932160592 -7.003741534017299 -0.5321098756169171
32.70749018440092 -6.901297928417228 -0.8343780355098003
32.55696430265622 -7.395264133725156 1.713876987801543
34.67775219884944 -10.32971208052426 0.1020094012430255
34.59368375831992 -11.15178862131937 1.78544335455893
34.60420588047655 -6.13623382800076 -0.3365856564504968
32.49203873085871 -7.444844266922839 0.6286147186390064
33.83043537322268 -11.68911469198233 -0.5304059845056235
34.61111621360072 -11.69052056540394 -0.4235280105191301
33.65057054205489 -10.56556815791414 -0.5187517925021288
34.62811761163333 -11.88777932081892 0.278647038504146
32.50660973045392 -11.0216443583037 1.346310951062601
34.29635330223626 -7.636110062040449 -0.5414677819004609
33.83814356811441 -7.529281153761539 -0.5260174222171034
33.22196053645541 -10.56556815791413 -0.5187517925021179
32.52477995085819 -6.683593398730004 0.3656020308554874
33.04313742961427 -5.597416130778686 -0.4969515125816297
32.61527268895167 -6.026624399459028 1.771536161581429
33.52611660968253 -5.568735595414305 1.793811256111734
32.57543569219016 -5.592428171012695 0.3952815553766884
34.49611021182703 -11.36849817309924 1.811987159616938
34.63437747970907 -11.72251348457866 1.363326748973906
34.54172385398572 -5.440493767577275 -0.1519408682027323
34.11664265634757 -12.08417585965675 1.850168868587924
33.52191664527923 -11.11046135186049 1.799906438919632
34.64790149175353 -7.219312442697778 -0.3328578391991122
33.87706676553667 -5.371248591176309 1.640419944933706
34.1126114348598 -5.983102436375667 1.799611790645181
32.55408073959077 -12.11380907763636 -0.2751676325872969
34.37604629901149 -8.449872847560197 1.795625354171946
32.6752885968081 -8.457885482387276 1.791212614653433
33.07533433688397 -10.56556815791412 -0.5187517925021121
33.64116555581175 -8.449872847560076 1.800951083758803
34.03305842083974 -12.85483727185729 1.352263747624092
34.66489312227724 -7.444824370208015 -0.1486470340734337
34.12556731785024 -5.362724050777848 -0.1519948586573136
32.87637043616265 -11.03080197861885 -0.5696133051292787
33.17669123002001 -5.483311821135593 1.779363506700123
33.88719916729966 -5.834016830453569 -0.5012267274609111
32.8612065001147 -12.03224291281292 -0.5262135067346068
34.60892943469622 -11.75798030954442 1.769842168197894
32.68714596447905 -7.077091784967523 1.7994267224003
34.17714647745092 -7.781146457775095 -0.5199978658310063
32.79746034386098 -11.23640479442621 -0.7954965586892646
32.49861074566009 -10.8004603509282 -0.1608423821771775
34.67642157132823 -10.32378535215883 1.124765875939235
32.5174530226123 -6.901271210709894 1.293467451098593
32.93781060591691 -5.495302288687389 -0.4848122744668606
33.34430646836856 -10.79337565958594 -0.5180466164698437
34.34385193609715 -12.21668555194892 -0.5025549327508784
32.91672256955172 -11.54535954188761 1.839101843313749
34.59190477134288 -12.06300709812342 1.778155036745088
34.53146592705689 -5.587706078953917 -0.4592822131551779
34.00737228956581 -6.901297928417149 -0.5236754514502453
33.76155850689676 -7.294338643813753 1.798944289881667
34.49286652831199 -11.45615283401278 1.826785746945585
34.60247232539058 -12.32589729175765 0.2769134389102869
34.32732151553698 -11.03068831403922 -0.6229137675175429
32.61528289785687 -5.440516249767203 0.6522238398349822
34.13439573724446 -11.44857661966149 1.829012898771429
33.15485846610505 -5.361203853739966 1.49112514693096
32.79180301403645 -11.15016274181092 -0.752981384737656
34.64631141478657 -11.29534092881574 1.582266260826289
33.86707581148846 -5.568735595414634 1.793811256111614
34.35218365452181 -11.50952159432542 -0.8454002443573681
34.61700500167413 -12.11438289627384 0.6213500100258794
33.89146210223204 -9.147735030741 1.805656506757718
34.65504456217789 -11.18843826602739 1.34853242927577
34.65460170695317 -10.80511610043798 -0.3251476041331884
33.75454943370077 -6.371980994086109 1.804992245016412
34.66509124210674 -10.9676490625027 0.2950264174706081
33.40670435637271 -11.85400404704057 1.850115203426592
34.68239912094281 -9.971184216885034 0.6614432649435078
34.01631546389278 -7.068941937873303 1.804030463437815
34.64275768610017 -11.59895316162664 0.9016827561941763
34.60586559822911 -12.31247841707706 1.132958497839283
34.21181621410338 -12.11894565777639 -0.5054464550993414
34.35238864318885 -11.92538254412829 -0.6473792221480709
34.6488740852373 -11.20864515668091 1.580009702759478
33.6614266958148 -12.032397598538 -0.5069383824934213
34.59509988857821 -12.31519752830719 -0.2793479521487237
32.82646649627119 -7.592760767085762 -0.6056575787140979
33.52130345030392 -10.78230027655118 1.800832407763175
34.6149973102977 -11.95616946036201 1.612510853278925
33.88801657236765 -7.182001965301051 1.800581465045939
33.28178852068677 -11.75583378380967 1.846042574248539
33.28387793687299 -6.533720010146618 1.806767397704346
34.19085973047417 -7.592617759301327 -0.5302032283179472
32.51486146586269 -11.41948601987136 0.07898229415365067
34.63439531752662 -7.219312442697778 -0.473625641483828
33.83462166157847 -7.332443336519208 -0.5345904148735438
32.83988724895012 -5.494210150253543 -0.484850510387903
34.55909102656072 -10.35826822102222 1.787714562238695
34.31757535625442 -12.44273690621849 1.809031617469697
34.59481350593062 -5.97820293333192 -0.339668685332161
34.62192492936531 -12.0004582680201 0.2769381686864206
32.90735856160455 -11.1941745031028 1.800163711946799
34.32725439275557 -5.684180625659941 1.799060879046382
34.32725439275557 -5.684180625659941 1.799060879046382
32.66884029594289 -10.86565386681912 1.797391420399912
34.56604219856911 -11.7971310130265 1.830208961889144
32.84791615529311 -12.62410995623131 -0.4903189355201696
34.53882326974038 -5.867191643424924 1.770837285589065
34.12280975640826 -5.380358154626681 -0.3658819075349974
34.62427587012246 -7.765615138929427 -0.4652385180073478
32.6973803133968 -6.18105870256109 1.796335999686862
32.51615092426232 -6.901297928417227 0.09593823569538972
32.53157571931232 -6.521789079730564 0.0962302461744964
34.57331278483753 -5.586831274923374 -0.3543278695216787
32.49191734800102 -8.608481989676957 -0.3455263397823519
32.56631783033027 -5.854327439030175 -0.1481656440938527
33.88156963883914 -5.36149721622455 0.8615878992411088
34.45502217044654 -6.901297928417227 -0.8343780355098004
34.11604832110542 -12.52922908413934 -0.4966948255314904
34.64727224580617 -7.003741534017455 -0.1477081667318384
34.65703192264758 -11.23640479442621 0.9003245574167169
33.75431185131011 -5.597416130778242 -0.4969515125816815
34.29527157211356 -7.686158865459673 -0.5275156675460522
32.62487568047217 -12.41825908518027 -0.4821938103800728
34.36478470551089 -7.219312442697776 -0.8377407238248906
34.00734180462311 -6.702108587202232 -0.5201878401354614
33.16315763302665 -12.52922908413937 -0.4966948255314976
34.68532037215605 -9.343407308352902 0.3815524613200152
33.41381311512835 -5.568735595414441 1.793811256111684
33.49833679736751 -7.219312442697632 -0.5376385438663665
34.62345180044083 -11.6919264388256 -0.2562245522508271
32.83869238473292 -5.595950774460484 -0.4968547209640651
32.68209143817517 -10.10115580454522 1.804916056683636
33.90174662824395 -12.80902769250311 -0.2777963925595778
32.50893871005619 -11.32805885852298 0.6172809746269246
32.50961378323075 -7.00373568186461 0.6269826921298738
32.47607258144387 -8.610740821944603 0.6372930129152625
32.54403395748297 -6.132780711470778 0.3657018752219171
32.50037203934978 -11.06578920500756 0.293485002228112
34.67019606924699 -10.79929641355076 0.6299123493141507
33.64340944535916 -9.971174973249958 -0.5204655035592762
33.03848514159211 -11.85400404704029 1.850115203426348
34.57297125957649 -12.37356875481785 1.762806070494064
34.62674939529329 -6.322683270683576 0.8490319505589523
32.75340165463514 -5.426808473141994 1.744316976340604
34.5957111174371 -5.844337696805194 1.519745382285433
34.37920901727492 -11.03023365572071 -0.6581172132327087
34.63155144579191 -7.322484751881881 1.548692078363982
32.81139727686636 -11.59895316162664 -0.8258806038591899
33.76234482323362 -7.502265974812292 1.798056851998295
32.50235118369518 -11.14729082647209 0.9002111469938671
34.65628735275271 -11.23640479442621 0.2996964907951221
33.14746119171821 -10.93804529267847 -0.5196409229999016
32.9921699583856 -6.614365022092098 -0.5296847151001265
33.64027788973691 -5.834016830453369 -0.501226727460936
33.92061883532305 -5.972068647649562 -0.5022648844094189
32.55371161684519 -7.059952664689918 1.711356261048824
32.77847774619852 -10.9953191753435 -0.6057664397236624
32.70437548235822 -5.991219226290366 1.794375722079139
33.77145992393643 -12.94909421525227 0.2753829570912192
33.66469028980396 -7.332443336519177 -0.53459041487355
32.92589888249285 -5.361497216224862 0.8615878992410651
33.02060386488034 -7.294338643814065 1.79894428988146
34.6153902669152 -12.11438289627384 0.2771041167682141
34.67041414042026 -7.444837864647858 0.8667481085306675
33.39540621993185 -12.85483727185761 1.352263747624225
32.56769884891683 -5.97820293333192 -0.339668685332161
33.28541918252876 -5.421936295051506 -0.454103161727646
34.51362991000239 -9.971174973249941 -0.5133641468216964
32.57257355113059 -10.98201556811267 1.784402718541806
34.61324144812443 -6.954239373900409 1.711062077549875
34.56439949692285 -12.10645589197027 -0.4845988576455018
34.48451457754854 -9.155453126992352 1.79885071707995
34.63873447074457 -11.68911469198227 0.6180251279644292
32.5174530226123 -6.901271210709894 1.293467451098593
34.60448314821134 -12.32695726036882 0.6223761136852031
34.55008821009933 -11.59895316162664 -0.7720551592628864
34.62484191917638 -6.322683270683576 0.09634587234275442
32.48884696680229 -10.56556815791411 0.0756801566202113
33.15929558381365 -11.95328456964912 1.852146702481093
34.5610054182878 -10.13460194293636 1.788554229146333
32.55696430265622 -7.395264133725156 1.713876987801543
32.56281756035536 -12.46949547252925 0.6210263828709448
34.66391056715512 -10.95925974863237 1.11927553085942
33.33161343984692 -11.85751333236542 -0.5200452204775831
34.29184529964268 -12.96268944527683 0.6184759757606895
34.67041414042026 -7.444837864647858 0.8667481085306675
34.31304252614288 -11.23640479442621 -0.7256307760150513
32.56648948195826 -12.2921331670515 1.615144102536495
32.50311023174584 -11.14729082647209 0.2974612334263527
34.0084172306067 -6.527516022836341 -0.5134343571715544
34.3630891875645 -12.73775045871635 -0.4147630131734156
32.99182099016274 -11.92463453442566 -0.524439637452718
32.99180180564223 -12.89471329515199 -0.04506407675940428
34.32262510589735 -5.494210150253542 -0.4848505103879031
33.15905500466986 -5.711623649097778 -0.5003473463006041
33.27214399463683 -7.502265974812389 1.798056851998225
34.66643092995847 -9.971174973249942 -0.3356119438797405
33.49891093051433 -11.41934543252925 -0.5352036426224045
32.47858825133092 -9.3434073083529 0.1086938926915126
34.62584404901932 -11.32805885852298 -0.3864094819736149
32.8661590526112 -7.636110062040449 -0.5414677819004607
33.86838978768918 -5.684180625659624 1.799060879046502
33.88522668906402 -6.959218671677358 1.808012550359375
32.53866263635621 -11.9873994754394 1.130372758935148
33.82471106209397 -12.03239759853798 -0.5069383824934168
32.83405153661312 -5.711330577834229 -0.5003279879770799
32.68553875620152 -10.54274017733484 1.800527704225006
34.27254215696333 -7.21931244269777 -0.637664347053414
34.66354333076961 -7.332407304979428 1.078009519039975
33.27279351044256 -11.02572326611558 1.799720769911122
33.13898918171267 -8.449872847560172 1.800596092938115
34.01957210737271 -7.294338643813997 1.798944289881505
32.83525796209189 -5.684180625659941 1.799060879046382
32.60412873257327 -7.225729255351158 1.777787034789701
33.79174403487968 -10.56556815791414 -0.5187517925021243
32.54111875467227 -11.8877318318049 -0.2383238495106923
33.39350174726582 -12.80902769250325 -0.2777963925595848
32.56458958279066 -11.59923433631098 -0.6129542075770565
33.88697130635794 -11.27720224803487 1.802952735341322
32.73430922479521 -12.5328655995766 -0.4945382761514169
33.04313742961427 -5.597416130778686 -0.4969515125816297
32.53625879470653 -6.322683270683577 0.365661478430247
32.52811703732085 -7.219312442697778 -0.473625641483828
33.03364393072255 -6.751243259374144 1.807459046190331
32.6604930962795 -11.20184985555929 1.798032155502884
34.00986805220019 -11.328058858523 -0.5358121806103171
32.87274402071874 -12.94909421525186 0.2753829570911718
34.65694706487969 -7.109503992712972 0.3655029793894518
34.60329919177028 -11.86462075750439 1.772988620226953
34.40252270267517 -12.96268944527683 0.6184759757606894
32.81136471331062 -11.68911469198227 -0.7923839678631586
33.75547067259225 -6.533720010146471 1.80676739770442
34.66343371864691 -10.9676490625027 0.02762888435626271
34.66214031549767 -11.06578920500756 0.293485002228112
34.30098379406721 -11.59895316162664 -0.7478969182793891
32.81012371165861 -11.92538254412829 -0.6473792221480708
34.16954170267245 -6.799995352071708 -0.5374489644703601
34.68568462480103 -9.34390646464788 0.8979003598107911
33.91176236023649 -12.21668555194897 -0.5025549327508888
33.83956141181757 -7.59261775930125 -0.522646005595358
34.0168585870791 -11.08078115380925 -0.5260351326728974
32.81136471331062 -11.68911469198227 -0.7923839678631586
34.63445581245904 -11.77132334427648 1.127721875492151
34.59190477134288 -12.06300709812342 1.778155036745088
32.58208079875805 -12.42288184180454 -0.4224561444902969
32.48476015599802 -10.32971208052426 0.1020094012430256
33.88801657236765 -7.182001965301051 1.800581465045939
33.39105243091105 -12.94909421525227 0.2753829570912193
34.00667610188309 -12.6878509162748 -0.4711626227099766
34.66489312227724 -7.444824370208015 -0.1486470340734337
32.79235773712272 -11.44857661966147 1.829012898771413
33.75541647185364 -5.380358154626205 -0.3658819075350324
33.03572785418561 -11.75583378380952 1.846042574248397
33.76362225074851 -10.69123254702083 1.801679135603144
34.00909433914392 -5.361378787449521 0.4419582686375093
32.83978364290361 -5.568437079373531 1.793661562962495
32.79018673395078 -7.502265974812543 1.797793779192262
33.87053450835443 -5.393755389733407 1.710374339370318
34.44741270261253 -12.30993822760584 -0.4987065649380763
34.21182233771062 -12.43819816759781 1.809802194448441
32.67750928896179 -10.79001291117253 1.79781237181217
34.5654403609577 -7.605100243691087 -0.6129776404914753
33.83131508925079 -11.41934543252923 -0.5352036426224006
34.47857627056216 -10.32470740336379 1.80325506807837
33.28900506184706 -12.62316042183481 -0.4902464610032633
34.45412539865953 -6.700821631056486 -0.7475204741074206
34.60029879856443 -5.855880973907507 0.09681260166013872
34.62963073678887 -11.23640479442621 -0.390867515258339
33.14668828528895 -5.834016830453676 -0.5012267274608977
32.87600416957814 -9.343407308352902 -0.5213176932678192
34.30130585473276 -12.03224291281292 -0.5262135067346068
34.63877107030309 -11.67734373974734 1.1272172662221
34.00895279516283 -5.361497216224731 0.8615878992410835
32.54381953691088 -6.132780711470779 1.045334291306546
34.64261317230775 -6.901297928417227 -0.1474710604392477
32.68318341619867 -7.594251945005833 -0.6397687095812076
34.12585945522839 -6.65004449234488 1.806581348901781
33.87032777504361 -5.822401398691118 1.799751337741677
33.17651117858846 -5.428724580069055 1.751293087788519
34.04008816371778 -9.971174973249946 -0.520465503559258
32.53263212864441 -11.29996384126246 1.738929582613602
34.66112497773487 -7.652809083087624 1.31090042505256
32.68675873899059 -6.967363528000894 1.803101461293031
34.58154099723519 -5.590360756036692 -0.1502128708270906
32.93301630669101 -5.380458337902624 -0.3660264940538602
33.14835130826389 -6.959218671677482 1.808012550359304
33.63919185599777 -5.361497216224212 0.8615878992411562
34.01813430721339 -7.182001965301174 1.800581465045861
32.7844882496603 -11.1941745031028 1.800163711946799
33.16315763302665 -12.52922908413937 -0.4966948255314976
32.89884214050723 -11.68911469198227 -0.6177247710811954
33.87032777504361 -5.822401398691118 1.799751337741677
34.65971686333928 -7.219260157186108 1.075405516953138
