1.15101830796951 2.366039427683258 0.4324641555808367
1.181748078547533 1.578019202825093 0.4911853841805993
-0.5196082532097064 -0.1163682363802407 1.253696646448137
1.18057771600171 -1.016131128817246 0.2649668287664516
0.8862469991943943 2.072131348507165 0.1714342307369541
0.3303563439127243 2.842710302002209 0.5410129930351939
1.146824458651407 0.434614194653192 1.092176830539341
1.20179430137993 -0.6773566101501871 0.6696890771469573
0.7915838257975565 1.667416644964746 0.1155666392473725
0.0375357792421081 1.423557525280709 0.5000229809202011
-0.1613398912910743 -0.5871001950816515 1.384147438114006
1.18468965036569 1.072296759232637 0.7823351913896371
-0.1165252071221274 -2.201188273946739 0.9042809530308007
0.3879110531161755 2.842524221237963 0.7690906142613316
-0.3666637127646555 0.8192171118695781 0.1403004771785764
0.1514317726528043 -2.120604802825307 0.1516045797316933
-0.5879730440525973 0.4993070057739247 0.7830963485045763
0.4683496347016039 -0.542393614092352 0.1403709689701461
0.4581230384305465 0.2955455341813313 1.543643888038889
0.4557545467100101 1.900426686931292 0.5004848616868186
0.6656846200666543 1.803464162418224 0.1411623982143684
1.185698345224198 -1.269503877968464 0.2714047882276184
0.562787912078741 0.447077644810456 1.098117952143077
0.6656846200666543 1.803464162418224 0.1411623982143684
-0.1749168351236515 -2.407278143522933 0.425347083774787
-0.4185536004584169 -0.06993437592572593 1.448717824810796
-0.5720704683971439 1.71293267403321 0.6010312877568816
1.205056714630871 0.5006139741338699 0.665325066653145
1.185265233906214 -1.45608762237201 1.022474245507044
1.010060250772461 0.7358633270171296 0.669107623873717
0.3315860011650131 2.830499550433498 0.2792707163470573
0.7743188859974787 -2.394156551443412 0.375488946509795
1.203000641643821 0.92846289858589 0.4318032267592483
-0.5884490975173785 -1.563604061545833 0.336236904136763
1.094725740111948 -1.798588627920845 0.03492046442713455
-0.2548042763079583 -1.190785661496285 1.096008300288704
1.117214351758464 1.676648623512724 1.043474393672408
0.8928284253200912 -1.77474228240041 0.007878338878264508
0.3748327505651209 -1.59025523840994 0.1352528866682383
-0.5662395231536404 1.843145320778964 0.5494195832380131
-0.4298645991884935 -0.4533573968485184 1.371193884126142
0.6044880546994524 2.201655766452993 0.2164266054317915
0.9538273400404997 2.590350682134735 0.776831404212271
-0.5376364124402823 2.510451937537569 0.7829000410284581
0.9376370785898643 -1.660365186883516 -0.1297117043070813
-0.2590585960321395 -1.725169580768101 0.06359481914159008
1.196791099190946 -1.563604061545832 0.8233727453811442
-0.5183623113629947 -0.006345975705986905 1.256022254445448
1.196490864604799 -1.216457630155472 0.438712858563017
0.676749296854716 -2.346921647254019 0.191210462484184
0.6785020520848696 1.299176752327069 0.1398731434964173
-0.07108400284739272 1.400134077061948 0.136611576477177
-0.4514176716764753 1.542882144410127 0.8897164312515924
-0.6059944259292571 0.09080687855923247 0.5499861247942437
-0.4863910580100578 1.581215764005304 1.037157224359388
1.191884969297137 -1.216457630155472 0.3386661924053438
0.7971389422936511 1.209502747046693 0.1398486249936783
1.207709306008281 -0.2565533658534125 0.4872146612047237
0.08732791516892542 -2.483910292525792 0.3414641313841309
0.8640721779084661 1.667117984678846 0.03450395859775966
0.3548661312382908 -0.587466421066897 1.384147438113879
1.10683130910321 2.369602146706539 0.2692078536748545
1.156976640935728 0.5824787178321559 0.1855030719764005
-0.2417532205618536 -1.747860420004484 1.025669860416535
-0.07094748510400602 1.327362173684268 0.5003992074007112
0.8498473807390619 -0.5862339510702057 1.384147438114011
1.057557487808639 0.6283939914341435 0.8843312607374037
-0.2707035437787288 -2.194473705884171 0.9026044016132805
0.4622650842634324 -0.9517792272500276 1.153602013048127
0.8997740031445043 1.527933704432965 -0.0801698217172819
0.5726859973305744 -2.523884479698037 0.4204377749448923
1.19458724049274 -1.699325150993266 0.8185908876716496
-0.5494293173441007 -1.998706696614375 0.249745284627632
1.140221285762187 -0.8743174841088612 1.135917402964204
0.1585482259715145 -2.514135232798208 0.6054228455811492
1.197510177526151 -1.409736915371947 0.3914562805796872
1.085253083704733 0.3661666977322478 1.322098774385124
0.08106510476080189 -1.790053158326031 0.1428626566154952
0.1395161057965831 -2.462279220564552 0.2983065025656427
1.146928758011029 -1.266240422341314 1.074479549880352
0.3574094599542768 0.587983050966614 0.1399998776175088
-0.5297090078919107 -2.054760281978372 0.9065343992283406
0.9063944823355988 -1.020624998486133 0.1372631581562467
-0.604532761480148 0.2229317594045504 0.431760365388045
0.2476936680007773 -1.037102899596025 1.107973415666334
0.03565945930418116 -1.092641432330015 1.096946722593152
-0.2747599065416915 -2.28338118979863 0.882053184687257
-0.5752099205637564 1.645193160389058 0.4911952940260647
0.9148622995363644 1.340993004546214 0.00576443586154422
0.2128064162484975 2.837085660450384 1.069298066171843
0.377105957436033 1.343954222352541 0.1384306282502422
-0.3700586025754581 2.331176731971735 0.6780166694461023
1.156016395664396 0.7211095930779558 0.1856128684228045
-0.5475505583658235 -0.2381661741875411 1.144003313574427
0.5503062748680127 2.247347550418459 0.5038101124420531
-0.5404978268386205 2.173432386204016 0.3052759832669967
-0.2441332180528863 -1.688344499241854 1.037603407502448
-0.5543358700592597 0.08684570966609995 0.1854798073924605
-0.5926420951976276 -1.634141925364018 0.7107722083132655
0.9801403248250092 2.08844586036745 0.6768495774030316
1.061008756702311 -1.01626638751669 0.1420500209584914
-0.2190044762519222 -2.118123253306172 0.1516132954768463
0.2175654119385101 2.843886641137304 0.3602618781175041
1.167632334110633 0.4990179971544013 0.9286053637601979
1.047790732277218 0.4408689369797654 1.251661766215767
0.2044970072728463 -2.432047360968329 0.2406836749427671
1.002333919130765 -2.242690780559226 0.5069685780186716
0.01963663662849071 -0.7889928956882083 0.1409808372971926
1.196524284054736 -1.563604061545833 0.4392723246279408
-0.4383025305969235 -1.083239210399372 1.095100939554187
-0.5376364124402823 2.510451937537569 0.7829000410284581
1.192970927327264 -1.021539776963854 0.672743566731827
-0.07654263755432172 -2.46728408785618 0.7794413684148331
1.204153142374399 0.92846289858589 0.4911255494178031
0.1141915673631388 -2.440785835425074 0.8321692506161547
0.4688657447404656 -0.1553805383177819 0.1400080280949407
-0.0020706024450381 -2.300767234707696 0.8840648825568107
1.192536615918758 -1.627728284235503 0.9300214507019868
-0.4449861690086968 -1.916314501878682 0.9781391979260827
1.193339859856287 -1.021193494709987 0.5085592815115948
0.6481172468859153 -2.387087902860288 0.8644490433138026
-0.5893784211587945 -0.9072530303524511 0.3440823305537697
0.1582082679015123 2.701257197083786 0.876250107535069
-0.4617119404022474 -2.210773008912563 0.8404366257431293
0.1204347483424255 -2.469834506216726 0.7794413684147554
-0.5805155772929838 -1.877910626131011 0.8087330975186265
0.936179216575378 1.955084918356397 0.03062712836585814
1.066091277114193 0.9337853654486572 0.1466139265379861
1.027746435116685 -1.499941100262475 -0.1876790762245721
-0.5956500629215099 -1.33383017002711 0.7071839002405118
-0.05920866379366405 -2.031531568942635 0.1491069406848619
0.07655054541383288 -1.202180725475643 0.1384230691538742
1.162360148818698 -1.934287099605993 0.2514686398959996
-0.1737019251885631 1.964824362591852 0.5016277798164738
-0.3521276344833592 -1.620372414808057 1.048226324778645
1.098056995940475 2.813094732274968 0.7773485977209738
-0.1075403240063739 -2.480413860950844 0.6055676902981685
0.1585482259715145 -2.514135232798208 0.6054228455811492
0.2258801327617338 -1.171367501638425 0.1388145695774093
0.6227448119722651 -1.910066658373022 0.1477354393890684
-0.6044741734623665 -0.03787520166736715 0.4314428074110315
-0.535501732108748 2.761778567301906 0.4152618478046433
-0.2190044762519222 -2.118123253306172 0.1516132954768463
0.9705474015360784 -0.2614478785726242 0.140073562031133
0.520292989577694 2.843677919167144 0.3602618781175448
1.147939328392286 -0.1337780547910865 1.148057910597714
0.6824253688518517 2.842220387643739 0.7690906142614069
1.064103180470761 2.523461673596352 0.2560704298600457
0.5867398475175948 2.679897283845336 0.2548036461677627
-0.2422316539075687 -2.357732679268788 0.8643747989041155
-0.3107951234769254 1.492171080580178 0.534513747771401
0.1515158750820985 -2.109544812217014 0.9303414920791057
-0.4520833419615086 -1.853379077119658 0.9948467529622969
-0.5979780409221571 0.9272348400384191 0.6654687671763047
0.6905819020028394 -0.788869195373598 0.1409808372972043
-0.5542315922509832 -1.815806591891115 0.1828773632507404
-0.5944016423971577 -0.916005618651178 0.5208505819069856
1.135646744155653 -0.6433072544920921 1.187779899786678
0.3204436245201228 -2.487111252129861 0.3415008941942436
1.135315620605794 0.7452143042307664 1.033577701353813
0.5673997089520838 1.033956243509154 0.4996117790687896
0.7789694410237527 1.89975969862767 0.5004848616868668
1.17843486493591 1.645196879058659 0.5496100040252423
0.950807163414205 -1.741192913187768 1.025669860416535
-0.2913519568007117 1.665855958900419 -0.08710023500888935
-0.1831782984294018 0.6619445371314394 0.1400445256786875
0.3682001908136679 1.084338758540749 0.140881009537473
0.1291889857790866 2.680155447038941 0.2548036461677461
1.15561247131077 -0.3855225267900265 0.1859948240639793
0.8391566032460242 -1.866122096245803 0.9980920812498257
-0.06295676753698454 1.865178733599546 0.1409187840196323
0.0517381340341225 -2.513466887512474 0.6054228455812178
0.6666146563624702 -1.257533028850517 1.091512984284614
1.197510177526151 -1.409736915371947 0.3914562805796872
0.46158053019402 1.182728941063233 0.5003577252563163
1.034165356214082 -1.275844648778204 -0.1360917986928862
0.4618855045035739 -0.7153776710952452 1.312291952360928
0.5659283176439709 -1.192423062990121 1.096008300288656
1.125524108778198 1.409791288508238 1.042865496218118
-0.2608626513002191 -1.432877059883425 0.03167563890473713
0.2360417170629585 2.138139913668374 0.1973555301403486
1.151346755225986 2.17286903669178 0.373435737070654
1.171607659959191 0.3503871165831178 0.9981290026015061
0.2824006264413404 -2.487111252129861 0.3415008941942436
-0.08271083410028986 0.3066676668332365 0.1399706125153641
-0.04263299679198961 -2.120001970763012 0.15160457973172
0.1340717031042022 -0.2630170302113105 0.1400735620310993
-0.4960238774912231 2.393471207772108 1.053111024213025
1.157028761825964 1.843145320778964 0.782388003871199
-0.5176070857317997 1.543413532883204 1.041395658482798
1.150717320483992 -1.34222469739688 1.067660331657526
0.6707495544265305 1.561942195983131 0.4998123410819419
0.9136800539493939 0.3841530324312326 1.463043290863453
-0.4298645991884935 -0.4533573968485184 1.371193884126142
-0.499337352706331 0.7067925378743715 1.030034770742691
0.3751526362923683 1.956226948851688 0.143819648717761
0.6674465792091903 1.696194699488761 0.4998918998448895
-0.3276262523267576 2.276422958643869 0.2330579297920073
1.192147305786167 0.09089041167890691 0.8130482003126397
-0.1028329476217589 0.9399356230833007 0.1405518184081254
1.141066997841487 1.645014458993604 0.02819862560496257
0.9705474015360784 -0.2614478785726242 0.140073562031133
-0.6011443016253593 0.4254126644096213 0.3663284991629118
0.5671847916572377 -1.092641432330015 1.096946722593152
0.6116164025802585 2.542834906844767 0.2533631091164865
0.1339252951457546 0.3067048515630162 0.1399706125153389
-0.4278430658874172 2.053403373921362 0.1741242724579432
0.7145911198922044 2.201391957565742 0.2164266054318041
-0.300514233319692 0.1816328968915441 1.549217926042054
1.202299818598736 -0.3845873371909629 0.3648370351987815
0.8853576990124394 1.296930805106322 0.1006489547677258
1.196791099190946 -1.563604061545832 0.8233727453811442
0.6559653593550194 -1.809900027855743 1.012196728998372
1.197245893358572 -0.9160056186511779 0.5208505819069857
1.069859495352829 0.08581341912290574 0.1458635917631426
1.152174740870767 2.366039427683258 0.4913058214171259
0.7846786683166953 -0.5421213691759367 0.1403709689701781
-0.3016948245182077 1.461327232164515 -0.06278126729835591
-0.605788790975603 0.5824966408889309 0.549820275835085
-0.362867521580175 -0.9024080820388428 0.1415077412030452
1.158103988569177 2.043417154438796 0.432318252943959
0.1816659546990915 -2.388069166840106 0.8644490433136849
-0.1962242014781386 2.201145950259166 0.2164266054318113
1.027273734038345 -1.578002217705681 -0.1718124383581884
-0.3333349656139639 1.955084918356397 0.03062712836585817
1.159556229330081 1.577840501429639 0.1819161376111189
-0.3585372746015872 -1.251047658734757 1.091512984284633
1.192147305786167 0.09089041167890691 0.8130482003126397
0.2148813805449127 2.842629826644668 0.5410129930352138
1.146184293133453 -0.8980132319371399 0.184328284521119
-0.5930084489422165 1.309071055726192 0.5501666523880371
1.117212044256095 -2.089114702911844 0.2516025934483978
0.9481549450236607 1.457114856703432 -0.1346256458542123
-0.5439899253609601 2.656817409487752 0.3699289436158606
0.5562257563455227 -1.868574702766888 0.9980920812497818
0.05458961244093365 -2.45385720488762 0.2973874323097581
-0.5831902695574377 -1.09102502214003 0.9622533236624575
0.9386725256743616 1.592201123669877 -0.1687052897476246
0.4445152635243986 2.842603046641903 0.4734570389959055
1.205103424306338 -0.1505397628051659 0.6719075657168931
1.030540498400998 1.997495326408198 0.1301927025596362
1.032863027034781 2.790332657476198 1.078125425256251
-0.4143785975109974 1.906415840678089 -0.0353521408030925
1.203988552586773 0.4254126644096213 0.3663284991629118
0.1807892536521093 -2.532185767117707 0.4997867938796887
-0.54459358809085 1.842862226238139 0.1897700854171092
1.206271157732743 0.8108851964196958 0.6023150514934665
1.114279556657114 2.756468531062083 0.2766474484880625
0.9703779838110588 -0.4354016029866158 1.431195395355677
-0.5404978268386205 2.173432386204016 0.3052759832669967
0.3749635959211622 1.865579769486719 0.1409187840196092
1.198511157877558 1.214764418201847 0.6033721697870151
0.9431436459707471 -1.829983598398872 0.06494863567822244
-0.1747919920227535 -1.966970173830652 0.1484447815311798
0.790627302494462 1.561773463480995 0.4998123410819518
0.2175654119385101 2.843886641137304 0.3602618781175041
0.4597372421054423 -1.414597598735983 1.075395483847863
0.6250992739474115 -2.481206979815411 0.3732756872842264
0.9462793794569776 -1.283192016773066 -0.1267782588386979
-0.5853443367072609 -1.017095739199644 0.3401387245939692
0.8828565991092048 -1.139589599335824 0.1146333853265527
-0.5536660146209864 1.085602687164008 0.1887475325413693
0.2476455453724388 -0.9518930115512668 1.1536020130481
-0.4727461741980862 1.94726483766856 0.05300704067968069
-0.3355152321370376 -1.725291054272258 -0.0866689469023139
0.9463727447091929 0.4456147314716526 1.170547854624882
0.3749688575572496 1.736771466270285 0.139430217585057
1.170871448297877 -0.1463493358016461 0.9967838241619471
1.0886905039697 -0.3239615251703489 1.321956640179502
1.147987174289768 1.518251231562965 0.9344019815385636
0.8551904902981475 2.28141357286988 0.2330579297920073
0.4618855045035739 -0.7153776710952452 1.312291952360928
-0.3350289303137062 -1.508270416018784 -0.1766045578203196
-0.2441507724932124 -0.4351466168658653 1.450057960113265
0.6286230574365059 -2.440135184535847 0.8321692506162268
1.148133517606497 0.2366105868658916 1.155312529671372
-0.562939143213959 -1.903530229307342 0.9468792388489782
1.085998371041346 1.782289862211004 1.039685276794652
-0.1834778349514802 0.2032685127456402 0.1399717714877402
0.5533456327211793 -2.529561159768089 0.4997867938797617
-0.1117468689307905 2.201391957565742 0.2164266054318041
1.20883924666659 0.502205541954497 0.5498612976389606
-0.2825134480510257 1.296930805106322 0.1006489547677258
1.135646744155653 -0.6433072544920921 1.187779899786678
-0.6011006057374688 0.08965396218677806 0.3663297218387551
0.9176913667977561 -0.5830256002850522 1.384147438114011
1.167882971040182 -1.998973893799247 0.7108586957790957
0.6891674483276855 -1.967227926640601 0.148444781531173
0.990253855880988 -0.8301284325316618 1.224558612006414
-0.5926589856488993 -1.634141925364018 0.6026930106263205
0.5610932555021126 -1.62878096279285 1.048226324778599
0.965413436816194 -1.017388866338233 0.135494696961957
-0.1877830515330481 1.561773463480995 0.4998123410819519
1.192352680953304 -1.760183750197657 0.8157982483522646
0.5678711183113469 -0.9516293570174295 1.153602013048163
1.066091277114193 0.9337853654486572 0.1466139265379861
0.04081692724378117 -0.144192174456178 1.537647123537941
-0.592133078394875 -1.634141925364018 0.4389633749942137
-0.5762972376222749 -1.759449904984752 0.2647008047669363
0.9009854144540187 -1.287692442261477 -0.05690466344697052
0.5513991259242841 2.168469144526481 0.5034143627396303
-0.5628959971166344 -1.99250481324486 0.8739154168704727
-0.3719246951908182 2.817003204430727 1.072541868194221
0.3189661728701811 -2.463557718309794 0.2983065025655369
0.958535952741572 -1.128882836309076 0.06389559193430182
1.02979507080654 -1.716473248657165 -0.0944431393585808
0.8612223119603931 2.018798194608414 0.1471320332832967
-0.440884417461957 -1.888786475458506 0.1479270617055043
0.7862063673690418 0.5877777006323237 0.1399998776175509
0.272502756797909 2.842646399605015 0.5972051232555811
1.190295858906679 0.5788882220100424 0.7766858431524986
0.8378019695806983 0.05908216444024261 1.5496120697634
0.8808797068001817 0.3065486229334221 0.1399706125153723
-0.05867015162742768 1.899969280276074 0.5004848616868567
0.5277885370150812 1.343834257643583 0.1384306282502522
0.7952814477068111 1.531880478327442 0.1140513602126476
-0.4058389115087898 1.177827446302505 0.6741894912125673
1.142719380226339 2.252936393577301 0.7837913476207834
-0.5898446987867201 -1.103650082636025 0.6798148639275015
1.19505038054706 -1.165026550895838 0.5013723007635187
-0.5320584723357043 1.90346144070906 0.08804992661169492
-0.3879336220684476 -2.237560469857431 0.3791332062945392
0.2677099622798281 2.805137069010493 1.090826137060445
0.6685334075386804 -1.139665421740658 1.097173067780668
0.6769787590991501 2.843582283710017 0.3602618781175556
1.178526777957772 -1.728126231287096 0.9864665348892114
-0.2356476694997318 2.692272523277365 0.8892863259913881
-0.5469670350897611 1.778986835632541 0.1862317045414732
0.8941962077621255 1.665855958900419 -0.0871002350088894
-0.5339040799838631 1.778986835632541 0.04503083825730578
-0.4958655469199896 1.781728686740447 -0.08265159147558068
-0.4240560194379178 2.834818184747004 0.3155465705294996
0.3574225485814768 0.4940385479083014 0.1399723512738401
-0.4926474285830923 2.814640127763994 0.3147075392543745
-0.5201616378978337 1.477162596053123 1.04205063455697
0.2279584400305431 -1.722984518638259 0.1387816040010959
-0.2763827317258034 -0.7880632211895857 0.1409808372972126
-0.4593317532735893 -1.736159438485749 1.022581188576357
1.1814008559423 1.378468440777454 0.2903494705963821
0.3542948171865182 -0.2741337698670756 1.505396882212421
1.208786646837432 0.4350835313546714 0.6022815762104321
-0.4690462756151123 -1.403759300523315 1.072472332226554
-0.5743801923256393 -1.935623085530351 0.6075294820068966
1.192018513031862 -0.03787520166736715 0.81231501479261
-0.2422316539075687 -2.357732679268788 0.8643747989041155
-0.2843114732023406 2.166054472398902 0.5381807159309038
0.1344946162598346 -0.542393614092352 0.1403709689701461
0.1449702010315645 0.1817258903467993 1.549217926041953
0.9148468783115701 2.776601943619149 0.2592847007447777
-0.466540807240879 0.6578468146482789 0.1459347234072809
0.1141915673631388 -2.440785835425074 0.8321692506161547
1.166700079828753 1.843145320778964 0.6626566388578475
-0.1818344173552817 -0.5421213691759368 0.1403709689701781
-0.6011006057374688 0.2198036916320027 0.366329721838755
1.011106588902563 0.9106229370079368 0.6718531042629483
0.8637984059794036 1.916896963759019 0.08384041395122661
-0.5888339967634353 -1.692912376097755 0.9233274039381945
0.3536180436369578 -1.691020536200778 1.037603407502348
0.01610440344381939 2.679897283845336 0.2548036461677627
0.5676326831816425 -1.036819142580012 1.107973415666395
0.965413436816194 -1.017388866338233 0.135494696961957
0.3551035624890153 1.03416113340091 0.4996117790687551
0.05309064898947589 -2.10923966585969 0.930341492079136
0.2175654119385101 2.843886641137304 0.3602618781175041
0.9710849679115898 -0.0402348001852621 0.1399790228091884
1.175199479858911 -1.92920451428575 0.8868096872553252
0.02412460285337265 0.6620688349842768 0.1400445256786691
-0.5765041036122571 1.309073455780799 0.783996747094483
0.9695834075004084 0.9373050777247772 0.1405518184081337
0.2483326732977541 -1.335126293663723 1.083872188023393
0.1141721576871809 2.543137950453956 0.253363109116471
0.3551987055890244 -0.9518930115512668 1.1536020130481
1.103269634430036 2.140865811534846 1.050780232782376
0.8544288778927185 -1.4124806450458 1.07539548384794
1.19515804965756 -1.165026550895838 0.5883631669593595
0.9895382971562501 1.892066372774823 0.674316627643071
0.1395161057965831 -2.462279220564552 0.2983065025656427
0.283878078091282 -2.463557718309794 0.2983065025655369
-0.4612589295093473 2.523461673596352 0.2560704298600457
1.070124467577052 -1.479581080849704 1.064051173885726
0.3571133909416221 -0.6762028199802228 0.1406226340281326
0.8786052232689801 2.506600588117102 0.558009554635744
-0.08368332817371708 2.830063801702238 0.2792707163471185
-0.6025975746082919 -0.534046546146823 0.4832174442341521
-0.5708629242194955 1.445686964970266 0.782243679374973
0.9622070284051927 -1.093747004344842 0.1094622445807572
-0.6008290430227344 -0.1505397628051659 0.3657303918803853
-0.4793438835752097 0.2609764172993971 1.350488643006438
0.5331095171368 2.83017205436991 0.2792707163471088
-0.1834778349514802 0.2032685127456402 0.1399717714877402
0.9426476915675242 1.523337633421783 -0.1578647936990812
0.9426476915675242 1.523337633421783 -0.1578647936990812
0.9194722607917303 1.032909401563415 0.534378132260059
0.9063944823355988 -1.020624998486133 0.1372631581562467
-0.43076811159155 2.833762084667478 0.4104195940916777
1.208543074826777 0.5816290438113908 0.6020467775603501
-0.2609541550179898 1.916896963759019 0.08384041395122668
-0.4215594609157336 -0.1681746065791403 1.440406394897701
-0.5883349752356764 -1.018221403423919 0.8105685010143872
-0.3367832086482534 -1.922278286742687 0.981515457066042
0.7937362935443449 -1.356202719909859 0.1149349347360393
-0.5594571748298989 1.973477720461486 0.6010546643714458
-0.5252847085333676 2.115811111558052 0.9423246476262661
0.07950564590910544 1.209953062628802 0.1410802456767708
-0.06062570465328331 1.832981582317516 0.4998269672136257
1.158288682048615 1.220781829848419 0.9369016275907869
0.4127583660156663 -2.533403184077689 0.4204377749448235
-0.5643390120675769 1.445381083028177 0.1840692496667954
0.226775913089831 1.465383478004375 0.1347715424289677
0.6855550850617037 0.3066676668332365 0.1399706125153641
0.07694930822376894 2.842315858501583 0.7690906142613913
-0.5226798578167844 1.409791288508238 1.042865496218118
0.6905819020028394 -0.788869195373598 0.1409808372972043
1.207316382067305 0.7201672285997668 0.4911171376463168
0.3573463926368126 0.7287128281648383 0.1401325226166357
0.3749715470729248 -1.764447049133847 0.1409796562947748
0.6229127680209523 -2.351787161276213 0.191096041371601
-0.599455567637322 -0.3845873371909629 0.3648370351987816
1.197510177526151 -1.409736915371947 0.3914562805796872
0.5678711183113469 -0.9516293570174295 1.153602013048163
1.174850770647246 1.712927502852519 0.5495787283315318
0.3748349789917569 -1.66188020995792 0.1365575220096026
0.5660855767116076 0.6357230519927867 0.5118645199210423
0.3766061722743606 -1.202320006709512 0.1384230691538641
-0.5483243824243089 -1.420730884474561 1.059721640088232
-0.5470708270661566 -0.7803255128966099 0.1837637857398305
0.8805105292274194 0.820891387343037 0.1403004771785764
1.132369703803542 -2.092310663097709 0.5088613841406595
-0.05806771211119381 -1.628548448090327 1.048226324778626
-0.561106215463186 -0.8916454491296183 1.079183766806724
-0.5843384755739615 0.9264678056734952 0.7805662773910413
-0.5723552288974969 -1.92920451428575 0.8868096872553252
0.3607215442944575 0.9402186865613802 0.1405518184080896
1.195439171532807 -0.1505397628051659 0.2744427297995808
1.164499123610373 1.843111992235855 0.3704663524543561
1.140221285762187 -0.8743174841088612 1.135917402964204
0.09316218953139607 2.073954910691634 0.1734230625437146
1.032708850149907 -0.4533573968485183 1.371193884126142
0.9059571606271677 -2.112492346129705 0.1516481584573164
0.4375779214968956 -2.431710764123126 0.2406836749427929
1.142719380226339 2.252936393577301 0.7837913476207834
-0.5998885600694948 0.7201672285997669 0.3663636428162326
-0.008116016808097648 -2.43118009938322 0.294047376687765
1.041146781558337 -1.083239210399372 1.095100939554188
0.01764339103192323 2.283371941806699 0.2330579297919851
0.03657765106650883 -2.505600135381206 0.3729465259705377
0.4022534551278666 2.805015599655087 1.090826137060471
0.1412637207674185 1.182728941063233 0.5003577252563163
1.15101830796951 2.366039427683258 0.4324641555808367
-0.5514642403386443 -0.5332519287594444 0.1859338469563964
1.197170019081826 1.214843210635045 0.4318603842953969
0.2456112237177165 -0.5424657130304016 0.1403709689701359
0.4379235435699439 2.843796284910199 0.3161020015912976
-0.07215142059629033 2.842321037570028 1.022293260299173
0.6748755645505774 1.182460772154494 0.5003577252563533
0.1445030457621925 1.696598362053114 0.4998918998448521
0.7898632093813532 -1.661570763138943 0.1188091309966562
1.206164060221463 0.7201672285997668 0.4317722405681567
-0.5536114494442583 -0.2572709589723569 0.1857732322593579
0.56003934871414 -1.690582508736399 1.037603407502402
-0.4179293138585593 1.58499325464895 -0.1794355684323488
0.226775913089831 1.465383478004375 0.1347715424289677
-0.5140075263537624 1.744340197800019 1.046617196413399
0.07716253093830279 2.842500643375507 0.4734570389959266
1.19569586420238 0.4953357268558978 0.2743718027393827
-0.07070659509385202 2.843598089664148 0.316102001591326
-0.2186379864840836 2.137180781078619 0.1973555301403932
-0.06619995087177287 1.209813007666671 0.1410802456767843
0.669878288454893 -1.291278671237015 0.1352290201182028
-0.5852908281407326 -1.81885426236356 0.6056928753314039
0.0102604162014209 -2.522680828465977 0.4997867938797617
0.4587272621771079 -1.562827239231349 1.058000267991473
-0.4771151766242897 1.976617828572479 1.042565845750411
0.5513991259242841 2.168469144526481 0.5034143627396303
0.4446978264121048 2.842418237821629 0.7690906142613637
0.1417519457892162 -1.192605232100191 1.096008300288624
-0.5956180158730252 -1.33383017002711 0.50455149515948
1.069859495352829 0.08581341912290574 0.1458635917631426
-0.258618451429389 -1.662783949243563 0.04780843918055559
0.8108705635465681 1.266863708638299 0.1368967151946383
1.154720761258971 2.172728199313721 0.4323821254556964
-0.5892623051594355 -1.760183750197657 0.5062029015392345
1.194977329356289 -1.634141925364018 0.4389633749942136
1.187864401734512 1.445656856786593 0.4319517613788326
0.133978506220973 -0.1553805383177819 0.1400080280949407
-0.5850201507730979 1.445656856786593 0.4319517613788327
0.3351342886815971 2.805137069010493 1.090826137060445
-0.6008886769284498 0.5824847599769556 0.3663356522031407
-0.3916949639148278 1.757024052834443 0.6736156454173127
-0.5485025042645714 2.17286903669178 0.373435737070654
1.183169713871636 -1.877910626131011 0.606662390441393
1.152587522146585 2.366039427683258 0.6003783801247208
0.8438600740717133 -0.2734140468553961 1.50539688221257
0.8922360532269551 -1.727548158093662 -0.02661299802049625
-0.5775202964259695 -1.667261276515712 0.9970295923099903
1.065037672896477 1.209950554824384 0.1196347122494921
0.8579315549110114 -1.138246070303918 1.097173067780688
-0.5813717104982411 -0.9030955004754834 0.2638712449924762
0.0375357792421081 1.423557525280709 0.5000229809202011
1.15029978637558 2.366039427683258 0.6628677015180216
0.4026015363322726 -2.491561329340507 0.7053991651280637
-0.3252148025785291 -0.8316679305086014 1.231227694272808
1.132110267949409 1.103175328860418 1.041387749960308
-0.5475948155260457 1.973477720461486 0.7830553827709501
-0.3309213303298859 -2.195069730687181 0.8992707752466703
-0.5922755398957629 -1.216457630155472 0.3901638814297077
0.444711105086796 2.842542371327388 0.9164390973321449
0.1425381222351363 1.49395044552066 0.499747394580109
1.103128731983623 0.7810968841528989 1.031443233809396
1.123970086278129 2.657379600511871 0.9441559992470052
-0.550770577557145 -0.3661786748434532 1.134673147174227
0.7017240993833329 2.743158042421837 1.053988254302433
-0.1630201799116375 -1.092326344151831 1.096946722593197
0.5503062748680127 2.247347550418459 0.5038101124420531
-0.04357681386132509 2.073698978335622 0.1734230625437284
0.6834287895864943 -0.6758951455573791 0.1406226340281682
0.9584973842024117 1.337035005944986 -0.04173147366179801
1.04859001485756 -2.230518349516709 0.7072509744467026
-0.2534567274803299 -0.9500798055118649 1.153602013048216
1.125679224437351 -1.17165474645352 -0.007154907714775692
0.6481172468859153 -2.387087902860288 0.8644490433138026
-0.5432709016739669 2.109547436563853 0.7836604054729988
0.7520226062339134 -2.233354013318352 0.1624621444058174
-0.3035502313741851 -1.020624998486133 0.1372631581562467
-0.2590585960321395 -1.725169580768101 0.06359481914159008
0.5646259546198887 1.493772301662439 0.4997473945801298
0.1517806717551409 2.358824409997936 0.504184903489843
0.4560166907464317 -1.810421072744518 1.012196728998316
0.2724879070486894 2.842710302002209 0.5410129930351939
-0.04791200637240491 2.358246136093797 0.5041849034898861
0.3644834310417365 -2.515413709465855 0.3729465259704324
1.192353790356496 1.309072815875722 0.6671640361651989
1.195387558430925 -1.634141925364018 0.8211499663730544
-0.1941494240636734 1.033738823654645 0.4996117790688162
-0.5671593439679384 0.4337088507960656 0.9670330891943068
-0.4235831675877517 2.398385470483836 0.9018015972300881
1.20179430137993 -0.6773566101501871 0.6696890771469573
-0.4183089838952034 2.186544859826221 0.2202428331194989
0.1449702010315645 0.1817258903467993 1.549217926041953
-0.5011283691762387 -2.017046913964962 0.9392572071629917
-0.5956935898389129 -1.33383017002711 0.5992631553738812
0.8658615947286795 1.59835605166779 0.03276623688938481
-0.3766326398687231 -0.7106274906006652 1.301016666247228
0.03796950586703824 -0.4359894602556551 1.4500579601132
0.07505571394635727 1.343834257643584 0.1384306282502522
-0.2430546777456911 0.3850682770103999 1.451454506466372
1.09271303530284 -0.4786336013352725 1.29007425306262
-0.6008290430227344 -0.1505397628051659 0.3657303918803853
-0.5886128889083051 0.9312841203055159 0.2762043284999768
-0.5853443367072609 -1.017095739199644 0.3401387245939692
0.2477626346431772 0.7386828776002293 0.4952758579174488
0.4575374064398577 -1.690831498492105 1.037603407502371
0.4447642197855606 2.842518912957351 1.022293260299125
-0.4240560194379178 2.834818184747004 0.3155465705294996
1.195153347070249 0.6546500996717516 0.274408238700065
-0.5895095393950818 1.309072815875722 0.6671640361651989
1.164256181595877 1.907169439705435 0.4322275617449494
-0.4621934219350632 1.209950554824384 0.1196347122494921
-0.300514233319692 0.1816328968915441 1.549217926042054
0.8379471181077876 0.1817012621628398 1.549217926042054
0.76698537686855 2.073469464824213 0.1732453001058421
-0.2739548949450296 -1.199675681017404 0.07782964200376132
1.097764886041871 1.283513368577386 1.038212484184129
-0.3522560551898796 -1.133644589081716 1.097173067780688
-0.5543316736560339 0.4917876475456956 0.1854802873181392
0.04081692724378117 -0.144192174456178 1.537647123537941
0.2277474861502163 -1.790252299200997 0.1428626566154849
0.8551904902981475 2.28141357286988 0.2330579297920073
1.043349929757939 1.329487484169026 -0.04652702152147098
0.939532949912433 -1.903862893386217 0.1436135043706208
-0.4601042567554362 2.559296765108466 1.073544576097325
-0.4298771706760955 -2.000050139879108 0.9545447425310177
-0.2920557183588882 2.018169507573931 0.1394323956886659
0.5788910485679104 0.08503110848580131 0.1399717714877217
0.6658010184984033 1.865178733599546 0.1409187840196323
1.195387558430925 -1.634141925364018 0.8211499663730544
0.07716253093830279 2.842500643375507 0.4734570389959266
1.140221285762187 -0.8743174841088612 1.135917402964204
0.2789514747401213 -2.534040094395011 0.4204377749447414
-0.181139055332369 1.764115587546128 0.4997838794611083
-0.5985622771400428 1.073343432096306 0.4911328606313275
-0.1858743922853367 1.628971160004609 0.4999085038602347
0.1406753320105343 0.9142304500139269 0.4980213383066976
0.1340717031042022 -0.2630170302113105 0.1400735620310993
0.8522577422849471 -0.714025449370185 1.312291952361024
-0.5208077748181897 0.4362308083846767 1.166066085532856
0.9538273400404997 2.590350682134735 0.776831404212271
-0.1901571192182839 1.599115184577868 0.1133464881861624
0.7902118841573533 -1.722914926669581 0.1237454547344845
-0.5843384755739615 0.9264678056734952 0.7805662773910413
-0.5317669461239544 0.597487507913389 1.019911790377309
-0.08258880117724757 -0.1552958834592932 0.1400080280949661
-0.3563647602945888 0.2901280121349106 1.520783572099112
0.1293885246276494 -2.485821301198006 0.3415008941943618
1.163418313722311 1.907169439705435 0.6628946833539139
-0.5853763827309487 -1.81885426236356 0.8125787062715646
-0.5910576173189512 -1.699325150993266 0.4384833113340657
0.665415614066481 -1.722538950319148 0.1387816040011192
0.8454929805226493 2.832750658592534 1.069946826576389
1.005563663235264 0.6335160584360329 0.6827990897780061
1.208838676890671 0.09080687855923246 0.5499861247942436
0.8869968897526612 2.840292160442342 0.6582361456863736
0.154623243810089 2.83697197219782 1.069298066171878
0.4058881305858282 -2.515054129162423 0.372946525970475
1.102122840358541 0.9939838679134524 1.035708079252525
-0.5272168906319554 2.761260158665479 0.7818645144112778
-0.5176070857317997 1.543413532883204 1.041395658482798
-0.2515846269313046 -1.4124806450458 1.07539548384794
0.8188437867354346 -1.909934164329483 0.1464429165324257
1.035399070940403 2.672741506760207 0.2547811584267661
-0.5143677932946812 -2.089114702911844 0.2516025934483978
1.163251215039182 -1.215703510141895 0.0591404006592965
-0.594076650870635 -1.563604061545832 0.710486769441611
0.2443774632764102 -1.96800770447384 0.1484447815311367
0.5533456327211793 -2.529561159768089 0.4997867938797617
-0.2892874386203674 -1.860948058221734 0.1263262141634363
1.195503236610313 -1.634141925364018 0.6026930106263205
-0.5322365505843948 0.8387154376637862 1.036046676387474
0.3662736942825259 -1.910556478152373 0.1477354393890442
-0.5011485870111307 2.813134917516751 0.5972844747713078
-0.5898446987867201 -1.103650082636025 0.6798148639275015
-0.3467473230714864 -2.292083496281276 0.8687039233614389
1.103972620137653 -2.017046913964962 0.9392572071629917
1.028993122297016 -1.418920224700831 -0.1849857290287106
1.068811256317694 0.7237922707866497 0.1460207579189855
-0.2801051096254932 2.352470812504295 0.5389512566811407
1.193339859856287 -1.021193494709987 0.5085592815115948
1.174999715675816 -1.216161548118399 0.1799233795215236
-0.4597707003409646 -2.176347943486565 0.8826929056783638
-0.5967147128590642 -1.409736915371947 0.6004104706011092
0.4552353167466554 -1.868847567515682 0.9980920812497521
-0.5940780840543362 1.074012780909999 0.3675050935950349
0.8697017406868942 -1.28992781203162 0.04790046914886307
0.3299914414353464 2.843277097233652 0.4104195940916033
-0.5870854930960404 -1.165026550895837 0.3385141114599165
0.8558635711963929 -1.332963202434704 1.083872188023495
0.4429756688009606 2.843090490579518 0.4104195940916438
0.472726249408742 2.283655998657602 0.2330579297919701
1.122342392113098 -1.759972726430382 -0.005401542349736912
-0.5594358326254593 -1.268300863118569 0.04331782382383075
1.197697086366332 -1.269503877968464 0.5974298229998065
-0.3289595796266516 2.540620092642812 0.2533622096068688
0.9590652447478766 -1.186059217158118 1.096008300288704
0.08185475766216102 -1.590076460002613 0.1352528866682483
1.20522066592945 -0.03787520166736715 0.6722573540498387
-0.3435284937477791 0.4456147314716526 1.170547854624882
-0.2583780609989792 2.018798194608414 0.1471320332832967
-0.1828160278686345 0.7284390462985954 0.1401325226166781
-0.5818214301597688 -1.81885426236356 0.383937175562018
-0.5404464839458549 1.651516972778569 0.936001058143755
0.2818600272027907 -2.432660354056479 0.2406836749427145
0.3303390192053014 2.842604685842317 0.7690906142613073
0.8527560487350908 -1.488981435614015 1.066957969474093
0.1727217886811127 -2.235655813285475 0.1624011341899518
-0.4593317532735893 -1.736159438485749 1.022581188576357
1.194491936538749 0.7201672285997669 0.2744526636519089
-0.4924753562536312 -1.035223654572619 1.102830456666104
-0.5546272794138081 2.109547436563853 0.491275083613133
-0.6016216151321677 0.9283127101864349 0.5499806218569703
1.198537840800327 -1.33383017002711 0.5992631553738812
-0.5873130580619168 0.6508810731313567 0.7766366309025015
0.2483613386815848 0.520512294540348 0.6835620166777283
1.177455129042537 -1.935623085530351 0.7117484782628024
0.3538954602569478 -2.463290025628385 0.2983065025655627
1.003855969520038 2.534793718207166 0.2533586115683054
-0.5496426844242666 -0.6665791945162578 0.1849628225681459
0.3710521995211897 2.074149219353124 0.173423062543704
1.136508863341939 -1.876525468783779 0.183848878978401
1.034737937156252 2.833197421566671 0.5410129930352785
-0.4187863178962515 2.266671200132148 0.2363659172566218
-0.5716376452197873 1.712925779125622 0.4912055424243246
0.2501021533464068 1.965699644044774 0.5016277798164089
0.4715230190421099 -0.7891209506698025 0.1409808372971791
0.2127841910197192 -2.354187071519116 0.1910674360933964
1.010330604960691 1.029887637991036 0.6734435450250202
0.2483005067718581 1.4940856956906 0.4997473945800931
-0.6051168682234968 -0.2565533658534125 0.6016233357328611
0.2128064162484975 2.837085660450384 1.069298066171843
0.3769641181997294 -1.171367501638425 0.1388145695774093
0.4058881305858282 -2.515054129162423 0.372946525970475
-0.5452321648601015 -1.016586715756939 0.1848151968474809
0.3444520723571639 -2.235900327294991 0.1624011341899385
-0.2608852076740271 -1.797404876694101 0.09793412186269301
0.08163604142339627 -1.513477534811035 0.1348783635282286
-0.2159995357740208 -1.909934164329482 0.1464429165324257
-0.4960238774912231 2.393471207772108 1.053111024213025
-0.579000958989166 1.214581542419128 0.7837179893101151
-0.3976520126788813 -2.10157482465774 0.1560489369943448
-0.5510991282528546 2.172728199313721 0.6636040557105657
1.188218619052808 -1.81885426236356 0.7118670142627648
-0.5165139546066392 -1.411521088706775 -0.1204195849154332
-0.1642195926736809 -0.9513495787916938 1.153602013048211
0.7666471584666336 -1.036518032512514 1.107973415666441
-0.300514233319692 0.1816328968915441 1.549217926042054
-0.2843114732023406 2.166054472398902 0.5381807159309038
-0.5928540087295809 -1.269503877968464 0.3912912574000647
0.08732791516892542 -2.483910292525792 0.3414641313841309
0.2257382935254301 1.343954222352541 0.1384306282502422
-0.5355401007882539 1.712925779125622 0.03359222238637592
-0.5466152129656792 2.25302941793247 0.3747211079193112
1.1814008559423 1.378468440777454 0.2903494705963821
-0.3473623399300727 -1.232822672359919 -0.08971785196425147
-0.5828540942627838 -1.269503877968464 0.2714047882276184
0.8438600740717133 -0.2734140468553961 1.50539688221257
0.7907013310296385 1.803251948662347 0.1231899334782989
-0.55418451086455 1.843145320778964 0.782388003871199
0.8776722287577361 -0.6751845611705413 0.1406226340281765
0.5605970250932409 0.1817237381974028 1.549217926041994
-0.5578953572168534 1.973477720461486 0.4322762774719349
1.197287550621571 -0.917614276210977 0.5877575592083681
-0.5595158978572844 -1.934287099605992 0.2514686398959996
1.192018513031862 -0.03787520166736715 0.81231501479261
1.099358971449499 1.844285610937748 -0.04679198196872061
1.116057914780476 1.810368775657278 1.04886284854131
0.6824253688518517 2.842220387643739 0.7690906142614069
1.165740248078048 -1.99250481324486 0.8739154168704726
1.0755904251595 1.94726483766856 0.05300704067968068
1.167230718943783 1.778986835632541 0.3704361290884871
0.04714498737057322 1.96527498815243 0.5016277798164456
1.020773564819973 1.58499325464895 -0.1794355684323488
0.5219462548995727 1.956044646308718 0.1438196487177709
0.7975402078143949 0.8171026432959987 0.4963186938121659
0.2296957611366525 -1.857494033841961 0.1465738574041829
1.196490864604799 -1.216457630155472 0.438712858563017
0.1488208251258933 2.030474580645153 0.5025324568893659
1.200940847306155 -0.5333703746182505 0.3638163721787707
-0.60568501490486 0.2245875051695258 0.4911139149383388
-0.55418451086455 1.843145320778964 0.782388003871199
1.200832347186471 -0.7980139153989601 0.4696342546311241
0.9381040621544549 2.067713506600136 0.1705903052990612
-0.6023764149680366 -0.03787520166736715 0.6722573540498387
0.4581230384305465 0.2955455341813313 1.543643888038889
-0.4660715417886252 -1.248668222090318 1.088336270763688
-0.362867521580175 -0.9024080820388428 0.1415077412030452
-0.5891143686314679 -0.9150635442088989 0.8073521825493732
0.7975391025976044 0.9139426415733496 0.4980213383067442
-0.561106215463186 -0.8916454491296183 1.079183766806724
0.7860225493908154 0.6619445371314395 0.1400445256786875
0.9591842024266251 -0.05086156906249094 1.523988625793195
-0.1962242014781386 2.201145950259166 0.2164266054318113
0.3574225485814768 0.4940385479083014 0.1399723512738401
1.064103180470761 2.523461673596352 0.2560704298600457
-0.5416969197793802 2.172728199313721 0.7837537770474279
0.4447836658395031 2.842523829064847 0.5410129930352399
1.184665681121182 -1.81885426236356 0.383937175562018
0.5659283176439709 -1.192423062990121 1.096008300288656
-0.2515928933485636 -0.8359417638833877 1.231227694272808
0.2484759356142833 1.562452661281014 0.4998123410818882
1.003434220905345 1.487549072876541 0.6735791605363624
0.1415738793122986 -0.5873897404342097 1.38414743811391
-0.3434351284955641 -1.283192016773066 -0.126778258838698
0.06226476159658615 -2.201781094855632 0.9042809530307556
0.9367304531520244 -0.9453815116235775 1.153602013048216
0.1790822232525934 -2.462596836616212 0.298306502565626
-0.5813853815250187 1.511911868228503 0.431987499025922
0.7902118841573533 -1.722914926669581 0.1237454547344845
1.151168633385723 -1.420730884474561 1.059721640088232
-0.3563399514652113 -0.05086156906249094 1.523988625793195
0.7349417175194852 2.700336703111442 0.8762501075351319
1.047790732277218 0.4408689369797654 1.251661766215767
0.2342135758925071 -2.533765225632643 0.4204377749447769
1.102779588575224 2.813047728713969 0.6597980572798907
0.9674257345934887 -0.6730358875199076 0.1406226340281765
-0.4347591354697532 -1.225430350671752 -0.09751241002425481
0.4457903875377166 -2.202098654262801 0.9042809530307223
0.7931430111906926 1.984904275727426 0.1419368330916037
1.160933627293692 -1.701474700705177 0.06114562294756725
-0.591006977351529 -0.6767060276128417 0.8049322722617461
1.192302887092101 -0.1505397628051659 0.8113085595012173
-0.6029564899357218 -0.5343013411759275 0.5432901532327207
-0.4449861690086968 -1.916314501878682 0.9781391979260827
-0.5801050820100667 -1.634141925364018 0.2680609450341634
-0.3364960129661258 1.982746854203664 0.08676605128055506
-0.5486943178866615 2.510455116004525 0.599942459803072
1.006736677491616 1.322068553274052 0.6742309733569256
1.156977400394188 -0.5172328448180622 1.120587300961258
0.07655054541383288 -1.202180725475643 0.1384230691538742
0.7907999795674586 -1.764878782040066 0.128869519722282
-0.3008714186575576 1.082960641882088 0.1389128598639101
0.3573187447998901 -0.3930678731364991 0.1401906713467929
1.165411180257131 1.907169439705435 0.4912411002376184
-0.3682885405857669 0.3061886565514481 0.1399706125153723
-0.5874516079452653 0.5788882220100424 0.7766858431524985
0.05253797609340609 2.247347550418459 0.5038101124420531
-0.08258880117724757 -0.1552958834592932 0.1400080280949661
0.1427200673184635 0.520476167611507 0.6835620166777487
1.207377012441562 0.2229317594045504 0.431760365388045
0.2477840645685636 -1.09293836189456 1.096946722593093
0.3533070509558176 1.833591137966485 0.4998269672135728
0.2388165692939059 2.543368026865521 0.2533631091164591
-0.2592323412349873 -1.513145967539948 0.03105929299951094
1.107212210858345 1.27250418485504 0.04572063848105751
-0.2780297535534484 0.08510964475313546 0.1399717714877418
-0.1825766302300735 -0.3927961757628106 0.1401906713468352
0.2128064162484975 2.837085660450384 1.069298066171843
0.604914853406452 -2.300767234707696 0.8840648825568108
0.458173601323756 -1.62902166279467 1.048226324778568
-0.5601553140057063 0.9319745646581008 0.9321723134117885
0.9037156696189712 1.082960641882088 0.1389128598639101
1.180364547387384 -1.667261276515712 0.9970295923099903
0.1453068445215807 -1.690831498492105 1.037603407502371
1.114886343937437 -2.002407219651722 0.1829159394102527
1.149459463927093 2.25302941793247 0.3747211079193112
-0.6056988238653633 0.5816290438113908 0.6020467775603501
0.9033584842811055 0.1816328968915441 1.549217926042054
0.5760678738118008 -2.387396236486677 0.8644490433137779
0.6109602677695116 -2.431180099383221 0.294047376687765
0.4621693007172532 0.8173532036721171 0.4963186938121186
0.5726859973305744 -2.523884479698037 0.4204377749448923
1.196199382394876 -0.9176986047848843 0.6701292054078626
-0.589314054484791 -1.103859589356665 0.4406896030954879
-0.1939593961254015 0.7384042476785648 0.4952758579175128
0.892298424572922 -1.512307676259359 -0.09353651595373276
-0.5328024931942388 -0.6433072544920921 1.187779899786678
0.9969445477379265 1.689220363039124 0.6737236658011037
1.148798625697429 0.3542328074628185 1.144245867788629
0.5223752476095259 1.985085054622546 0.1458016326736597
-0.5805155772929838 -1.877910626131011 0.8087330975186265
0.6690442018331917 1.209813007666671 0.1410802456767843
0.5953113539962451 2.743384051161329 1.053988254302417
-0.2907937288751181 1.916782895811385 0.01469939999382447
0.351653647300437 2.247838767796043 0.5038101124420122
0.354681494515033 1.423854350523289 0.5000229809201644
-0.5113417793288811 1.874508045085732 1.049546210964545
0.9104801509016681 -0.2715404727353237 1.50539688221257
1.031448290598711 2.213534748343922 0.8941803049287995
0.215972784907377 2.843196564168515 0.4104195940916208
-0.5380792634273471 1.785266256976902 0.9410648100719199
-0.5228349734759374 -1.17165474645352 -0.007154907714775682
-0.2821039313743714 2.244154650381388 0.538576465633328
1.196490864604799 -1.216457630155472 0.438712858563017
0.3543535414156028 -1.41475850914837 1.075395483847839
-0.5459543747360153 0.3542328074628185 1.144245867788629
-0.564386467982369 1.778986835632541 0.3704361290884871
-0.6022124636694572 0.5006139741338698 0.6653250666531451
-0.2870575497775199 -0.9051443760397029 0.1415077412030452
0.4262181529561166 2.778609679085796 0.2593114155354101
-0.6058238294676417 -0.03787520166736715 0.6029388643120544
-0.5359498254174629 1.849417865640318 0.9412425003249072
0.8438600740717133 -0.2734140468553961 1.50539688221257
-0.2541181900000941 -1.256001339550165 1.091512984284633
1.202299818598736 -0.3845873371909629 0.3648370351987815
0.3528483580272183 -1.86905473156845 0.9980920812497296
0.4953898003826189 -1.910345088647647 0.1477354393890547
-0.5687634089977776 0.3503871165831178 0.9981290026015062
-0.4555753250107201 1.405704823005534 0.890031752657916
0.5788937790913999 0.3066859376018836 0.1399706125153524
1.203543268715189 -0.6750694050001495 0.4782008489726973
