0.9930529483838206 1.912541886774157 0.7497116141710254
0.7997953125535872 -0.9355413996284516 0.1084910102086158
0.6457705566023748 -0.624446227446841 0.1810430705184528
0.6324007035257541 -1.145776727806437 0.2556986082422322
-0.7911798838798632 2.98948475133331 0.9647011767773377
-0.8567655207440226 -0.7494607011969644 0.3585150915570017
0.5639988604516689 -0.5286457617324799 0.2328978547288133
0.30727059059877 -1.442184663617929 0.2552463955151723
0.8705601077958826 2.949867683617849 0.388031534657049
0.6303917545454763 -0.6906226841858985 1.189140767509586
0.9558841953596301 -0.5771049546882776 0.3663600611482398
0.7997953125535872 -0.9355413996284516 0.1084910102086158
0.958245944427393 2.516116316284231 0.8452334891083325
0.5581616221290933 -0.6310920571392783 0.2236911252391882
0.5371402049863722 1.664858226707477 1.808264745556385
-0.6078486830197803 -0.4196481007498083 0.2414991559185785
-0.6075543659653342 -0.4567046538376324 0.2145565941296485
-0.605208202399234 0.7692776436443911 1.765475188048004
-0.7770715442207337 1.987550066255841 1.55287133916698
-0.7363083655647345 0.3215199672415883 0.2814823227797345
0.9306489867195653 2.193681343367921 1.307763728603218
-0.005302326444772146 0.1964315228383948 0.2286671645966887
0.09392664781354701 -0.7120311271074613 1.192668535033107
0.6398149926864264 2.320381388553144 0.1695736125346596
0.1963278547130674 -0.5923314443090048 1.205814969711774
-0.8801720011456702 -0.3012590846473393 1.12489957459513
0.1136637136022301 1.867581283621941 0.2298877020552525
0.9682645723340646 0.5533906408810325 0.9382727171870304
-0.628064900626769 2.860518264538898 1.330639210957001
-0.7254018144234328 -0.4595950494266531 0.1724165933416276
-0.2113936167600435 2.497458053696434 1.823467608116043
0.1929089923822137 -1.553205207098939 0.256279856663388
-0.3240006393317459 3.06284077595625 0.6950838050865116
0.2588407319122414 2.042980487430103 0.2262343200673755
-0.2074272812512262 -1.704884623927124 0.7972474956692874
-0.4536519336453165 -1.155090298206086 0.2539590954822705
-0.8283051553255389 2.938453480064604 0.7350841310426819
-0.78571007933273 2.894931892565917 0.3691903277151706
0.8056369232872491 2.276789246046024 0.03799947845938973
0.2497538167564058 -1.157683904225712 0.2432919428529391
-0.4636590363555637 2.585129452730694 0.2389422456344929
0.8162513986637531 -1.089000402570393 0.2635006854133079
-0.7481753303049435 -0.234215665985519 1.366521142951145
-0.3298968288131091 -0.8282295854585623 1.17771949359441
0.7291001763931077 1.005470125913353 1.760048390457299
-0.3244825979260865 3.072290369815515 0.8961028003585412
-0.7685076685114234 2.817676535448326 1.214123223269708
0.9130055372405822 -0.8563027355346878 1.132170367261848
0.6873549885160392 2.174081032714526 1.807247092284932
0.1886823545360987 -1.753158826594235 0.5142561743428532
0.9865565913763208 1.981313240376831 0.6497210128885573
-0.5453389473085449 0.8116712906167114 0.2575919039148426
-0.8644660203000003 -1.059275977717366 0.7394642185150711
0.7188352841773773 2.291529816092281 0.03626265505550101
0.5898968521542566 0.9100322709223832 1.790400306433682
-0.3189479286045153 3.069609490499034 0.9910054534305662
-0.4470714729290256 1.546032806348489 1.805851961580542
0.5539462268363411 1.453629904898286 0.2508533790155065
0.5091400254454259 -1.661476185443634 0.9100848062233928
0.8703054632728224 2.26665820203441 1.551619092728583
0.5532497377733926 -1.084150390514567 0.2426888920858155
0.5541753467651066 -0.04030265023078796 0.2524210028338088
0.2588407319122414 2.042980487430103 0.2262343200673755
0.9712424469559161 -0.4630665532154217 1.126535475894486
-0.5762903756246591 1.905140604341208 0.2379780022135549
-0.8969988160608677 -0.01425457140487975 0.7396173590256365
0.9644636423413124 1.842820899595354 0.3669509943044325
0.4037257279793698 0.5259733665243894 1.779731144941852
0.5154757562481681 -1.443883765988543 1.088487924025734
-0.7770715442207337 1.987550066255841 1.55287133916698
-0.5949785200540881 2.515751476257206 1.7827183074532
-0.5291443741148112 2.263334653157237 1.816972948658796
-0.004904618227907567 -1.442473121319567 0.2461592841482372
0.8119900414339751 2.822085154159869 1.286023986823323
-0.5383796819478802 1.5382340466309 1.800859957039155
0.09953736399524536 -1.281517223924467 0.2425607417748555
-0.002894657122804484 3.079800536665991 0.4054147290834201
0.767385182250885 0.5849269296577548 1.685998469785875
0.9637239809214553 -0.8627964697248575 1.022926225098561
0.3048333194948835 2.288038855389392 1.833146191128147
0.9626007922534785 -1.233527234959066 1.040893493770405
-0.4303157164143469 3.0683956210948 0.9354473106948215
-0.3193484662272926 0.2974314617128667 1.736514205805012
-0.1650866089298186 2.587838566882655 0.2347931823390516
0.1122113420302927 2.699576011479803 0.2396984526752884
0.6349250966064772 -1.221393904743171 1.128716263066603
0.6142494532081773 3.05967326464388 0.9195764277123127
-0.8716236402819562 -0.6030940475660264 1.120228692904337
0.6750141215945509 -1.093601326603712 0.2264866191461408
-0.3244825979260865 3.072290369815515 0.8961028003585412
0.3073709523592618 -0.5922296897509891 1.204546511970954
-0.3178792693447687 -0.989500122209948 0.2357192400649753
-0.6254389558583745 -0.7774239997517757 0.03739874134014609
0.9159576731534792 0.8081690050899992 0.3509805742931557
0.5365694694548508 0.678132511349514 0.250743710550046
-0.2112129417959175 3.070813478400832 0.8530996254810017
0.291031149582357 3.065186003956776 1.037779315667353
-0.8904106946539472 -0.5771049546882775 0.9779014697455296
-0.3211687530198382 1.867418668795217 0.239626637386102
0.4273826875966996 1.594462194554071 1.811710827366261
0.6910470300227546 2.031275097322318 1.802380050198591
-0.8789187763713097 1.981591538349802 0.3732753084687243
-0.3248293814254361 -0.4361664582339948 0.2397489789513222
-0.5312592504962129 2.18994913706077 1.815164145127669
0.9537695504087174 2.516116316284231 0.6511822467980624
-0.4620950534172696 -0.9291088090590879 0.225932055569577
-0.8510424242155072 2.452938908369368 0.3783792436103759
0.4121092195845649 2.561641828774744 1.800184158253049
-0.003288011264552811 1.332378797980276 1.828357809040871
-0.4471579144127407 0.5488171491729971 0.250792272776505
-0.781015065372078 2.26665820203441 1.551619092728583
-0.8841878213019532 -0.6925532546780648 1.050362971723465
-0.3511519787743859 1.457617959636393 0.2441625619866723
-0.1715499347495384 -0.4738845103391646 0.2315455630550803
-0.9068095288040453 1.834428956693026 0.8450750001958733
0.5365694694548508 0.678132511349514 0.250743710550046
-0.005340748535687931 1.235655137769514 0.2279702457186021
-0.0025463828867712 0.409834814462097 1.778137508421439
-0.6806432515611844 2.050989554074898 1.775422712434283
-0.4224354602472434 -1.727369524656546 0.7261118560306937
-0.6465890432396454 1.722984822712946 1.785160088923496
0.5231227391269657 -1.024553583562534 1.153904015474895
0.09129635280179277 -1.742583222503646 0.3786146564422526
-0.8784348023589934 -0.6925532546780648 0.6322256933632936
0.9923477522938814 1.628076176953905 0.8450500148961155
0.7926414231526692 2.602382798300448 0.229329126938034
0.9792585544714858 1.98144540383411 0.5219177370450269
-0.866431823390527 -0.9881499602951358 0.8927204485334415
0.09462495003204603 1.766676844898857 1.830474446694691
-0.8707828996877913 -0.9223764684395002 0.9259920672164563
-0.2139779393600468 -0.8924860482263158 1.170256360941023
0.9339258968898099 -0.6925532546780648 0.2108343622881631
0.9802388012600177 1.981290286545967 1.126843969943043
0.1923628923373053 3.071008597530002 0.851815082142305
0.7895524462296388 3.026076976973603 0.5295632007280847
-0.2319276107483294 1.576634850459555 0.2383011305124873
0.9432500351601494 -0.3102110702171308 0.3591432378036374
-0.8471301183820925 2.260377844093023 0.2126403946294594
-0.6925469628246689 -1.643182424735216 0.3388968123685292
-0.3248293814254361 -0.4361664582339948 0.2397489789513222
-0.3163164862749121 0.410223980085623 1.763560221121867
-0.7105342098265171 3.023553070697892 0.9041214639279895
-0.6115599353861084 1.849667256297538 0.2490082642881431
0.9382079050758612 -0.01425457140487971 1.21820859865437
0.2915625631036874 -1.72451635393365 0.3183635882670504
0.4138787471100364 3.069573942593826 0.8546685263656657
-0.5006064542535121 0.9100322709223832 1.790400306433681
-0.3376427955437119 1.765069265462612 1.814862785636596
0.8714526443206108 2.88289880156331 1.142276021278311
-0.4379332745398235 1.450827817339758 1.80626268562129
-0.694907845148652 3.021622449129549 0.9986760296022624
0.09435332804903779 1.985142717474289 1.833578439287803
0.4090922750871178 2.261301340942269 0.2267233877387402
0.5281722120442386 -0.7615206926597449 1.184179665537742
0.4614167429280249 1.669224485907897 0.2450182684565981
0.1901193384878619 3.07966428514504 0.4085355525108947
-0.839033481632335 -0.8058982566652967 0.2172019302094253
0.6994320483666423 -1.702833335671837 0.6096982378814402
0.9076276975056818 2.941461800397179 1.01707214163833
0.1146448143384018 -0.5304186156184346 0.2253151798647809
-0.5922014961769158 1.435823551420689 1.793491758625607
0.922917781147541 1.926169777231461 0.1830594437514765
-0.4734908463190919 -0.434683429682063 0.2444008359532349
0.7819241249124286 2.3304122020739 1.779729828716691
0.8388934843093192 0.2232012132259475 1.473402181288173
-0.8367440820034044 2.888412246394749 0.9249429519789815
-0.1651766888729717 2.331150472689163 0.2248965594643278
-0.870674818574579 2.325026903121195 0.5243563711201096
-0.514136869141651 -1.64157959527253 0.9118831968213809
0.350011725735702 -0.1925889894237167 0.2403533251912129
0.9678693764887816 0.2168684230012805 1.015531959719742
0.8920959482471025 -0.4026115182304828 1.232830155162485
-0.6520970702563175 -0.02777792289220404 0.265980980364995
-0.5083622859885657 -1.605550602171443 0.9815775550655184
0.09211485926259649 3.032021775263148 0.275713538090094
0.9013430501295796 -0.5804709580785231 0.1224181184914075
0.1949039529203796 -1.110804187050782 1.148194643155825
-0.8999713119116923 -0.3012590846473393 0.7305550269839738
-0.744754624862489 0.3314564454552366 1.499567081399072
-0.3244038089863736 -0.57607246138823 0.2329910076766077
-0.666341506812131 1.839421951278565 0.2513631227297385
-0.2112243127629672 3.066019634982629 0.77867464939246
0.195531381257909 0.05571881319583435 1.640601375832239
0.407916444183333 2.587684839821786 0.2405276072500491
-0.3355651976986321 1.983213641031001 1.817905431720116
0.732535404738354 1.136110074054156 1.764629599224997
-0.6282760039800289 2.357448626490172 0.05259859401170463
-0.208560856688843 3.075353311535516 0.5120083498466113
-0.818933672879688 2.661473280999218 1.196524959612822
-0.8660629676608287 -1.059275977717366 0.8650997843235213
0.9257097813933188 2.388959265267362 1.27389018177874
-0.8693817350104235 2.516116316284231 0.9989145293256705
-0.3134708506940602 2.699300017862421 0.2493179615244607
-0.4297182248674993 3.058543703376944 0.6984182161642135
-0.8986122551907968 -0.01425457140487974 0.9235452309173876
0.7291001763931077 1.005470125913353 1.760048390457299
0.6890372936616402 3.030334390464156 0.3578702751648065
-0.8642473348864084 0.3251326474593458 0.4966356308470074
0.9576967863039129 -0.8627964697248574 0.6288542345675618
0.6209771187673041 0.06523705023934799 1.624507876354403
0.4080724694112204 2.33101736688113 0.2307023575304302
0.1974869170174287 0.1964582548749577 0.2326712293974698
0.5865991100472109 -0.1870238020956551 0.2533031740003294
-0.2184731830981172 -1.180368743136875 1.139409316790554
0.09435332804903779 1.985142717474289 1.833578439287803
0.2034004812705355 1.502165271491466 0.2322629566351953
0.9159576731534792 0.8081690050899992 0.3509805742931557
0.7215155221873578 2.793172546184021 1.438409581738958
0.8692253121749131 1.8403267683358 1.552544923590465
0.9740760776716095 1.466802519998878 0.8450364768546463
0.535337503245843 1.868861766142113 1.811187972458435
-0.2462958612643899 -1.281250700238023 0.2521454079162712
0.7068296202507286 -1.501679037956142 0.2826829025677142
-0.851305646004164 -1.0579698329147 0.4725654133230763
0.2949691544644097 -1.760874281359011 0.5939809902598381
-0.4671927433770732 2.832442162992301 0.2652984126719018
-0.8489175071751166 -0.01425457140487972 1.21820859865437
0.4009761493850013 -1.721312707580205 0.3193612842848365
0.6534291215515032 0.6487048957744855 1.771555934927084
-0.8980606204324084 -0.4075013461908811 0.9800031119103538
0.959282102873336 -0.9223764684395002 0.8055130931112218
-0.8659184190179006 -1.321188501767804 1.021931943414813
-0.8567655207440226 -0.7494607011969644 0.3585150915570017
0.1915761056686262 3.067838317087094 0.6041098782974358
-0.8148289467974471 2.885327135798298 1.073188029825603
-0.2129282859735897 -0.9612088987051664 1.162125461997673
0.9861233979186167 2.052944084727549 0.7498147606250276
0.8743661039384182 -0.007905545691469725 1.383914998015063
0.967280516979098 -0.8058982566652966 0.9368308249875668
0.6916377817940458 3.043459148357015 0.9934836082742125
0.1874747521191613 0.7781235300194426 1.806015278646737
-0.8178807827284129 -0.5249604892929527 0.1471128376309459
-0.8739342138132542 -1.13117036266785 0.7841176768348459
-0.002583692944699246 -1.761206173912909 0.5886087743810413
-0.7433461589159986 1.940111981096134 0.1502337521716643
0.5181862778973085 3.067772088385 0.9595819085090389
-0.7526476258481705 -1.05318614246066 1.137494917501107
-0.6309624357932896 2.917393444277627 1.245721710484503
-0.8664204551372315 1.982168837398243 0.2384882193435598
0.7586403573689479 1.456837068890968 1.765625936357012
0.7259326690882004 0.4315550808738294 0.2644857370067874
-0.8828295394169983 1.536449288279019 1.124406855024492
-0.2026371402702872 -1.64001979581448 0.9785172550001837
0.4348847164010867 -1.348997509290597 0.2594491346178734
-0.5740431670905264 -1.186332406549535 0.2685510497715382
0.925782293005109 2.82852700132934 1.039722496029713
-0.8841878213019532 -0.6925532546780648 1.050362971723465
0.5338005389886504 1.513856946663072 1.805509922151851
0.813098639304044 2.224904700761215 1.72377425660749
-0.8657404366860941 -0.4120881919837668 0.3668938904757255
-0.6293692599201224 -1.077431250030199 0.2182898885933842
0.9222228486372427 -0.9828649478853739 0.2540927358196886
0.4273826875966996 1.594462194554071 1.811710827366261
-0.7379607239106328 1.997755317500712 0.1078089947007281
0.955177924733706 0.9370132711896458 0.4962025481190301
0.5839472769181578 2.963555884421133 1.255102768653611
0.530746545238363 -0.3394481048340348 0.2468528197828356
-0.8774782937114554 0.5533906408810324 0.746951310017961
0.7138005553579679 -0.8349700270901826 0.05111240987753411
-0.8375313023401395 2.829767903987003 0.647632040218871
0.7382195884397893 -0.469302900256062 0.1687394102792157
0.9388870107045324 1.91254453968878 1.311885629689191
0.7308317359002703 -0.546237350531523 0.1022884177205071
-0.5564801587016307 -0.624446227446841 0.1810430705184528
0.9705678776711271 -0.7494607011969644 0.9962462723369278
-0.8914351810862287 1.626856557082846 1.12546715520787
0.6905382613018349 3.050462409109859 0.4328272260887332
-0.0984472072202833 0.6480302999588617 1.799950607295156
0.9560313592413372 0.807809843439443 1.124463469926816
0.2987022030431947 1.332289117041857 1.818638532830321
-0.8522709131423438 2.664357621910061 0.6489895409314764
-0.5431103056250096 -1.145776727806437 0.2556986082422323
0.4107326018613127 2.188918296506001 0.2266911329993262
-0.8791280703192718 -0.7494607011969644 0.7577709583703922
-0.20567875656365 -1.760874281359011 0.5939809902598381
0.4130051347666478 2.114345178355871 0.2289026474614528
0.4084155913512733 -1.701707196153132 0.7992455789015349
0.2209461712107474 -0.1926586359322379 0.2346176342502641
0.9537564182007448 -1.059275977717366 0.7394642185150711
-0.8982883077166759 1.62846504046901 0.6448942936544422
0.766417281273084 0.8393192461849646 1.70001029865877
-0.8516838118257811 -1.471851630739436 0.4202161589039872
0.2865961159333991 3.034878692653697 1.177448485907766
-0.7492461140898523 1.33432617692911 1.547520028733842
-0.3237147368658879 2.114345178355871 0.2289026474614528
0.6892801128436464 -0.5122109024007868 0.1614002463722263
0.8867464510821309 -0.8098796717842973 0.1054967104496391
0.9242669857261063 -0.9213194659575479 0.2391688464000596
-0.005245392958554874 0.309532898628898 0.2283569048617711
0.713828859346834 -0.8929857596473667 0.0746471165768253
-0.7940505067128812 2.98948475133331 0.941822312754941
0.9409742097265257 -1.471851630739436 0.4202161589039871
-0.8364918951043643 2.82852700132934 1.039722496029713
0.7200283415648899 -0.3283566056940322 1.319089309468243
0.7734683436562153 3.031001916618469 0.4357128529768926
0.9732073373413708 -0.6925532546780649 0.854370285485287
0.4084155913512733 -1.701707196153132 0.7992455789015349
0.9762203522586186 -1.265319610263468 0.8968185406891721
-0.8689062445233817 -1.466552465380298 0.7872131516319928
0.5215213498044283 -1.538727274045707 0.2698097922868846
-0.7096732088947981 -1.656078992090347 0.4037271152348088
0.7803009507131287 2.632060578037297 1.637747667071116
-0.3721263450272804 1.669224485907897 0.2450182684565981
-0.5249590553074329 3.05967326464388 0.9372668613259403
-0.6409002477070417 -1.30341472769106 0.2793732798938999
0.9830457711588171 1.734244555699719 0.5048244291151761
0.6346293452092894 0.8116712906167116 0.2575919039148426
-0.8743265089776738 1.211646231163645 0.6441996180028308
0.6565618462554114 -0.4897879512833839 0.2173289471636556
-0.599599942587125 0.07161339650521775 1.618529941658896
-0.8632937837011483 -0.9881499602951358 0.6888210902051173
-0.202272165202937 -1.72451635393365 0.3183635882670504
-0.003614007906411816 3.073864907574442 0.8931902174883002
-0.8777854630329691 1.068050174746761 0.749506587050975
-0.8428551266076034 -0.9863259844211704 0.3608877205200637
0.593398383584224 3.05027149888335 1.039558729239948
-0.2027463157659133 0.7781151879303314 1.800418254455879
-0.8679381278740187 -0.916007759303198 1.039225231459098
-0.2032056576428115 1.048654630150842 1.811964118740814
-0.8819276596062216 2.260377844093023 0.6504766638521549
0.7265286992995519 1.075784022583575 0.2643160701091798
-0.3182631183452109 2.529846427812093 0.239352173186962
-0.5482265726502824 -0.9788188876651066 0.1959047322804361
-0.8166322648052491 -1.534809184943978 0.9423105399621355
0.1065736155978981 1.776497433106816 0.2295448525455645
-0.8894921957237112 1.538216103412268 0.6443840367171284
-0.7231671501929002 2.672742788825123 1.502018915747233
0.9766951843943568 -0.6349450606201816 0.9246672618910194
0.9339258968898099 -0.6925532546780648 0.2108343622881631
-0.7542711636100348 -0.4065770459565484 0.2522621504600559
-0.4322309519036839 -1.538727274045707 0.2698097922868846
0.6040047521297929 2.746174050871355 0.2624031289645555
0.9255601885477929 2.517105699015493 0.2629789901131674
0.7898885296797297 2.911757954998144 0.303014919943112
0.638191919415383 1.351828027517527 0.2575928674780936
-0.3106647544099475 2.870017979066708 1.454872511456561
0.6923091007697813 1.951387534132883 1.799992736642481
0.7567616433528169 -0.07010331672962392 1.509445674697623
0.8692253121749131 1.8403267683358 1.552544923590465
-0.4648849488643622 -0.04030265023078797 0.2524210028338088
0.9791001452141456 1.630020494529433 0.499152315920311
0.1975230036717056 1.551735955919188 1.822372810664792
0.8349008908791251 1.215467592896312 1.546521165159825
-0.5075821653395977 -1.70621396541779 0.3945787077510742
0.09368627988384506 -1.342432343497518 1.113236531041189
0.4136942068871332 -0.57607246138823 0.2329910076766077
0.6345930203134278 0.6780994577532726 0.257603955094346
0.86433913295652 2.05922864609466 1.553746334046423
0.5731981642703623 1.911439119472125 0.2425929164000087
-0.6447943308397645 2.659979931241851 1.651706892079255
-0.7422538351691931 1.876838688587502 0.2241950927474258
0.9237719193963774 1.468934250246565 0.3511956029704777
0.9533797557876464 2.583677403973144 0.9972521193717863
0.9388553645299084 2.753772985970742 0.9322085018152669
-0.5663090354571455 1.563142978253108 0.2581381893489238
0.9862892139616122 -0.01425457140487975 0.7396173590256365
0.3093401822561404 0.4256284986665437 0.2379154037380073
-0.9005472972626726 1.981280199512511 0.7497594585196636
0.983488154449544 2.124337567900328 0.8451306392134358
0.8833409046136256 2.98948475133331 0.9418223127549409
0.6889456234136333 -1.685116367311678 0.3992433771050858
-0.463067611917399 -1.039964825474028 0.2372103315896575
0.7996970691716754 3.023979277968157 0.9237307720791901
0.09458548822905401 0.4255946089964953 0.2281553808229455
-0.534643828676457 2.045632291573093 1.810247092909225
0.8914033859828771 -0.6962297926742829 0.09355862133256027
0.826921455324098 -1.146716260822417 0.2891731193369803
-0.8308297758490774 -1.288087434956144 1.075477067471952
0.734084728740509 2.659979931241851 1.651706892079255
0.5196061143150911 3.0683956210948 0.9176256766578367
0.9703829106730452 -0.6861828169697417 1.075180602517249
-0.6030187028690368 1.951387534132883 1.799992736642481
-0.1074490633813376 -0.5319185043325947 1.221566052780225
-0.6776137210226889 1.693996784473645 1.769629841691009
0.3891387668506978 -0.3408037745592409 0.2409056990102857
0.5570134827504647 2.186895470340601 0.2189279046294509
-0.09990780075218377 -1.659917817600106 0.2756120736210864
-0.8183372996049376 2.941461800397179 1.01707214163833
0.09324186741372154 -0.9614318032475313 1.163754507698354
-0.907009255974756 1.834350705686659 1.025701546362922
0.6702513237039857 -0.9072472121051839 0.1163075566160306
-0.002425061561259304 -1.753294630417685 0.5116663103820958
0.3728800059055695 1.77634723059049 0.2392879613909863
0.6167877605389334 -1.520071694193846 0.2762354022283987
-0.8176426725412412 2.942343009865176 0.51205375892401
0.7853622947638232 -1.587693579146987 0.3041800956040818
0.2950218525197845 -1.659730297597467 0.2765157367491891
0.3021346058987148 2.430010012401077 1.831365797761888
0.8349008908791251 1.215467592896312 1.546521165159825
0.7327715468180499 -0.7916965962403229 1.175949172466706
-0.8789497554361687 0.9370132711896457 0.8450312901761541
-0.8963817726548882 -0.3019936102995609 0.6321244324301703
-0.6725932758700065 1.487899335807048 1.76606536633057
-0.003192051636476399 -1.457860491528124 1.089036826904421
-0.4094928000898701 2.927642690146997 1.341866788993018
-0.3355279735916011 -0.5302108251320639 1.218932128988659
0.2209461712107474 -0.1926586359322379 0.2346176342502641
0.8340233705541551 -0.9806971640658707 1.14457251005725
-0.6121517151586799 -0.07216093653268066 1.521869497301415
-0.8406492468174589 -0.4265148885286452 0.2613661939284461
0.9674014131847369 2.388955893120064 0.8451960852889722
0.2543770068306392 2.587838566882654 0.2347931823390515
0.6581255470832549 2.884103647995763 1.337410854984581
0.09290210151364864 3.074318312681135 0.9317397428997327
-0.7054409318117616 2.852107028219447 0.2964236903138874
-0.6725932758700065 1.487899335807048 1.76606536633057
-0.8702064777051465 -1.131170362667851 0.6421887764879735
0.5325177898043179 -0.5840988704364878 1.202965482188724
0.9389049538792333 2.753772985970742 0.9941915404617551
-0.6458088271375111 1.558144045299318 1.782172948125964
0.6852528620958089 -0.5573705805205305 0.1369233198123734
0.9861233979186167 2.052944084727549 0.7498147606250276
0.7974578909061887 1.564962423578188 1.713918700855015
0.6889456234136333 -1.685116367311678 0.3992433771050858
0.9682645723340646 0.5533906408810325 0.9382727171870304
0.7997072067324331 -0.8212137721626633 0.0533638028332724
0.1974619490493586 -0.4194696898386123 1.278227398818817
-0.1079141234488199 1.876676923694375 1.827829823649219
-0.8440231614951843 2.325026903121195 0.2195390005745192
-0.8778335623629505 -0.8058982566652967 1.039794296482458
-0.6403919988434222 1.345718267919585 0.2643189356861581
-0.1648997284432288 -1.04239521162766 0.2337134363834043
0.9529487797375368 2.583677403973144 0.8452551906857881
-0.8659318789218953 1.211646231163645 0.4961978399697756
-0.6175392223499842 -1.501679037956142 0.2826829025677142
-0.8624313945121446 2.583677403973144 0.7503289303973426
0.9242669857261063 -0.9213194659575479 0.2391688464000596
0.09428802916171014 -1.180621517417473 1.140758430743983
-0.004783388528574706 -0.6525806545191479 1.198118328002741
0.960078113527537 -0.9223764684395002 0.964873146245452
-0.8658830905443562 1.33278485146676 0.496203019237571
0.9684498352049369 0.9370132711896457 1.024182479918623
0.6396322735180732 -1.321410901415686 0.272773904133911
0.8828775231336379 2.982043902367237 0.7184176949456667
0.4202303546505091 -1.108276950949836 1.146649603392579
-0.6531235569527167 -0.4468198648994938 0.2055537611833262
-0.6883647535424863 -0.2167865816662574 1.395688278863243
-0.744754624862489 0.3314564454552366 1.499567081399072
-0.6256171304101625 -1.045358199606378 0.1763245517011787
0.2588407319122414 2.042980487430103 0.2262343200673755
0.09374863108066275 -1.110904054192592 1.148788601097496
-0.3176284267467611 -0.9312530359249986 0.2319385846859623
-0.880430542688937 -0.5208678265557262 0.5096416015978806
0.8549294274682545 1.837193800477842 0.2609343901807776
0.6026447951542373 2.653129099081911 1.724832337653338
-0.874556443230459 -0.8627964697248576 0.9608828974171468
0.3014492259947315 -1.553026259943161 0.2599775643273288
0.189591434046377 -1.760753140992873 0.6649509389954895
0.5570134827504647 2.186895470340601 0.2189279046294509
-0.5331705867868988 -1.009355615177176 1.154006125423015
-0.5959170520422928 2.092813513567369 0.110469581688229
-0.6054090078235714 0.9000970164310159 1.770853623308823
0.5123364058280722 -1.678982206163871 0.851468775857128
0.5706808061601458 1.940934276955184 0.238556623668542
0.5531745971075948 2.328804764482674 0.2222103060082125
-0.005338289141554629 0.8137756916781987 0.2279802176320828
-0.8336273832467965 1.926169777231461 0.1830594437514766
-0.6337376601448674 1.423204303698965 1.781600172900833
0.7990521131079285 -0.9885722916402716 0.1441447130499987
-0.1672215549082347 -0.6329427613435497 0.2238670785667687
-0.5359974392199817 1.964899504931327 1.807835249081094
0.09574781581580734 1.426637595001366 0.2280285832190623
-0.8828026650682113 -0.4694346199043122 0.5094121405959724
-0.4620791838579389 -0.8697559065275566 0.2222965655552439
0.4037257279793698 0.5259733665243894 1.779731144941852
0.9629737719751336 1.464715347131704 1.123577369384065
0.9962996538755007 1.834350705686659 1.025701546362922
-0.900433404694675 1.912707091095756 0.6490358907746643
0.8549294274682545 1.837193800477842 0.2609343901807776
-0.7989734048620404 2.941364885588127 1.062809209509848
0.6346351511408217 1.079437500473378 0.2575899777853545
-0.539290096481799 1.655996442656437 1.80325388828621
-0.002227826154590357 2.799442188567781 1.590573823383066
-0.2998483689499382 -0.340803774559241 0.2409056990102858
0.2880852866394722 2.997418556461373 1.258277035074288
0.1925938383429081 0.1815928268044356 1.705133161528467
0.9758722022673413 0.106360617955452 0.9257336223508942
0.1131204031720093 2.398780689236603 0.2270483009092596
-0.6425658875837834 0.09520623059848747 0.2653906401684316
-0.1715499347495384 -0.4738845103391646 0.2315455630550803
-0.8955103184141816 -0.4694346199043121 0.9778540761301781
0.4265131145849388 -0.09076271949425735 1.532587871996092
-0.7580786891712419 -0.6110318510573818 1.184102910535761
-0.4201976843408243 -1.745240943050402 0.6016014914463768
0.9081540285902687 -1.595728295992713 0.5532556070005963
0.8663619421214782 1.987550066255841 1.55287133916698
-0.8897635203041923 -0.5771049546882775 0.8250133165212368
-0.3311220126938267 -0.7688679567215836 1.184488106811648
-0.02292094412939627 2.699576011479803 0.2396984526752884
-0.7159264173397399 -1.659653966848357 0.4753436729577429
-0.1008289405870415 3.079664285145041 0.4085355525108947
-0.8969988160608677 -0.01425457140487975 0.7396173590256365
0.8436934425722373 -0.4946895168084206 1.207153198958387
0.9550308345868388 -0.4120881919837668 0.3668938904757255
-0.6278304031354672 -0.7193988523838486 0.03679133892641878
0.3059210825650541 2.213512450632664 1.831295248231304
0.8176785289718882 -0.3861989614023101 1.260933293073214
-0.4477034589457061 -0.3481111451576636 1.323211216067798
0.1096411736406334 -0.3409421228331125 0.2311825255946745
0.9661752812662577 2.388955893120065 0.750112459330279
0.5201003789586089 2.485753551693022 1.812559124635707
0.1158312665384795 1.91326241599871 0.2293848712138884
0.5366045999795871 1.082946768854364 0.2507296295788777
-0.538695433755645 1.749807336010032 1.804838848065226
0.2924919948102152 0.6480324090182478 1.794397320724143
0.9796507246130152 -0.5771049546882776 1.019157241782904
-0.6498817332746474 -0.500924040599619 1.216122625754043
0.9679290842371084 0.2168684230012805 0.9284953249296962
-0.5554643682703984 2.179194572410125 0.1691131187803954
0.9910624545440144 1.981280199512511 0.8450999446156681
0.3212180086490891 1.576634850459555 0.2383011305124873
-0.6780947843501405 0.5849269296577548 1.685998469785875
0.7819241249124286 2.3304122020739 1.779729828716691
-0.3263575534161854 2.042870531998962 0.2320304703782568
-0.004813336962279896 2.138900921623804 1.838793266162378
0.888938694594845 -0.4461594336247902 0.2003643184152019
-0.8388114675835955 2.325043763857679 1.286916002383811
-0.6473135233170184 2.965758724087657 1.164473001399112
-0.09994034982906073 2.736194815472409 1.685755639476479
0.9768831721595821 2.052966823141876 1.125723105514062
-0.7505387977649394 -0.7826218355372684 1.167453125721042
-0.8065886614738167 -0.6384666432134691 0.1038124977832042
-0.8660629676608287 -1.059275977717366 0.8650997843235213
-0.7193681109703705 2.209355160964202 0.03426744016495305
-0.7726835054486858 2.569870266491628 0.2197855987271923
-0.839033481632335 -0.8058982566652967 0.2172019302094253
0.9549121300631736 0.5533906408810325 0.4963171703986936
-0.3324067927283172 2.21145677846822 1.825347438559166
-0.09994034982906073 2.736194815472409 1.685755639476479
0.9673406224340748 -0.743090291915704 1.071369298838283
0.9683814910290914 0.6779922011898321 1.025004177503288
-0.8779901190783535 -0.8058982566652966 0.9368308249875668
0.184333665634827 3.03506931444579 1.178520096578811
0.5897499204803571 0.7765256763329841 1.784990110333486
-0.5163579054478159 2.598220507083217 1.762439947514692
0.5094880822415686 -1.745240943050402 0.6016014914463768
0.9303891032557635 2.829855070280329 0.7506495378397676
0.642225343788316 -0.6844744825375122 0.172229399246597
0.6290810432288407 -0.08005843869910806 1.526854220616022
0.09367605942963481 1.455951846087296 1.826774833266157
0.1975875473894204 0.6781576933939761 0.2320001311002619
-0.4536519336453165 -1.155090298206086 0.2539590954822705
-0.6068812069036355 1.964950870923826 0.1687735086753146
-0.4125579713824062 2.858839218842562 1.452551479649979
0.9260624679051147 2.888613727921339 0.979546463881109
0.5365997587401923 0.8128612850727786 0.2507315699934313
-0.5740431670905264 -1.186332406549535 0.2685510497715382
-0.8801720011456702 -0.3012590846473393 1.12489957459513
-0.1092946956833104 1.362167642357837 0.2319887079599719
-0.8900870551263587 -0.5771049546882775 1.052627652900969
-0.744754624862489 0.3314564454552366 1.499567081399072
0.921943383031503 -0.6830798906606475 1.151546053325961
0.6135329021911194 3.049905947162785 0.7019827424516523
-0.2180805544585021 -0.5922296897509891 1.204546511970954
-0.2187934879539547 -0.5318216030986631 1.220184000279941
-0.3324067927283172 2.21145677846822 1.825347438559166
-0.004813336962279896 2.138900921623804 1.838793266162378
-0.09750214115286851 2.873130995726065 1.46106070665726
-0.005314119292325276 1.551785045212852 1.826352685886219
-0.3128423380585345 -1.564569882943842 1.046430673228119
0.6303917545454763 -0.6906226841858985 1.189140767509586
-0.01728321769700165 1.776497433106816 0.2295448525455645
0.6095030090622073 0.1891741621040481 1.687115704082188
0.8473690870719863 -0.6110318510573818 1.184102910535761
-0.09939195663527829 -1.753158826594235 0.5142561743428531
0.9868742104529052 -0.3012590846473393 1.045944267776222
-0.8271387114618161 1.334556098936489 0.3509813498603868
-0.208560856688843 3.075353311535516 0.5120083498466113
-0.8111734128760743 1.886794247166905 0.2133356900328756
0.9046562120017723 -1.590915714919713 0.4873391716497874
0.7413874681570621 -0.02777792289220404 0.265980980364995
-0.7427291853070528 0.442545460035012 1.517208972385367
0.2964596950608112 -1.719780954803495 0.7576669847863744
0.5298254319987995 2.203630835840284 1.820268798258647
-0.2112243127629672 3.066019634982629 0.77867464939246
-0.3334270236819724 -0.6506280255066792 1.195004390289632
0.9636169068784182 1.211646231163645 0.6441996180028309
-0.6101416504658981 -1.702833335671838 0.6096982378814403
-0.214891420440103 -0.8302389058748058 1.178652223872474
-0.8739342138132542 -1.13117036266785 0.7841176768348459
-0.2202813550414108 1.085587277069666 0.2377404027074625
-0.3376713794038203 0.8135704130459427 0.2440398394868342
0.6034272670423955 -1.64157959527253 0.911883196821381
0.4294316940255565 1.361193770748203 0.2440408174759196
-0.2099867584631108 2.564165805711773 1.805937109365533
0.7265219890684687 0.8104323946525944 0.2643179801642674
0.4266867037611383 0.1971347353139255 0.2447132098086873
-0.3376713794038203 0.8135704130459427 0.2440398394868342
-0.5603424159499135 -0.5680453690011118 0.1932176157329059
-0.8201946447524371 -1.402521197936178 1.044193744085185
0.9693287571149893 1.424094063044529 1.023400236370771
-0.8571544010582295 -0.8905329227579891 1.086259794621177
-0.7614095063896224 -1.120443013491275 1.129901897531396
0.1923205848717304 3.073728875983539 0.8938735335391088
0.9145083678088306 2.583013369497649 1.227353748131467
-0.6078486830197803 -0.4196481007498083 0.2414991559185785
-0.6457321147550754 -0.7337783213104636 1.182547114197477
-0.8907481033633152 2.193639127846912 0.9389954797042335
0.9841612267812397 -0.4694346199043121 1.024243308739715
-0.2032056576428115 1.048654630150842 1.811964118740814
0.7188352841773773 2.291529816092281 0.03626265505550101
-0.2074272812512262 -1.704884623927124 0.7972474956692874
0.4163541915699608 -0.9590246651679779 1.161319727672734
-0.5453679769662063 1.227186204849671 0.2575822732674026
-0.004201681673871605 2.360595548336222 1.843573775888828
-0.8392227862724978 -1.199928969210705 1.092709417394745
0.2931951845052671 -1.746363200419113 0.4503484872304158
-0.2048379738609875 -1.752963815997087 0.5179751485564597
-0.8845494061680082 -1.197870997617571 0.8163002039500228
0.9673406224340748 -0.743090291915704 1.071369298838283
0.9090051382330852 1.209886870383062 1.30696838402822
-0.4046492428635732 3.023404458128296 1.176275837072599
0.4191872267138536 -0.8282295854585624 1.17771949359441
-0.8785373601511521 2.38895726262583 1.002641251401603
0.7039325037436025 -1.648178167903151 0.8067690622817788
-0.8632937837011483 -0.9881499602951358 0.6888210902051173
-0.4670432270742093 1.570841892155668 0.2512819069325117
0.192313533627468 3.074182255725795 0.9140046530937261
0.9877309027291642 2.052947120625307 0.9397919849402848
0.9152200852820128 0.4355902801795929 0.3514318383790133
-0.7827303065554538 2.395192165051973 1.529118110738257
0.829859178305102 0.8141117239885471 1.539579241704034
0.9753712267151261 -0.5144988701298716 1.105128897355998
-0.6444217797604238 -1.291068822194968 1.11159434943431
0.9767754504683004 -0.6349450606201816 0.9844866814248021
-0.8252484182017162 -1.553272344032602 0.8779199859661453
0.5311382374017198 -0.6438827357512389 1.194617671673531
0.8804702817806077 2.98948475133331 0.9647011767773377
-0.51760621038205 -1.706746088054444 0.7294725055430145
-0.8299922249938988 1.427241058136054 0.3510778935635039
0.5552662090311972 1.496784314846727 0.2510007082734189
-0.8742267191202482 0.6779922011898321 0.6440086715259338
-0.447309360839448 0.8128612850727786 0.2507315699934313
-0.8386772250470349 2.452930092429494 0.2446806293170007
0.1130936319730956 2.465565970874768 0.2300290717752808
-0.8905133666732175 -0.1593000740481673 0.4979359124296484
-0.8308297758490774 -1.288087434956144 1.075477067471952
0.9632882822406734 -0.8627964697248574 0.8391868399143942
-0.8775501816616623 -0.8058982566652966 0.8603160061109904
-0.2319276107483294 1.576634850459555 0.2383011305124873
-0.5884188242071433 2.632411780645152 1.717834027468645
0.09031465672246886 3.055382754824799 1.102108130925567
0.9647993359612916 0.1063606179554521 1.102416367434842
0.2544670867737923 2.331150472689163 0.2248965594643278
-0.8791280703192718 -0.7494607011969644 0.7577709583703922
-0.4504875824023833 1.357696623638584 0.2507325407029122
0.9551867951514927 1.068050174746761 0.4962016064891793
0.7483475222090523 -0.1719274564181728 0.2668493491997525
0.9683458156683586 1.394167164676218 0.9395142596228594
-0.651147663420625 -0.5597846146141174 1.200996571430026
-0.3910149843010929 -0.1914312635944965 0.2466307286257976
0.9596404719435716 -0.4011349775935166 1.16067984053902
0.9570038271737853 -1.19629210312627 0.4492627394880437
-0.6078486830197803 -0.4196481007498083 0.2414991559185785
-0.4472725799068048 1.759515937599975 1.809862187238083
0.2043223441960491 1.57670734744785 0.2325505318986262
0.9600100273117509 -0.9223764684395002 0.9998916892962213
-0.1231536008129779 1.670635070009181 0.2329808835335241
0.5554065025644175 -0.6914274874663451 0.2206050109445988
0.9684439456996651 0.8078098434394428 1.024636606191317
0.5546462972733456 2.259181845731295 0.2182619116592486
0.4074375875799275 2.465321866612596 0.2397662862094385
-0.824794570630066 2.939718688130291 0.6395360601917959
-0.4256959742650365 2.615587613222235 1.767129386132159
0.0965252327239033 1.502211587541505 0.2282568413708009
0.5546714258454524 2.664994887999765 0.2506448640140601
-0.6030187028690368 1.951387534132883 1.799992736642481
-0.3198458008407797 -1.120493572176639 0.2459464074817679
0.3093785353332684 0.1964966413524565 0.2384209575566897
0.4056068841756565 0.4102239800856231 1.763560221121867
0.2545468761500583 -1.08664342103207 0.2369375483524439
-0.8707877156267926 -0.9223764684395002 0.9648731462454521
0.5660867984984801 -1.268696471740258 0.2649175440794486
0.1954907837444166 2.21363611582654 1.837116570890765
-0.6101416504658981 -1.702833335671838 0.6096982378814403
-0.8183372996049376 2.941461800397179 1.01707214163833
0.197312697938903 0.3095533035363235 0.2323625200897682
-0.002116324548915029 0.648028831226738 1.803817871741735
0.5546462972733456 2.259181845731295 0.2182619116592486
-0.143149817719896 -1.214738851562477 0.2452808274745855
0.761137902662101 3.017974117516326 1.038607091102916
0.2602711376543159 1.984699777067399 0.2293489380148139
0.9715802177250712 -1.191509762527462 0.9854408353424308
-0.3455943185003423 -1.348997509290597 0.2594491346178734
0.184333665634827 3.03506931444579 1.178520096578811
0.6285587947544986 -0.7486758433517943 1.184045211158012
0.5314330001140127 2.12929999423935 1.817955898838486
0.7369413023959981 2.012867503129604 1.790178572231238
-0.7422538351691931 1.876838688587502 0.2241950927474258
0.1975969645186626 0.8137678881819161 0.231987715238188
0.7516462282059151 1.395990929634842 1.765810732490358
0.6807081900216573 -0.6132937968706447 0.1140996811436249
0.09349207957476806 2.360595548336222 1.843573775888829
-0.8745422563083061 -0.6349450606201816 0.5059708984521346
-0.8479497219224358 2.753772985970742 0.7505464719984656
-0.6807379023327874 2.194234279712902 1.779649728960779
0.2614707212866367 1.942730079328561 0.2318188423581578
0.197719492097602 -0.3547998427941184 1.328787457233972
0.8149757514139007 -1.61073981550729 0.8593703973201349
0.4097051876442693 -0.6932538615365527 0.2280162175883724
0.8263756836280033 0.4337674541007806 0.2812807657979233
-0.7345432238151581 -1.373534790717063 0.2938970215954665
-0.8774782937114554 0.5533906408810324 0.746951310017961
-0.8127305433793456 2.747132641215798 1.156617150038877
0.9925709939207026 1.627479551469704 1.024591099383294
0.6142494532081774 3.05967326464388 0.9372668613259403
-0.6517733083968199 1.277484393641161 1.766311276061374
0.9798037645739617 -0.1593000740481673 0.4979359124296484
0.9276573442490445 -1.13233794376726 1.102752706655972
0.5215213498044283 -1.538727274045707 0.2698097922868846
0.7366039212177629 2.965758724087657 1.164473001399112
-0.6095139958301322 0.525793649452828 1.750365394927319
-0.4361224819767959 2.349541358318198 1.822607047619819
0.8536544315040582 2.74223904345549 1.293645672258981
0.09367605942963481 1.455951846087296 1.826774833266157
-0.4138717626085314 -1.709116427941388 0.3227303646610489
-0.5392683968537541 -0.7486758433517942 1.184045211158012
0.90202094128009 2.747132641215798 1.156617150038877
-0.02389358046637092 2.587945621180928 0.2307997745981952
-0.8647573926166204 -0.8058982566652966 0.5021848309016447
0.09458456500124995 -0.4195308801091277 1.279474418778151
-0.8975838125521607 -0.3012590846473393 1.045944267776222
-0.8824745952795882 2.124337567900328 0.5232929606980388
-0.833520143714207 0.1048330107331484 0.352308911131459
-0.6114893573402405 1.923630927952326 0.1990777767397046
-0.8660629676608287 -1.059275977717366 0.8650997843235213
-0.603380087932075 -1.585529574927266 0.9812431994196539
0.9257097813933188 2.388959265267362 1.27389018177874
-0.8633024379614526 -0.6349450606201816 0.3627457532701366
0.9764908071396141 -0.6349450606201816 1.049867478777366
0.9082240707804324 2.661473280999218 1.196524959612822
0.4414681849864536 1.500993198360508 0.244310996105282
0.7974578909061887 1.564962423578188 1.713918700855015
-0.6788127037025196 2.769148238692133 1.426072838434374
0.09228432651438751 2.985297305707717 0.2514170332596185
-0.1651766888729717 2.331150472689163 0.2248965594643278
0.2965030138659111 -1.694187425085774 0.8476715191464675
0.9754934965520088 0.106360617955452 0.8319588552913177
0.09410373486317636 2.138900921623804 1.838793266162378
0.9791001452141456 1.630020494529433 0.499152315920311
0.09457002956073718 -0.09189022973043598 1.542508243229986
0.09218002878363929 2.68416713836503 1.747595147694701
-0.5524183384739656 2.251112928805538 0.1656546078285503
-0.5397906453280963 -0.08005843869910807 1.526854220616022
-0.5644449143273823 1.859758922987346 0.2479192145619658
0.09216348576070513 -1.694510228753233 0.8454255393596103
0.5362458015967466 0.1995639586213245 0.2513999281226008
-0.3298210120944204 -0.4737922713147048 0.2373034093733416
0.7172011880895857 2.422633225214614 0.07834145529059323
-0.5663090354571455 1.563142978253108 0.2581381893489238
0.186792539053689 2.873130995726065 1.46106070665726
0.6068966082827945 -1.706746088054444 0.7294725055430144
-0.8100983524069897 2.5790350185964 0.2749663103587023
-0.02238275667715892 -1.157786394064334 0.2393412183395545
-0.5489015215146385 1.351828027517527 0.2575928674780936
-0.8664204551372315 1.982168837398243 0.2384882193435598
-0.6156491162182237 1.894655141508123 0.2277670321393408
-0.6718475047613565 3.017974117516326 1.038607091102916
0.4276107473051474 -0.2425790529609068 1.414610779992809
0.945493716805726 -1.433437646147057 0.9852962755013328
-0.5036688774688711 0.528048472369035 1.770241171905274
0.8272511218113773 1.997755317500712 0.1078089947007281
0.1975855290954614 1.766615734105386 1.826473974246437
-0.8599581841612625 -0.6925532546780649 0.3591499480005194
0.5046504246108527 -1.553171600666605 1.047149854402176
-0.4281974941075621 2.552033050174189 1.795292819360615
0.6279858316563896 1.749807336010032 1.804838848065226
-0.8444947105028654 2.662614296043542 0.5132699705434806
0.8988557367427151 -1.58718039335759 0.409551310360021
-0.001284906143984235 2.997735509051759 1.261090959530083
0.6144651687048128 3.051825143486315 0.7864498033639685
0.2546963004962433 2.634978483443099 0.2385446700510899
-0.8019846631489745 -0.2694467755317091 1.310210347360306
0.9632246117139987 -1.13117036266785 0.784117676834846
-0.7236509847864494 2.625870029467182 0.2673873240053786
-0.8657404366860941 -0.4120881919837668 0.3668938904757255
0.7032684891611677 -1.662719451070966 0.76839498833305
-0.8707877156267926 -0.9223764684395002 0.9648731462454521
0.9337851084036098 2.662614296043542 0.5132699705434807
-0.4225674093263825 3.019631886126128 0.2971732232856102
-0.8903029906948541 -0.5771049546882775 0.9145799537503898
0.7776551514432308 -0.2167865816662575 1.395688278863243
0.5554065025644175 -0.6914274874663451 0.2206050109445988
-0.002890413655493513 3.071180077229335 0.9900063190377655
-0.7974560531813864 -0.8098796717842973 0.1054967104496392
-0.8760356802100948 0.3251326474593458 0.7415721140843461
0.4027612485948199 2.699300017862422 0.2493179615244607
-0.1007629376532098 -1.694377713453007 0.8463475446394744
-0.5724736351215803 1.655658869693452 0.2585559005614758
-0.6023473838933015 3.043459148357015 0.9934836082742125
0.5361654945424597 -0.4123606597520522 1.273772260642887
-0.8268545077541731 -1.562267368446255 0.8193053600094991
-0.2113936167600435 2.497458053696434 1.823467608116043
0.422717421582717 -0.6506280255066792 1.195004390289632
0.5898968521542566 0.9100322709223832 1.790400306433682
0.09171545946215576 -1.753294630417685 0.5116663103820959
0.6290810432288407 -0.08005843869910806 1.526854220616022
0.9222498706322894 2.584345340468389 0.3785317421133111
-0.6044712710879647 1.572088420623131 1.793954330064925
0.8536544315040582 2.74223904345549 1.293645672258981
-0.8968330000178723 2.05294408472755 0.7498147606250276
0.2550558635924896 2.261428845605051 0.2208886854069747
0.7259326690882004 0.4315550808738294 0.2644857370067874
-0.1005731145409445 -1.743081590915243 0.718147967308289
-0.5231966868436758 3.059072367332608 0.9611981812238806
0.09466872813488381 -0.3548574150948073 1.330288404394904
0.6992368744111073 3.040021863259553 0.622193374720928
0.410459150920598 1.867418668795217 0.239626637386102
0.9685566606724347 0.9370132711896456 0.9396676480596327
0.1138816626763877 -0.6330158944153302 0.2198187967802284
-0.8624313945121446 2.583677403973144 0.7503289303973426
-0.8446354989890653 -0.6925532546780649 0.2108343622881631
0.9947628691753472 1.731912342256145 0.7496190345017688
0.09410373486317636 2.138900921623804 1.838793266162378
-0.004395881982948607 -1.342432343497519 1.113236531041189
-0.4303157164143469 3.0683956210948 0.9176256766578368
0.9687246510055891 -1.354114929136609 0.7693576964235478
-0.330912892564035 1.942628177597839 0.2375747178216803
0.9931581065718881 -0.1556274457870593 0.8286605024467821
-0.09935617545765749 1.1849221241746 1.823005306603889
-0.8747142724805742 2.260377844093023 0.5239922142143649
0.4217986677345426 0.0565945453766022 1.631748669099051
0.9108876653832361 -1.601233619542023 0.6224869719868815
-0.5147143542290484 2.746174050871355 0.2624031289645555
0.6554433097919145 -0.4290375409238705 0.2445563289434536
-0.7989734048620404 2.941364885588127 1.062809209509848
0.5958644347510553 -1.688816222080372 0.3281330851825104
0.9306489867195653 2.193681343367921 1.307763728603218
-0.005210041661751234 1.876744191887023 1.831837105564381
0.6541097804840865 1.446937511975409 0.2577128161956185
-0.8375313023401395 2.829767903987003 0.647632040218871
0.4219476784514304 1.913093576046552 0.2391299275155576
0.09407378642947117 -0.6525806545191479 1.198118328002741
0.09368627988384506 -1.342432343497518 1.113236531041189
0.2971434975663592 2.984982102739278 0.2608938915712691
0.8385365119905968 1.33432617692911 1.547520028733842
0.3336892860290897 2.846386733590737 0.2525321042174017
-0.3542274784678682 -0.04395931355233294 0.2457419418266192
0.9787825936244559 1.538216103412268 0.6443840367171285
0.5235512269988105 2.91140250877975 0.2667346801043638
0.9730782687209474 -1.197870997617571 0.7622841843052466
-0.8653011258184351 0.2168684230012805 0.4967987425665701
0.9161835451125779 -0.7966139673671684 1.140141963817698
-0.5959624641950645 -0.5573705805205305 0.1369233198123734
0.2010215498830935 1.426595506719615 0.2320358391330827
-0.6012478634010905 3.050462409109858 0.4328272260887332
