-2.676541805267334 4.101818561553955 -0.3964248895645142
-0.7305222153663635 -2.667307376861572 1.387851357460022
-2.68968653678894 2.933841228485107 0.8848186731338501
-2.364958047866821 -3.195096731185913 0.0387309156358242
-0.1186958253383637 -0.5636821389198303 0.586279571056366
-0.1654356420040131 -2.072935819625855 0.7101309895515442
-2.233807563781738 -2.073948860168457 -0.567918598651886
-1.020164608955383 5.483968257904053 -0.05310525372624397
-2.667814493179321 -1.822924256324768 0.1711878478527069
-0.1323476731777191 -1.471388220787048 -0.1247007325291634
-2.155184030532837 1.23461377620697 1.419739484786987
-2.540010213851929 -3.152992486953735 0.8878042101860046
-0.6619262099266052 -1.360532760620117 -0.4243900775909424
-1.409189462661743 3.718969583511353 -0.4100113213062286
-2.14739727973938 3.208854913711548 -0.4371066987514496
-0.4273216426372528 -0.5409049987792969 1.382601261138916
-0.6674182415008545 4.700988292694092 1.424273490905762
-0.1400195062160492 3.731880903244019 -0.4070817232131958
-2.620801448822022 -2.700374364852905 0.5093034505844116
-2.677152872085571 -1.65049159526825 0.7471601963043213
-2.227377653121948 -2.248345375061035 -0.5086526274681091
-2.562764406204224 4.222901821136475 -0.6298229694366455
-0.7045711278915405 -1.377153754234314 1.410496354103088
-0.8613392114639282 -2.481128454208374 -0.4116268157958984
-1.910407185554504 4.443264484405518 1.429739356040955
-2.677194118499756 2.50292444229126 0.2818776667118073
-2.689903736114502 0.197859138250351 1.01301634311676
-2.646526575088501 -2.173295021057129 0.5093034505844116
-0.6753975749015808 -1.910525798797607 -0.466831386089325
-1.805353403091431 0.1559244841337204 -0.4139835834503174
-2.692754507064819 3.580399036407471 0.8851028680801392
-0.1334299743175507 0.6409092545509338 0.1606113761663437
-2.107560396194458 -3.195594787597656 0.7155926823616028
-1.210851311683655 -2.523281812667847 -0.4071782529354096
-1.762542366981506 3.598950147628784 1.470147013664246
-2.184096813201904 4.164724826812744 1.43159294128418
-0.6237889528274536 -3.202168464660645 0.1711878478527069
-2.2747642993927 5.453982353210449 1.248158693313599
-2.698248386383057 2.937131643295288 1.277736306190491
-2.652784824371338 -2.075471878051758 -0.3494451940059662
-2.655432462692261 -1.466886878013611 1.299076080322266
-1.917301297187805 0.6997209191322327 1.422333598136902
-2.511453628540039 -3.161113977432251 -0.2333723604679108
-1.010131478309631 -1.508724093437195 -0.4123777449131012
-0.6231826543807983 -3.193517446517944 -0.3172864019870758
-0.5003356337547302 -0.567100465297699 -0.4138280153274536
-1.219961762428284 -2.268145084381104 1.461614847183228
-0.1437000930309296 0.6719456911087036 1.351865410804749
-0.588144838809967 5.277546405792236 -0.4071646928787231
-2.679394721984863 3.658082485198975 0.2661998569965363
-1.615082263946533 3.536988258361816 -0.4220812320709229
-2.627172708511353 -1.981415748596191 1.314019322395325
-0.6233474016189575 1.734232187271118 1.427578806877136
-1.038835525512695 -0.3244148194789887 1.409362316131592
-2.683958768844605 4.006475448608398 0.4996210634708405
-1.409189462661743 3.252870082855225 -0.4181517362594605
-2.686032056808472 -1.471369981765747 0.1711878478527069
-0.6300044655799866 -0.3253254890441895 1.381508946418762
-2.67768406867981 4.203365325927734 0.9914667010307312
-2.228975057601929 5.4762282371521 0.5564955472946167
-2.678961515426636 2.100203275680542 -0.2651588618755341
-0.9099757075309753 2.595643281936646 1.453373193740845
-0.4543438851833344 0.6984258890151978 1.409604668617249
-2.573613882064819 3.21648097038269 -0.68780916929245
-2.693767786026001 3.909185171127319 0.8821632266044617
-0.1413892209529877 -1.653140068054199 -0.3520814776420593
-2.687549591064453 0.1701876074075699 0.711897611618042
-1.409189462661743 0.2412951439619064 1.431415319442749
-0.1555475890636444 4.371119976043701 0.1695752292871475
-1.980738401412964 -1.230580449104309 -0.4107525646686554
-2.578687906265259 -1.224355936050415 1.363061904907227
-2.672393798828125 -1.739861011505127 -0.124688558280468
-2.662799119949341 4.660287380218506 0.7473385334014893
-1.921461462974548 -3.196229934692383 1.035198211669922
-2.639515161514282 -2.278731822967529 0.6599240899085999
-0.1284750401973724 0.197859138250351 1.01301634311676
-1.789794087409973 -0.6805583238601685 1.4173823595047
-0.6630752682685852 -1.413443922996521 -0.429162859916687
-2.470717430114746 -1.217617273330689 -0.4387494325637817
-1.911967158317566 4.097270965576172 1.448076605796814
-0.2091926038265228 -2.978924036026001 0.9957215189933777
-2.599361896514893 -3.089189529418945 0.7101309895515442
-2.653044700622559 -2.072934627532959 0.8582660555839539
-0.1582195460796356 -1.379100441932678 1.296055555343628
-2.683029651641846 3.236368417739868 0.3231142163276672
-2.254483699798584 -1.407330751419067 -0.5007298588752747
-2.699644565582275 -0.5652365684509277 0.4426571130752564
-1.610552549362183 -2.134600877761841 -0.430766373872757
-0.5285106301307678 4.386299133300781 -0.4474921226501465
-2.660104274749756 -1.259892225265503 -0.3708429932594299
-0.4205604493618012 5.465806007385254 0.8460906744003296
-2.339633226394653 4.25586462020874 1.425861477851868
-0.1300587356090546 3.386927604675293 0.323112815618515
-1.944194197654724 -3.118699312210083 -0.4103628098964691
-2.665687322616577 -0.9395250678062439 -0.3180333077907562
-1.603950500488281 -1.375239729881287 1.445297598838806
-2.624183177947998 -2.071874380111694 1.313889384269714
-1.409189462661743 -2.144601106643677 -0.4296169877052307
-1.207116842269898 5.072087287902832 -0.4045668840408325
-2.630997180938721 -2.433868408203125 1.210038423538208
-2.591140508651733 -2.973433017730713 1.253919005393982
-2.107980966567993 -3.195741415023804 0.7366309762001038
-0.4139096438884735 -3.111887693405151 -0.4135853350162506
-2.690119743347168 -1.383429765701294 0.3296557068824768
-0.1931963860988617 3.908597707748413 -0.8621088862419128
-0.1727893054485321 4.978831291198731 0.1816255003213882
-0.1405303180217743 -1.650467872619629 0.9952934384346008
-0.8777232766151428 -3.208678007125855 0.04398098960518837
-2.591989755630493 5.408304214477539 1.025090217590332
-2.68668007850647 3.411138296127319 1.381283640861511
-2.697111129760742 3.386215925216675 0.7492265701293945
-2.533580780029297 -3.125141859054565 1.11685574054718
-1.22813618183136 3.857715845108032 1.472118973731995
-2.53463888168335 -3.156720638275147 1.054817199707031
-0.1389175355434418 3.656774044036865 0.1679327934980393
-2.254235029220581 -0.9316704869270325 1.394543766975403
-2.621502876281738 -1.562428832054138 -0.8115941882133484
-2.693545341491699 1.15583610534668 0.6035553812980652
-0.1334395110607147 0.6395049691200256 -0.1615455448627472
-2.226909399032593 5.471676826477051 -0.1895400881767273
-0.2323462665081024 -0.6825355291366577 1.355425596237183
-1.409189462661743 3.789153099060059 1.479375004768372
-2.683197259902954 3.582233190536499 0.3231132030487061
-0.1285496652126312 0.1817325949668884 0.8580683469772339
-2.678934097290039 2.103460073471069 0.2980656325817108
-2.686583042144775 -1.380364179611206 1.203145384788513
-2.267319440841675 5.470545768737793 -0.1881253272294998
-2.653044700622559 -2.072934627532959 0.8582660555839539
-1.795939326286316 -2.363068342208862 -0.4181975722312927
-2.68319296836853 3.581797122955322 0.2661998569965363
-2.68604040145874 -1.471193432807922 0.3296557068824768
-0.8969173431396484 -3.196229934692383 1.035198211669922
-2.674279689788818 3.75743556022644 1.379296898841858
-1.963018774986267 5.484053611755371 0.1706715226173401
-0.1654605567455292 -2.073332786560059 0.6599240899085999
-0.1503134667873383 -1.820276021957398 0.8582547307014465
-1.058383703231812 3.034130573272705 1.466261267662048
-0.1198899447917938 -1.229038953781128 1.104910969734192
-0.6626823544502258 3.917086601257324 -0.430902510881424
-0.2193886935710907 -2.416377305984497 -0.3697844445705414
-1.970128297805786 5.476027965545654 1.233330965042114
-1.614718794822693 3.875586748123169 -0.4022931754589081
-1.599793076515198 -2.071460485458374 1.461481213569641
-2.243015050888062 4.27350664138794 -0.4532826244831085
-1.590271353721619 2.214562177658081 1.462874054908752
-0.4082141816616058 -2.248417854309082 -0.7376429438591003
-1.940655589103699 -3.208678007125855 0.04398098960518837
-2.190518617630005 2.186629295349121 1.435784935951233
-1.011185526847839 -1.595338106155396 -0.4179972112178803
-2.185196876525879 3.799678802490234 1.445841193199158
-1.050671815872192 0.2405896782875061 1.420380115509033
-1.058383703231812 3.034130573272705 1.466261267662048
-0.8988712430000305 0.2401873022317886 1.414085865020752
-2.609174728393555 -2.954901695251465 0.1711878478527069
-2.368776559829712 -3.18390965461731 0.8747528195381165
-0.4530534446239471 1.23461377620697 1.416033864021301
-0.1411734521389008 2.502431631088257 0.2486870884895325
-2.625514507293701 -1.476238489151001 -0.7641373872756958
-2.677786588668823 4.204643726348877 0.8796866536140442
-0.4212647378444672 5.469211101531982 0.4410847127437592
-0.1255603730678558 3.496740579605103 0.6182925701141357
-0.3699218928813934 3.148673057556152 -0.5309975743293762
-0.1336856782436371 3.582173347473145 0.499613493680954
-2.535390138626099 -2.269706010818481 1.384783625602722
-1.409189462661743 4.169817447662354 -0.3907597064971924
-2.701326847076416 -0.936443567276001 0.1711878478527069
-0.7484838962554932 4.713103771209717 1.427473068237305
-2.558300495147705 4.247543811798096 1.414058566093445
-0.1866020858287811 5.234970092773438 0.3373793661594391
-0.1356975734233856 0.171184703707695 -0.2383154928684235
-2.663410902023315 -1.900015473365784 0.7101309895515442
-0.5641438364982605 -0.9316704869270325 1.394543766975403
-0.1249692142009735 -1.380853295326233 1.105843186378479
-0.1418803632259369 4.102464199066162 0.05072807148098946
-2.688104152679443 1.155837297439575 0.3745996057987213
-0.1329871118068695 3.911502361297607 0.3955850899219513
-1.786296844482422 -1.463382840156555 1.43416690826416
-0.6378657817840576 -2.268617391586304 1.435337781906128
-2.242337942123413 -1.822924256324768 -0.5932640433311462
-2.68737530708313 3.494245052337647 0.05072807148098946
-0.7535881996154785 4.422316551208496 1.422635674476624
-2.665687322616577 -0.9395250678062439 -0.3180333077907562
-0.6523879170417786 -0.02807142212986946 1.392852306365967
-2.206452608108521 0.2395652085542679 1.404004454612732
-2.252597570419312 -1.477301120758057 -0.5281420946121216
-0.1223050057888031 2.932762384414673 1.12612783908844
-0.133064478635788 3.911067724227905 0.2661998569965363
-2.318043231964111 -0.567100465297699 -0.4138280153274536
-2.658374309539795 -1.984765291213989 -0.6272029876708984
-1.60003936290741 -0.3240053951740265 1.421885132789612
-0.2293793857097626 1.223293900489807 1.397587656974793
-0.1340982615947723 1.648541569709778 0.293300062417984
-2.367668628692627 -3.1846923828125 0.7101309895515442
-0.1411846578121185 2.50292444229126 0.2818776667118073
-1.220645546913147 5.461863994598389 1.441598176956177
-0.6190291047096252 -3.195547819137573 0.7939346432685852
-0.5737127661705017 4.230070114135742 -0.4759091138839722
-1.783149600028992 -3.201146841049194 0.5321468710899353
-0.8845967054367065 -2.167438745498657 1.446332097053528
-2.631170749664307 -2.438661336898804 0.8561482429504395
-1.784400343894959 -1.648491382598877 1.440917372703552
-0.124011367559433 -0.1664987355470657 0.971935510635376
-0.1356975734233856 0.171184703707695 -0.04122017323970795
-2.663256883621216 -1.902662038803101 -0.124688558280468
-2.658548593521118 -1.982283115386963 0.747163712978363
-1.774975776672363 -2.419964790344238 1.440134167671204
-0.1600132882595062 -1.984902024269104 -0.352889358997345
-2.297423362731934 4.093549251556397 -0.7520570755004883
-1.978812694549561 3.934064388275147 -0.4024240672588348
-2.188441276550293 2.581153154373169 1.442077159881592
-0.7505366802215576 3.984222650527954 1.444641947746277
-0.5836136937141419 5.466917514801025 1.177702784538269
-0.6592227220535278 0.6984258890151978 1.412571787834168
-2.681596755981445 -1.562428832054138 0.03594957664608955
-2.686031103134155 -1.471388220787048 -0.1247007325291634
-0.4670209586620331 3.723784446716309 1.448346495628357
-0.8510050177574158 -2.008980512619019 -0.4392581582069397
-2.535390138626099 -2.269706010818481 1.384783625602722
-0.1170520484447479 -0.936443567276001 0.1711878478527069
-0.1238821446895599 3.910374402999878 1.265135169029236
-2.683112382888794 3.233652591705322 0.05072807148098946
-2.687962055206299 4.006234169006348 0.6184629797935486
-0.673201858997345 4.411842346191406 1.419083833694458
-2.617113351821899 -1.653140068054199 -0.8461830019950867
-0.5108842253684998 0.6395049691200256 -0.4218983054161072
-2.674279689788818 3.75743556022644 1.379296898841858
-0.1285496652126312 0.1817325949668884 0.8580683469772339
-0.5909152626991272 5.431929111480713 -0.3360239267349243
-2.698755741119385 1.157235622406006 0.8799213767051697
-2.692162275314331 2.102449893951416 0.9866069555282593
-1.011185526847839 -1.595338106155396 -0.4179972112178803
-0.1276102960109711 4.005087852478027 1.263049244880676
-0.128692239522934 2.933841228485107 0.8848186731338501
-2.679520606994629 3.655611038208008 -0.6967425346374512
-0.2340762317180634 2.173997640609741 1.416924238204956
-0.6361367702484131 4.411842346191406 1.419731974601746
-2.535888433456421 -3.15337085723877 0.7101309895515442
-1.218585848808289 -2.071460485458374 1.461481213569641
-0.5838353037834168 -3.200493097305298 0.1711878478527069
-2.20973539352417 -0.02807142212986946 1.392462849617004
-2.287474393844605 -1.902662038803101 -0.8382129669189453
-0.6233474016189575 1.734232187271118 1.427578806877136
-1.963452219963074 5.48458194732666 0.3343128263950348
-0.1187343299388886 -0.5652365684509277 0.4426571130752564
-2.226909399032593 5.471676826477051 -0.1895400881767273
-2.412867546081543 5.45665979385376 1.207348942756653
-0.1310035884380341 3.494245052337647 0.05072807148098946
-1.409189462661743 -2.324139356613159 -0.4190157651901245
-0.1340982615947723 1.645265698432922 0.01575414091348648
-0.1218625009059906 2.506062984466553 1.271032452583313
-2.693856000900269 3.579519510269165 0.9993810057640076
-0.5914693474769592 5.471676826477051 -0.1895400881767273
-2.692215204238892 3.235755920410156 0.7503297924995422
-2.254235029220581 -0.9316704869270325 1.394543766975403
-1.912156224250794 3.584847927093506 1.463029980659485
-2.485422849655151 -3.167077541351318 1.01231837272644
-0.1399817168712616 2.933214426040649 -0.250784695148468
-2.375326633453369 5.462296485900879 1.380529403686523
-2.535888433456421 -3.15337085723877 0.7101309895515442
-1.609692215919495 5.490041255950928 0.1871130019426346
-0.5517914891242981 5.478438854217529 0.1544972360134125
-0.4024922549724579 -2.451559782028198 -0.4365564584732056
-0.7257382273674011 -3.196446180343628 0.9559702873229981
-0.1324211061000824 -1.473106265068054 -0.5716594457626343
-2.208577394485474 -2.916372776031494 1.318589806556702
-1.034549951553345 -3.198946237564087 0.7371138334274292
-0.7510642409324646 3.570312738418579 1.455694317817688
-2.686020374298096 -1.471641302108765 -0.343636155128479
-2.267319440841675 5.470545768737793 -0.1881253272294998
-0.127581924200058 -0.1216488480567932 1.093165636062622
-2.194129467010498 -1.817966103553772 1.422702074050903
-1.208604454994202 5.450398921966553 -0.3296881020069122
-2.302547931671143 -1.477298736572266 -0.7383394241333008
-0.1298788487911224 3.385580778121948 -0.2464324086904526
-0.1351858079433441 3.581797122955322 0.2661998569965363
-2.630961894989014 -2.441411733627319 0.1711878478527069
-0.8774657249450684 -3.201948165893555 0.3412786424160004
-2.684282302856445 1.645031690597534 -0.2672379016876221
-0.128692239522934 2.933841228485107 0.8848186731338501
-2.668623924255371 -1.820255637168884 0.9957307577133179
-2.647802114486694 3.020934820175171 -0.4102126657962799
-1.409189462661743 -1.404049396514893 -0.40727299451828
-1.910698890686035 3.670579433441162 1.462217330932617
-1.019264578819275 5.492166996002197 1.143765091896057
-1.409189462661743 5.334228992462158 -0.4044850468635559
-0.1729263961315155 4.977366924285889 -0.1249217391014099
-1.409189462661743 3.356764793395996 1.481926560401917
-1.05583643913269 3.598950147628784 1.470147013664246
-2.667963266372681 -1.820277094841003 0.7101309895515442
-1.601689338684082 -3.206471681594849 0.3574018776416779
-2.08013916015625 -3.165481090545654 1.144060850143433
-1.603583097457886 -0.440862387418747 1.423875093460083
-0.6265318989753723 -1.898101806640625 1.423785090446472
-2.134687662124634 5.434508323669434 -0.3351392149925232
-2.212158203125 -2.666681051254273 1.381717920303345
-1.759905695915222 2.605015516281128 1.460585117340088
-2.616591215133667 -2.273001194000244 1.310883522033691
-0.1614479720592499 4.661538124084473 0.5046261548995972
-0.7278611660003662 5.437050819396973 1.409070611000061
-0.6551041603088379 5.27639627456665 1.42464816570282
-1.601517677307129 -1.82172441482544 1.458471179008484
-2.686583042144775 -1.380364179611206 1.203145384788513
-2.682050943374634 3.820014715194702 0.3231133222579956
-2.702548265457153 -0.936414897441864 0.9940447211265564
-0.9064116477966309 4.097270965576172 1.448076605796814
-0.1726766526699066 4.979705333709717 0.2750987112522125
-1.909295201301575 3.8239905834198 1.456854462623596
-2.414812803268433 -2.164171934127808 -0.8162420392036438
-0.135748952627182 4.003653049468994 -0.2447297275066376
-0.8403377532958984 4.03012752532959 -0.3985724747180939
-1.028584718704224 -0.6805583238601685 1.4173823595047
-1.409189462661743 1.15563428401947 -0.4216285645961762
-2.254235029220581 -0.9316704869270325 1.394543766975403
-0.3476613461971283 -1.217617273330689 -0.4387494325637817
-2.200099945068359 -3.09967827796936 -0.4135853350162506
-1.215334892272949 -1.555320382118225 1.449356198310852
-1.802705764770508 4.717577934265137 -0.413808286190033
-0.1655939519405365 -2.075471878051758 -0.3494451940059662
-0.1551117599010468 -1.902485609054565 0.3296557068824768
-0.1285564601421356 3.386877298355103 0.4995844066143036
-0.1277213990688324 4.005416870117188 0.748250424861908
-1.047782301902771 -3.080010414123535 1.248014569282532
-1.216811656951904 -3.216871738433838 -0.1097099781036377
-0.3864252269268036 4.229912757873535 -0.6849652528762817
-2.639434576034546 -2.279921531677246 0.5093034505844116
-0.15455362200737 0.2359213829040527 1.350381135940552
-1.80654788017273 3.770733833312988 -0.4097004234790802
-2.584302663803101 2.173997640609741 1.416924238204956
-1.035966873168945 -1.820558786392212 1.447377324104309
-1.010349273681641 3.857449531555176 -0.4048736393451691
-0.5835990309715271 4.988266944885254 -0.4075933396816254
-0.1389841735363007 3.658082485198975 0.2661998569965363
-0.1256445348262787 3.654680728912354 1.122781038284302
-0.1246109902858734 3.909185171127319 0.8821632266044617
-2.59619951248169 -3.10083818435669 -0.1164435967803001
-1.80654788017273 3.770733833312988 -0.4097004234790802
-1.782412052154541 -1.820558786392212 1.447377324104309
-2.621241331100464 5.244521617889404 1.417448401451111
-1.609849095344544 5.491894721984863 0.3535603880882263
-2.542304277420044 5.382184028625488 -0.2749719619750977
-2.655218362808228 -0.1880145072937012 -0.3437587022781372
-0.4495267570018768 -3.198064804077148 -0.11356320977211
-1.805353403091431 0.1559244841337204 -0.4139835834503174
-2.143887519836426 4.25586462020874 1.423420310020447
-0.148546427488327 4.205608367919922 0.1679327934980393
-1.409189462661743 0.7020270824432373 1.439717173576355
-0.701564371585846 -2.914966583251953 -0.4125111699104309
-0.1367820203304291 -1.562428832054138 -0.124688558280468
-0.6113983988761902 -1.223255634307861 1.402234196662903
-2.682186603546143 3.817108392715454 -0.6940833330154419
-2.649163007736206 -2.072595119476318 1.218467354774475
-0.1311309039592743 3.496959686279297 0.2989555597305298
-2.681596755981445 -1.562428832054138 0.1711878478527069
-0.8414755463600159 3.841605186462402 -0.4071278870105743
-2.652777671813965 -2.075581312179565 -0.124688558280468
-0.1551220118999481 -1.902662038803101 -0.124688558280468
-1.606368660926819 -2.744244337081909 -0.4058925807476044
-2.237763404846191 -3.193068981170654 0.7101309895515442
-2.562916994094849 5.403428554534912 -0.1912478357553482
-0.6738986968994141 3.799678802490234 1.445850491523743
-1.047782301902771 -3.080010414123535 1.248014569282532
-1.409189462661743 -1.221409916877747 1.4493488073349
-2.200832605361939 -1.556893706321716 1.410038113594055
-1.798214316368103 5.478503227233887 -0.1795442402362824
-0.8465203642845154 4.302842617034912 -0.4164918959140778
-2.658523082733154 -1.982283353805542 0.7101309895515442
-1.975330710411072 3.307774782180786 -0.4274184703826904
-2.283838272094727 4.987407684326172 -0.4076291024684906
-0.4174384772777557 5.451807975769043 1.308200836181641
-0.3329561650753021 -3.167077541351318 1.01231837272644
-0.138858288526535 3.655611038208008 -0.2447297275066376
-1.208317875862122 5.493735790252686 0.5072877407073975
-0.2417334020137787 -2.952693223953247 -0.3173058331012726
-0.2781408727169037 4.694128513336182 1.426621794700623
-0.138858288526535 3.655611038208008 -0.1406492739915848
-0.1484684646129608 4.204424858093262 -0.1406571418046951
-2.488082408905029 1.152327060699463 -0.4272594153881073
-1.216345906257629 -1.737455606460571 1.456020951271057
-0.4212565124034882 5.468148708343506 0.4723221361637116
-1.806212902069092 4.216046333312988 -0.3975617289543152
-1.409189462661743 -3.201587438583374 0.7773744463920593
-1.203857183456421 3.629944324493408 -0.4159395396709442
-2.684370279312134 -0.3276223838329315 1.23576283454895
-2.686640501022339 2.502511501312256 0.7391557693481445
-0.1548392474651337 -0.01427232101559639 1.341929435729981
-0.1365475356578827 -1.559779167175293 0.8582444190979004
-0.1303653419017792 1.155310750007629 0.2422084510326386
-2.173205137252808 -0.188397228717804 1.38344407081604
-2.669717788696289 4.207350254058838 0.2989555597305298
-0.1358195245265961 4.004815101623535 0.1679327934980393
-1.789794087409973 -0.6805583238601685 1.4173823595047
-2.346060276031494 5.427768707275391 1.415633797645569
-1.226323843002319 4.787754058837891 1.447187781333923
-1.590271353721619 2.214562177658081 1.462874054908752
-2.691000699996948 3.734327077865601 1.270987629890442
-1.806669116020203 3.693132400512695 -0.4138388931751251
-1.614287853240967 -1.61013400554657 -0.4156995415687561
-0.1168462932109833 -0.9332756996154785 0.8582296371459961
-0.7510642409324646 3.570312738418579 1.455694317817688
-2.692215204238892 3.235755920410156 0.7503297924995422
-2.562906265258789 5.406944274902344 0.2148699462413788
-0.8597548007965088 -2.388977289199829 -0.415418803691864
-0.1894979178905487 4.99269437789917 1.415855169296265
-0.1394174993038178 2.100055694580078 -0.1702454388141632
-0.6389015913009644 -3.196183443069458 0.949509859085083
-0.2100069224834442 -1.822924256324768 -0.873823881149292
-0.8756065368652344 -3.197333812713623 0.7477291822433472
-1.409189462661743 -1.261603116989136 -0.4050225019454956
-2.23729681968689 5.460289001464844 1.216387867927551
-1.022165060043335 5.481087684631348 1.335351586341858
-2.688013315200806 1.155837297439575 0.2763547599315643
-0.1411490142345429 -1.650490880012512 0.8582478761672974
-0.7548866868019104 3.807782649993897 1.449518442153931
-1.409189462661743 3.979415416717529 -0.3961140215396881
-2.15464973449707 3.493866920471191 -0.4526570737361908
-1.940655589103699 -3.208678007125855 0.04398098960518837
-1.050531148910523 -3.195354461669922 1.097729563713074
-1.929854035377502 -2.419978857040405 1.432952404022217
-0.2727089822292328 -1.898320078849793 1.384171962738037
-0.7134971618652344 -1.818490862846375 1.427696704864502
-2.646493911743164 -2.173830986022949 -0.344365805387497
-2.435363054275513 -1.739861011505127 -0.927818238735199
-1.805353403091431 0.1559244841337204 -0.4139835834503174
-0.6693336367607117 3.975497484207153 1.440973877906799
-2.583675861358643 2.569165468215942 1.424999952316284
-0.5737127661705017 4.230070114135742 -0.4759091138839722
-2.691869258880615 3.581386566162109 0.7493963837623596
-0.2084231078624725 -2.9510178565979 0.7101309895515442
-0.447847455739975 -3.184347629547119 0.7939346432685852
-1.228077292442322 3.779900550842285 1.475044012069702
-0.8689561486244202 -2.938174486160278 -0.4103628098964691
-0.7484838962554932 4.713103771209717 1.427473068237305
-2.489428043365479 -0.9538030624389648 -0.4135853350162506
-0.8883927464485169 5.445105075836182 1.419628858566284
-0.2482335269451141 -0.02464500814676285 1.376683235168457
-2.662735462188721 4.372905731201172 0.3239480555057526
-0.5686933398246765 4.093546867370606 -0.5244706869125366
-0.1629577577114105 4.661183834075928 0.2700192630290985
-2.267492532730103 -2.45087742805481 -0.4311186373233795
-2.69340968132019 -1.380853295326233 1.105843186378479
-0.8420200943946838 3.599486351013184 -0.4205442070960999
-2.617106914520264 4.095029830932617 -0.7848672866821289
-2.093505859375 -2.268551588058472 1.439007043838501
-0.1346533000469208 3.265350103378296 -0.5758671760559082
-1.203857183456421 3.629944324493408 -0.4159395396709442
-0.1418682038784027 4.102270603179932 -0.05265862122178078
-0.5152532458305359 2.101174592971802 -0.4292893409729004
-0.1749251782894135 -2.277878999710083 1.111152172088623
-2.679520606994629 3.655611038208008 -0.6967425346374512
-0.1730373799800873 4.978644847869873 -0.2258733510971069
-2.692734241485596 3.654680728912354 1.122781038284302
-1.203235268592835 3.436535358428955 -0.4257501661777496
-0.6152169108390808 -0.4418351054191589 1.383478999137878
-0.719824492931366 -2.071013927459717 1.434510707855225
-0.1340964734554291 1.645031690597534 -0.1735023111104965
-0.6733684539794922 4.397581100463867 -0.425487756729126
-1.798990845680237 5.489167213439941 0.4956313967704773
-0.143148273229599 4.206983089447022 0.6189059615135193
-2.686157703399658 -1.46872079372406 0.7101309895515442
-2.14984917640686 3.45358157157898 1.451851844787598
-1.608629941940308 5.495361328125 1.347891211509705
-1.208571434020996 -2.227088928222656 -0.4248721301555634
-2.645589590072632 4.978831291198731 0.1816255003213882
-0.8907573223114014 -2.667994499206543 1.395800828933716
-0.6231826543807983 -3.193517446517944 -0.3172864019870758
-0.1405303180217743 -1.650467872619629 0.9952934384346008
-0.1411100327968597 2.499836206436157 -0.1610376387834549
-2.588128566741943 1.721358418464661 1.406670928001404
-2.67895770072937 2.100236892700195 0.020592350512743
-2.203161954879761 -0.4418351054191589 1.383478999137878
-2.652943134307861 -2.072935819625855 0.7101309895515442
-1.409189462661743 -3.201839685440064 0.7556943297386169
-2.443318605422974 3.817108392715454 -0.9424653053283691
-1.205039143562317 0.1490635573863983 -0.4128845930099487
-0.6589018106460571 -0.5721303224563599 -0.4128963947296143
-2.701316833496094 -0.9369319081306458 -0.125626340508461
-1.409189462661743 2.621447086334229 1.473229289054871
-0.6091482043266296 -0.5409049987792969 1.385786414146423
-1.789376616477966 -0.9307950139045715 1.423536419868469
-0.1361922919750214 3.817108392715454 -0.1406492739915848
-0.147155374288559 4.20725679397583 0.4997396171092987
-2.686032056808472 -1.471369981765747 0.1711878478527069
-1.610129833221436 5.49390983581543 0.7110949754714966
-2.349816799163818 4.07009220123291 1.437204003334045
-0.1400204598903656 2.932236909866333 -0.1477764695882797
-0.1341240108013153 1.648541569709778 0.2686293721199036
-1.612828135490418 3.188396453857422 -0.4210953116416931
-0.1788228452205658 -2.278334856033325 0.7468596696853638
-0.1872301995754242 -2.438661575317383 0.7101309895515442
-0.1556433141231537 4.372905731201172 0.3239480555057526
-2.345985174179077 -3.152738094329834 1.136415243148804
-0.5303574204444885 4.65500020980835 -0.4174256026744843
-2.250413656234741 1.152327060699463 -0.4272594153881073
-1.802043676376343 5.489432334899902 1.205609202384949
-0.1398228108882904 4.202045917510986 1.115210771560669
-0.1325471103191376 4.100096702575684 1.114663362503052
-1.782615423202515 -3.207677602767944 0.1870621591806412
-1.614718794822693 3.875586748123169 -0.4022931754589081
-2.2747642993927 5.453982353210449 1.248158693313599
-2.533143758773804 5.013819217681885 1.437466502189636
-2.610408067703247 -2.950756311416626 0.8481779098510742
-2.690334796905518 -1.380955934524536 0.8582380414009094
-0.6324163675308228 3.723784446716309 1.448704361915588
-0.2474764287471771 -0.3289346098899841 1.360692858695984
-0.1549679934978485 -1.900015473365784 0.7101309895515442
-1.011453986167908 3.31999659538269 -0.4253264367580414
-0.1418678462505341 4.102265357971191 -0.1406512409448624
-0.6730362176895142 4.164724826812744 1.431382894515991
-0.573424756526947 -1.739861011505127 -0.5868242383003235
-2.69848895072937 -1.229038953781128 1.104910969734192
-0.1321180760860443 -1.468719959259033 0.858241081237793
-0.201265424489975 -1.653140068054199 -0.8461830019950867
-0.422076553106308 -0.6813242435455322 1.384642720222473
-1.609622478485107 5.498840808868408 1.038302779197693
-0.129209965467453 0.211373969912529 1.123869180679321
-0.6718840599060059 2.186629295349121 1.436098694801331
-0.5641438364982605 -0.9316704869270325 1.394543766975403
-0.1296988427639008 3.236198425292969 0.6187179684638977
-0.5110300183296204 -1.321293115615845 -0.4894780516624451
-2.06718921661377 1.736688613891602 1.431839227676392
-0.1283133924007416 -1.38469135761261 -0.3378974795341492
-0.1555475890636444 4.371119976043701 0.1695752292871475
-1.602542161941528 -1.6485356092453 1.452738881111145
-0.6014599204063416 -0.188397228717804 1.382982492446899
-2.391057252883911 -0.5409049987792969 1.382601261138916
-0.135748952627182 4.003653049468994 -0.4009973406791687
-2.609174728393555 -2.954901695251465 0.1711878478527069
-0.116965264081955 -0.9337514638900757 0.6599240899085999
-1.935675382614136 -2.071158885955811 1.443265080451965
-1.056062698364258 1.746367812156677 1.446600675582886
-2.620921611785889 -2.698532104492188 0.7465747594833374
-2.444297552108765 3.577529668807983 -0.9339982271194458
-1.919084191322327 5.059020042419434 1.438977599143982
-0.1365475356578827 -1.559779167175293 0.8582444190979004
-2.690001487731934 3.655642032623291 0.9991641640663147
-0.135305255651474 3.234622716903687 0.1679327934980393
-0.5500249266624451 5.463188648223877 0.8026562333106995
-0.6735065579414368 3.723784446716309 1.448776006698608
-1.409189462661743 -0.6126015782356262 -0.4060561060905457
-2.484934329986572 1.645031690597534 -0.4290464520454407
-2.612143993377686 4.981144905090332 -0.3472835719585419
-2.672537088394165 -1.737213373184204 0.7101309895515442
-0.2324893176555634 3.552522420883179 1.431535363197327
-0.1309730708599091 3.493569850921631 -0.4028515517711639
-1.807433009147644 4.138714790344238 -0.3948513269424439
-0.5718961358070374 -3.101713180541992 -0.4135853350162506
-0.2323462665081024 -0.6825355291366577 1.355425596237183
-1.216689586639404 -3.206471681594849 0.3574018776416779
-2.665687322616577 -0.9395250678062439 -0.3180333077907562
-0.8543413877487183 5.485176086425781 0.4854485392570496
-2.60984468460083 -2.951506614685059 0.6599240899085999
-1.79912793636322 5.489559173583984 0.5464127659797669
-0.1323476731777191 -1.471388220787048 -0.1247007325291634
-0.5985761284828186 -2.268617391586304 1.43316662311554
-1.601760506629944 -3.207953691482544 -0.3071650266647339
-0.1666252315044403 4.978086471557617 1.311408638954163
-2.676512241363525 4.102248668670654 -0.2447375953197479
-2.649163007736206 -2.072595119476318 1.218467354774475
-2.194347381591797 -3.208719968795776 -0.124688558280468
-1.409189462661743 4.758283138275147 -0.4114149808883667
-0.1394174993038178 2.100055694580078 -0.1702454388141632
-2.130457401275635 -2.326312303543091 -0.4307178854942322
-1.921600222587585 -0.02752650529146195 1.405446887016296
-0.8883927464485169 5.445105075836182 1.419628858566284
-0.1186623275279999 -0.5631638169288635 0.6684225797653198
-1.60003936290741 -0.3240053951740265 1.421885132789612
-0.1169500052928925 -0.933276355266571 0.7101309895515442
-1.208718061447144 5.488788604736328 0.05918803811073303
-2.68604040145874 -1.471193432807922 0.3296557068824768
-0.1340086162090302 -0.3276223838329315 1.23576283454895
-0.9098482728004456 3.023179054260254 1.459112644195557
-2.212158203125 -2.666681051254273 1.381717920303345
-2.677106618881226 -1.650889039039612 0.6599240899085999
-0.1788228452205658 -2.278334856033325 0.7468596696853638
-0.2085342109203339 -2.951506614685059 0.6599240899085999
-1.214795708656311 -0.440862387418747 1.423875093460083
-0.1872301995754242 -2.438661575317383 0.7101309895515442
-2.237763404846191 -3.193068981170654 0.7101309895515442
-2.662916660308838 4.36975908279419 -0.24322609603405
-0.7091360688209534 -3.196181058883667 0.7997459769248962
-2.6949622631073 -1.22639524936676 0.6599240899085999
-1.019251823425293 5.488653182983398 0.5842107534408569
-2.682218790054321 0.2306506782770157 1.286083936691284
-1.038835525512695 -0.3244148194789887 1.409362316131592
-2.352616548538208 3.975497484207153 1.440434813499451
-0.8759231567382813 -3.197295904159546 0.72651606798172
-2.700621366500855 3.493590593338013 1.122493028640747
-2.33562159538269 4.411842346191406 1.422972321510315
-2.691155195236206 -1.380929827690125 0.9941928386688232
-2.152009963989258 4.102689266204834 -0.420203447341919
-0.1551220118999481 -1.902662038803101 -0.3546356856822968
-1.226142168045044 1.242489099502564 1.445687294006348
-2.658624887466431 -1.982282161712647 0.8582618236541748
-0.9089210033416748 3.747291564941406 1.459779739379883
-0.845481812953949 4.258945465087891 -0.4063919484615326
-2.678306341171265 2.933125019073486 0.1616603136062622
-2.247998237609863 -1.377464294433594 1.403595566749573
-2.69303560256958 3.819230318069458 1.268098115921021
-0.5810660719871521 -3.193436145782471 0.6599240899085999
-2.116814613342285 -2.914966583251953 -0.4125111699104309
-1.205039143562317 0.1490635573863983 -0.4128845930099487
-0.1681264340877533 -1.558606624603272 1.302280426025391
-1.593786597251892 5.109395503997803 1.45234215259552
-0.1413341462612152 -1.652080774307251 0.5093034505844116
-0.836884617805481 -0.5831543207168579 -0.4110331535339356
-2.444297552108765 3.577529668807983 -0.9339982271194458
-2.135513544082642 5.467644214630127 0.8298636078834534
-0.1555797755718231 4.660287380218506 0.7473385334014893
-0.1529743373394013 -0.5671318173408508 -0.3266476094722748
-2.631170749664307 -2.438661336898804 0.8561482429504395
-2.653678178787231 4.9769287109375 1.135411977767944
-0.6657860279083252 3.584848642349243 -0.4488733410835266
-2.149162530899048 3.563045024871826 1.45202648639679
-2.681831359863281 -1.559779167175293 0.8582444190979004
-2.554561853408814 -1.735852360725403 1.379428744316101
-0.124011367559433 -0.1664987355470657 0.971935510635376
-2.358025312423706 -2.167401552200317 1.422140240669251
-2.57014536857605 -0.02464500814676285 1.376683235168457
-1.603043913841248 -1.555320382118225 1.449356198310852
-2.46000599861145 2.927122831344605 -0.4476616978645325
-0.454614132642746 -3.192116498947144 0.1711878478527069
-2.677297353744507 2.502923965454102 0.3797966539859772
-1.798214316368103 5.486120223999023 0.05156370997428894
-2.219408750534058 -3.194033622741699 0.9495249390602112
-2.569064617156982 -1.465640902519226 1.369242429733276
-2.678359270095825 3.731880903244019 -0.1406492739915848
-0.7257382273674011 -3.196446180343628 0.9559702873229981
-2.645506143569946 4.977919101715088 0.06719337403774262
-2.672393798828125 -1.739861011505127 0.1711878478527069
-1.057846426963806 3.839715480804443 1.463971734046936
-0.4509575068950653 -0.188397228717804 1.380674600601196
-2.250656366348267 -1.223255634307861 1.400952696800232
-0.8551329374313355 5.439666271209717 -0.3333698213100433
-0.7078972458839417 -1.556674003601074 1.415528297424316
-2.170301675796509 -2.917089462280273 1.320583820343018
-0.1299370229244232 3.384409189224243 -0.1410749405622482
-0.8765165209770203 -1.736071348190308 1.434651494026184
-0.1561011970043182 -0.4489805996417999 1.302970170974731
-2.234543561935425 -3.200493097305298 0.1711878478527069
-1.964037418365479 5.485176086425781 0.4854485392570496
-2.288021564483643 4.65500020980835 -0.4174256026744843
-1.779065489768982 -2.071299552917481 1.451758623123169
-2.082542419433594 -3.078375816345215 1.234550356864929
-1.613782644271851 4.236950397491455 -0.3949148654937744
-0.8809284567832947 -1.981231808662415 1.439823627471924
-2.135987281799316 5.478743076324463 0.5621054768562317
-0.1367293298244476 -1.561369299888611 0.5093034505844116
-0.171774834394455 -2.172104835510254 0.6599240899085999
-1.971552848815918 2.110789299011231 -0.4270384311676025
-0.9064116477966309 4.097270965576172 1.448076605796814
-0.5495293736457825 5.474881649017334 0.5424666404724121
-0.124816507101059 3.910427570343018 0.748346745967865
-0.6451737880706787 -0.188397228717804 1.38344407081604
-1.203857183456421 3.629944324493408 -0.4159395396709442
-0.6770122051239014 5.471475124359131 1.183351397514343
-2.080822229385376 5.284302711486816 1.428834557533264
-1.923620581626892 -3.079205513000488 1.241384387016296
-0.1718848645687103 -2.173830986022949 -0.344365805387497
-0.8871556520462036 -3.196971893310547 0.9688910245895386
-1.610552549362183 -2.134600877761841 -0.430766373872757
-0.1340191066265106 -1.559684157371521 1.108922362327576
-2.236953735351563 -1.984521269798279 -0.5857326984405518
-2.678916215896606 2.102942228317261 0.2400559484958649
-0.2095007598400116 -2.931306600570679 1.118129730224609
-0.6378657817840576 -2.268617391586304 1.435337781906128
-2.612734794616699 -1.739861011505127 -0.8663039803504944
-2.186983346939087 4.700988292694092 1.425242900848389
-2.627273559570313 3.487934589385986 -0.8477267026901245
-0.117289274930954 1.653424620628357 1.255173444747925
-1.610124588012695 5.500869274139404 1.156468152999878
-2.681831359863281 -1.559779167175293 0.8582444190979004
-0.1295149028301239 -0.1880145072937012 -0.07994607836008072
-1.804807186126709 3.232476472854614 -0.4218676686286926
-2.681708812713623 -1.560177326202393 0.6599240899085999
-0.8423247933387756 4.120974540710449 -0.3971850872039795
-2.359364032745361 3.45358157157898 1.449867725372315
-2.610291004180908 -2.427215337753296 1.30250358581543
-2.692754507064819 3.580399036407471 0.8851028680801392
-1.227726817131043 4.232001304626465 1.457654476165772
-1.801321387290955 5.046090126037598 -0.4055055677890778
-2.620960712432861 4.654772758483887 -0.3579117953777313
-0.4580241143703461 -2.07094144821167 1.419835925102234
-1.409189462661743 -3.00016713142395 -0.4046241939067841
-2.194129467010498 -1.817966103553772 1.422702074050903
-0.256361335515976 5.403039932250977 -0.07930812239646912
-0.1323584020137787 -1.471641302108765 -0.343636155128479
-1.204423666000366 3.788202047348023 -0.4071637988090515
-0.5247839093208313 -1.739861011505127 -0.8331572413444519
-1.409189462661743 -3.204544544219971 0.5478769540786743
-1.782412052154541 -1.820558786392212 1.447377324104309
-0.6149368286132813 -3.163264989852905 1.140086770057678
-2.639363050460815 -2.280978918075562 0.1711878478527069
-1.409189462661743 -1.261603116989136 -0.4050225019454956
-2.690749168395996 2.501596927642822 0.9934523105621338
-0.1296444833278656 3.388380765914917 -0.6084408164024353
-1.030288338661194 -1.22216260433197 1.430135726928711
-2.318070411682129 -0.9393368363380432 -0.4135853350162506
-2.084975004196167 -2.917699337005615 1.324616312980652
-2.695383071899414 0.6517781019210815 1.053285479545593
-2.148530244827271 0.1680958420038223 -0.415933221578598
-0.1322399079799652 -1.469118118286133 0.6599240899085999
-2.228977203369141 5.478903770446777 0.519460916519165
-2.185962438583374 3.723784446716309 1.448704361915588
-1.609774470329285 5.450398921966553 -0.3296881020069122
-2.655519723892212 4.659744739532471 0.1745025217533112
-0.3696804940700531 -1.407275080680847 -0.7381720542907715
-0.1300844848155975 3.386927843093872 0.2989555597305298
-2.681837558746338 4.104829788208008 0.6186760663986206
-0.6149368286132813 -3.163264989852905 1.140086770057678
-2.266875505447388 5.469027042388916 0.9700615406036377
-0.5806154608726502 -3.193068981170654 0.7101309895515442
-2.688104152679443 1.155837297439575 0.3745996057987213
-0.6679149270057678 1.734232187271118 1.428092956542969
-2.637576341629028 5.236701011657715 0.622053861618042
-2.692047357559204 -1.227061867713928 1.199529767036438
-2.420609951019287 -2.663257360458374 -0.4135853350162506
-2.135513544082642 5.467644214630127 0.8298636078834534
-0.8724102377891541 -1.46405017375946 1.423283576965332
-2.69381594657898 3.235039710998535 0.8870604038238525
-2.683314323425293 3.579325437545776 -0.05265862122178078
-0.1361599862575531 0.2306506782770157 1.286083936691284
-2.662898540496826 4.370127677917481 0.0525757260620594
-0.1351858079433441 3.581797122955322 0.2661998569965363
-2.669909000396729 4.204446792602539 -0.05265862122178078
-2.688013792037964 1.153731107711792 0.1397695541381836
-2.383806943893433 -1.465155363082886 1.399462699890137
-0.1352716386318207 3.23636794090271 0.3955901861190796
-0.1211889684200287 1.647998929023743 0.9800581932067871
-1.204457998275757 1.155166268348694 -0.4224255681037903
-2.237829208374023 -3.192332983016968 -0.3166683316230774
-2.412867546081543 5.45665979385376 1.207348942756653
-2.662735462188721 4.372905731201172 0.3239480555057526
-1.602362394332886 -3.200647354125977 0.7708221673965454
-0.1556385457515717 4.372459411621094 0.2671546936035156
-2.659374475479126 -1.982264637947083 0.9963635206222534
-0.5064972043037415 -1.213902711868286 -0.4325585067272186
-2.276680707931519 -2.164156675338745 -0.7474592328071594
-2.644978046417236 -1.649904489517212 1.305302143096924
-1.799944639205933 -2.115789413452148 -0.4329285025596619
-2.678555965423584 4.202045917510986 1.115210771560669
-1.608629941940308 5.495361328125 1.347891211509705
-2.587075233459473 -2.694979906082153 -0.3180137574672699
-1.218585848808289 -2.071460485458374 1.461481213569641
-1.614287853240967 -1.61013400554657 -0.4156995415687561
-0.2847979962825775 -3.125141859054565 1.11685574054718
-2.296717166900635 3.20293116569519 -0.6024750471115112
-1.409189462661743 4.145670890808106 1.467673420906067
-2.134261608123779 5.473058700561523 -0.1875167936086655
-1.598417043685913 -2.268145084381104 1.461614847183228
-1.203235268592835 3.436535358428955 -0.4257501661777496
-2.588128566741943 1.721358418464661 1.406670928001404
-0.7334038615226746 -2.917699337005615 1.324616312980652
-0.2863545119762421 -3.163196563720703 0.03708832710981369
-2.562764406204224 4.222901821136475 -0.6298229694366455
-2.532305479049683 -3.157230138778687 0.3296557068824768
-1.204943537712097 1.660365700721741 -0.4239209592342377
-1.409189462661743 -1.374872922897339 1.451966762542725
-2.146577835083008 3.152678728103638 -0.4323561191558838
-2.266587257385254 5.478438854217529 0.1544972360134125
-1.799127101898193 5.488653182983398 0.5842107534408569
-2.227463483810425 5.431929111480713 -0.3360239267349243
-2.370531320571899 -3.184347629547119 0.7939346432685852
-0.9079716205596924 4.443264484405518 1.429739356040955
-2.653044700622559 -2.072934627532959 0.8582660555839539
-0.1457601487636566 4.028002262115479 1.370638012886047
-2.694157361984253 -0.2027462720870972 0.849858820438385
-2.662277698516846 -0.4489805996417999 1.302970170974731
-0.4035659730434418 -2.164171934127808 -0.8162420392036438
-2.679510831832886 3.655804872512817 0.05072807148098946
-2.106772184371948 -1.735406160354614 1.424381613731384
-1.014664888381958 -1.860381960868835 -0.4354822635650635
-1.594647169113159 -3.196783304214478 1.060783982276917
-2.105933427810669 -3.196540355682373 0.8808786869049072
-0.1653341948986054 -2.072934627532959 0.8582660555839539
-0.5668086409568787 3.817108392715454 -0.5743098855018616
-0.1787808835506439 -2.278334379196167 0.857045590877533
-1.783149600028992 -3.201146841049194 0.5321468710899353
-0.1186623275279999 -0.5631638169288635 0.6684225797653198
-0.1282192170619965 -1.382546544075012 0.5093034505844116
-2.68724799156189 3.496959686279297 0.2989555597305298
-2.596635341644287 -3.096953868865967 0.03801081702113152
-0.3696831166744232 4.983112335205078 -0.407807856798172
-2.391057252883911 -0.5409049987792969 1.382601261138916
-1.611343264579773 5.496217727661133 1.296760082244873
-1.97431743144989 4.197784900665283 -0.3998739719390869
-2.562906265258789 5.406944274902344 0.2148699462413788
-1.609660744667053 5.486543655395508 -0.04668925702571869
-2.677268981933594 2.500425815582275 -0.2589216828346252
-2.303850650787354 3.486868381500244 -0.8136427998542786
-2.678247451782227 2.934946060180664 0.2932629287242889
-0.7275567650794983 -2.41999363899231 1.425550103187561
-2.26351809501648 -2.660015821456909 -0.4135853350162506
-1.035763382911682 -3.207677602767944 0.1870621591806412
-1.409189462661743 -1.374872922897339 1.451966762542725
-2.663825273513794 0.2359213829040527 1.350381135940552
-2.609018087387085 -2.956315517425537 -0.1234339401125908
-0.6830821633338928 -2.1729416847229 -0.4492968618869782
-1.970760345458984 -1.845669984817505 -0.4373508095741272
-2.674279689788818 3.75743556022644 1.379296898841858
-0.1334395110607147 0.6395049691200256 -0.2572101056575775
-0.4541967809200287 -3.188635349273682 0.3296557068824768
-0.2189895808696747 -1.984581828117371 -0.8539088368415833
-0.1729263961315155 4.977366924285889 -0.1249217391014099
-2.60984468460083 -2.951506614685059 0.6599240899085999
-2.662799119949341 4.660287380218506 0.7473385334014893
-0.1575305163860321 4.659008979797363 0.8770548105239868
-2.672537088394165 -1.737213373184204 0.7101309895515442
-2.528496980667114 5.262744426727295 1.435882329940796
-0.4740749299526215 -2.91278886795044 1.308619856834412
-1.216782808303833 -3.213364601135254 0.05512209609150887
-2.690119743347168 -1.383429765701294 0.3296557068824768
-2.68886399269104 -0.1880145072937012 -0.07994607836008072
-0.7535881996154785 4.422316551208496 1.422635674476624
-2.135296583175659 -2.1729416847229 -0.4492968618869782
-0.1235049664974213 -1.228572487831116 0.3296557068824768
-0.1233998239040375 -1.225978374481201 0.7101309895515442
-0.1503901183605194 -1.820276737213135 0.7471619248390198
-2.193092823028565 5.022547245025635 1.430610537528992
-0.3696381747722626 3.388872623443604 -0.8547297120094299
-0.5495287775993347 5.477288246154785 0.5063982009887695
-0.8768899440765381 -3.199208974838257 0.5231748819351196
-2.646458387374878 -2.174346923828125 0.03594653308391571
-0.2193886935710907 -2.416377305984497 -0.3697844445705414
-1.204361081123352 3.710001707077026 -0.4113398194313049
-0.1657770574092865 4.978951930999756 0.8759556412696838
-0.1351858079433441 3.581797122955322 0.2661998569965363
-2.29153037071228 4.230043888092041 -0.5860302448272705
-0.3759977519512177 4.381824016571045 -0.455066591501236
-2.69303560256958 3.819230318069458 1.268098115921021
-2.483584403991699 0.171184703707695 -0.4164279997348785
-1.203118324279785 -1.451110363006592 -0.4085088968276978
-2.677106618881226 -1.650889039039612 0.6599240899085999
-2.630961894989014 -2.441411733627319 0.1711878478527069
-0.124011367559433 -0.1664987355470657 0.971935510635376
-2.370531320571899 -3.184347629547119 0.7939346432685852
-2.554561853408814 -1.735852360725403 1.379428744316101
-0.1529743373394013 -0.5671318173408508 -0.3266476094722748
-2.349816799163818 4.07009220123291 1.437204003334045
-2.685458183288574 3.908597707748413 -0.05265862122178078
-2.677786588668823 4.204643726348877 0.8796866536140442
-1.409189462661743 3.444390058517456 -0.4244905710220337
-0.6857206225395203 -2.257430791854858 -0.4400033056735992
-0.8434120416641235 3.67839527130127 -0.4160220324993134
-2.200832605361939 -1.556893706321716 1.410038113594055
-1.204596161842346 4.236950397491455 -0.3949148654937744
-2.682630062103272 4.003653049468994 -0.6217086315155029
