2.343105016011007 -0.5317269937950107 0.5964550024867179
2.108651991280793 -0.9211548983692416 1.078598426764035
3.605505787587066 -0.4776509805842927 1.198292966758524
1.803020696624585 -0.4741212954914733 0.7543332679962274
3.104753422344385 1.536302051568272 1.492660747239256
1.836404882212217 -0.668913537445505 1.099606878045177
2.030263372726656 1.885818391431891 1.409500474069555
3.635212467414195 1.68270962893793 1.135591931983077
1.804992856848633 1.682698343636055 1.084111331086477
3.649582716346557 -0.4295360269670776 0.8131363710987816
1.829698373804557 1.901423461923944 0.653232150281431
3.110468978701919 1.347801215348288 1.521954941756247
3.640605851362767 1.635711834974099 0.9175470754840908
2.200876232157315 -0.187338555495877 0.5876226557053782
1.985921003923412 1.960468693483355 0.5738713532974001
2.782034153265868 0.6568994057931865 0.5840084648875121
3.359306107395667 -0.02340892958074081 0.6009011309541702
3.625614764253892 1.493325421873603 0.647998561117508
2.964588485368633 1.980680775560102 0.5921376652621122
2.227150187923384 0.5693613652248459 0.6006528476628235
1.795485605626702 1.205530357025737 0.9622450060311016
1.801377997090434 1.538738859934798 0.9174962661699611
3.355531715304393 1.857413503625035 1.423879317492388
2.326773457996699 -0.0941791176080789 0.5947935245290621
3.651510286898042 -0.1573171497701797 1.03834785879219
1.803173637185978 1.587316994920042 0.9622936240472901
3.299205006053215 -0.4970112938852263 0.5718259528669646
3.3280993330962 -0.1536809265370763 0.5691380139214779
3.624270258032778 -0.6184891969815984 1.060203564838496
2.456840987400485 2.366969726794639 1.145449879233188
2.271328670913185 -1.058351867526132 0.7624724650707773
1.793098906388845 -0.3891490843488275 0.8951312653128973
3.332460984003749 -0.1315891823662994 0.5781905396317246
3.417125483577071 -0.915872727059632 1.058625450563625
2.849643372181204 2.270398702742849 0.6942400029908173
2.884509579513137 -0.2808059385403454 1.226611406656595
3.354739104388435 2.167202776435516 0.6422473638345987
1.807390242678247 1.947080280794322 0.9623775316580782
2.978078546962464 2.198854689613405 0.6350871730926305
3.409270328848982 -0.9517704518599767 0.9536447215609595
1.88595538813023 -0.1057709227181085 0.5522763499987462
3.549349904161919 1.031733347387348 0.7932218768093595
3.667400527460314 1.304182661638443 1.025279598569013
2.256967623525191 2.160163960338649 0.6235143056650414
2.117113782264307 -0.297748059989943 0.483258429153607
2.665333226713478 0.1373427870871083 1.409100946014953
2.122494309717154 -0.5354145679989578 1.203538262757958
2.861458658393799 -0.9534351571018838 1.078549238549374
2.549832093738949 -0.08355915552083761 1.286615568407762
2.892842623299991 1.838395329397129 1.44264971100725
2.691982889267591 -1.137091610565244 0.8458090484347282
2.879963844331887 2.123075210405802 1.38370141730624
2.904354558649553 2.337983182428525 1.19444851354752
1.781679499814828 1.304283768888002 0.8643661095059784
3.514247198502703 -0.8656585400001823 0.6681595589731207
2.754126027208 -1.129190411245778 0.9608621994453427
2.781922941629409 0.8394709199120019 0.5840005806815708
2.924009759494395 2.315448990523271 0.9672943617234988
3.644607149184179 -0.4295360269670776 0.7569123787407562
1.792366261425031 -0.4295360269670775 0.9412829811106982
1.806843681530105 1.771751258279221 0.8336663675163805
2.345867301388948 0.4002118951140029 1.529245078992481
1.820466561972939 2.002065666886233 0.8343431468244158
2.005772561498204 2.221277773175497 1.067171553181441
2.417868356119949 2.333380960348676 1.24837469770156
3.387052379194754 1.703482734292062 0.442057096168096
3.557517719970566 0.8304616256908879 0.7451390821248565
2.645912394345323 1.537926886854756 0.5823806072298389
1.882165911609872 -0.8043599782108135 0.7933587804368275
2.276352138109142 2.306607438361898 1.192510303856525
3.309674630466978 -0.222469529837132 0.5520943169725459
2.492925475242017 1.487786334586189 0.5892428654754978
2.04472835711448 0.4027065065208931 1.484871698192722
2.43898568597468 -0.08307914108562026 1.284469078951468
2.256967623525191 2.160163960338649 0.6235143056650414
3.090199825490011 -1.015029951222469 1.041965755793793
3.048448209781999 2.223980497752457 0.6579268594453966
1.823311442240687 -0.6142149187284843 1.111324335617682
2.97404963863647 -1.104405422605647 0.8094172168166629
1.804253493752225 -0.00730926488391296 0.9040845207832812
2.681470899301395 -1.044261104618856 0.6113614457827948
3.480427230303711 1.870397518248152 0.4891573841630322
3.235403045553412 1.722283825904769 0.5810559094409715
3.102441960328675 -0.5515864578697095 0.597867390222792
1.81463570022802 1.493116294794279 0.7001349233891299
3.58316033296543 2.113954458329334 0.8656488582118226
3.202570530250608 1.532932526063611 1.490546527135871
2.87819472027933 -0.6585743989881099 1.184530448486922
2.282638246404333 -0.6105169791177942 0.6045741405553193
1.792794908910594 -0.1222609308776165 1.085826379533585
1.827323010265495 0.4170998002220336 0.9115310184473147
1.804550163977566 1.901283271217549 1.021112148433926
2.46809714760921 2.198854689613405 0.6350871730926305
2.099414566629716 -0.9781064272393691 0.6874093841760726
1.815371038444933 1.587316994920042 0.7487353862682902
3.018281278964724 -1.110736494443281 0.8326934098789899
3.590011436610406 0.5708871040510629 0.6367425409855839
3.098243014655366 2.316388666953107 1.215038238263629
2.246272153928687 -0.4925004301680656 1.211402768495469
2.552032299816945 1.46514059249506 1.513087488007093
1.80945891246599 1.727946948860097 1.12911796060818
3.620403682913966 1.181902530187668 1.085505036840299
3.654498620818695 1.304738784190704 0.7456887658267137
2.573000662951052 2.375541369246717 1.146297939169956
2.646756594837875 2.021070077114278 0.5914046008304823
1.809681222782032 1.587332408398634 1.140033557362694
3.001184474590791 1.74186935873566 1.453762813527056
3.623996925519658 1.635711834974099 0.7025419855786663
3.619535923264294 1.771751258279221 0.6488925392755515
3.106575594029996 0.2379059618106278 1.452302125420937
3.622761339399372 1.308266064576172 0.6384353788700148
3.206886653718995 -0.3149805539111782 1.221919579330091
3.118223867371854 1.031947209129935 0.5980583973665599
1.916056372403871 -0.1019774968960695 1.235723030592823
1.825233400316737 1.946011787518772 0.7027568332397964
2.519997157292505 -1.04223798985389 0.6203768179742529
3.638041965278948 1.538738859934798 0.7939266626645817
3.606086117190501 0.5719952871477974 0.8884166957131087
1.803307974444092 1.858317677376825 1.021349468249376
3.3840807441807 -0.5606420816783675 0.5938224225889992
1.914763148885198 0.6556212834590511 0.6078621323820468
3.622694024019036 1.300777791043921 1.207191861551685
2.493413705332949 1.536889472393119 0.5866125357367082
2.8945243287187 -1.11953574759931 0.8289902509917289
2.101890723795642 2.03569090990934 1.387646481488161
1.779411867096992 1.258237653405924 0.8898820722001619
2.034956952100583 1.265551919905873 1.49073035978103
3.241825209915601 1.816330025013953 0.5877062923555707
2.757681119029043 2.355240239478206 1.174048315958323
3.110722111670813 0.1385982694197155 1.399776734869441
1.860899960446923 0.6553919327890634 0.6889555161055677
3.636933517686497 -0.5710680761889642 1.020507786395891
2.453394730698458 -0.2409774947643117 1.226700339211299
1.814780110308896 0.4165934446226937 1.082890652007147
2.453394730698458 -0.2409774947643117 1.226700339211299
1.983239280773669 1.271527607443698 1.437683797796442
3.275181981862688 2.001329620020385 1.396798010708601
1.815349203809587 -0.4292615820812996 0.6430557649982127
2.608434362236737 2.347252178986917 1.024330708120465
3.040910619928737 -1.08417918772789 0.7620463998839873
3.498321180522464 1.994879956788326 1.368270429435446
2.147199409059689 2.226155548596599 1.346693019842713
3.593050357644882 1.905504168403245 1.26464217217402
1.802657321653905 -0.191306995392044 1.160265551111078
2.667440208872453 1.098306604601011 1.564563486957485
2.328307067281228 -0.08209406226215557 1.281494851719722
2.600558412299775 2.316618494022432 0.9659901587265407
1.844324605824732 1.902859987181753 0.5932933775022002
2.108309170403985 -0.2699159222750523 1.222954043578942
1.843938979298317 -0.6730349314372218 0.7733021068278153
2.445321772467331 1.691640364901496 1.462333982461342
3.025285364269786 2.119887263281736 0.6054224191603299
3.165294226392433 2.308549612071371 1.24658203116234
2.390987327031556 2.310281148622806 0.7937211074791699
3.608863849862895 0.2684824118491261 0.6899312963103894
1.956352991190353 1.511246501376073 0.5149408949477368
3.645718327035781 -0.1954900196757091 0.8302515615187838
3.324309761952868 2.267247996975347 0.9689782701707513
3.640388220102988 -0.2346975572671999 0.7646682965556512
1.802244542492784 -0.350580018966275 0.7604630636686807
2.666025491905681 1.538730777146889 1.504320300536731
3.547611362547536 2.155960523582097 0.9194514169789325
3.549725349394997 1.206581892236134 0.6079266925329137
2.266272531563542 1.395660791688259 0.5989647605380946
3.643518372917769 -0.191306995392044 1.160265551111078
3.11491844118572 2.34341565914807 1.145373507918844
2.343433002827609 -0.5026696827250151 0.5946094582349376
1.866321716094967 2.116312386454311 1.156807924960071
1.862280532291722 -0.1267122259400748 0.5337004945993463
2.282638246404333 -0.6105169791177942 0.6045741405553193
3.648905380429974 -0.2346975572671998 1.00378959540252
2.440271596996612 2.279515626762307 0.7285553945623057
3.011108508340502 0.5691296272573997 0.5935730443951613
3.000852476616993 1.592862154598598 1.484673093628328
3.235403045553412 1.722283825904769 0.5810559094409715
2.892928677690152 1.791424499939949 1.45072323620881
2.124134115344432 -0.5675443134404762 0.597374233579236
3.123207520447827 -0.1353879790613483 0.592300009169381
2.156925102801811 1.527012864360731 1.488174748688616
2.347435934780491 2.260884728982919 0.7040441419479978
2.55491259385585 1.189544519021467 1.549408748126647
3.607573482628015 1.858633020569666 0.5827083134431684
1.846583740648998 -0.6730349314372217 0.7435052589814808
1.833530586412458 0.3439725654344664 0.8616631195435301
1.787159418811477 1.369702177170088 0.864417929818455
2.330764757016423 1.868163656812768 0.5945494350897216
3.161152078613946 2.180913671967259 1.361982755605938
1.878421699983707 2.112283325006468 0.7004518548189394
2.192835429927321 -0.7750548303934037 0.6099554187332963
2.972285595814957 2.342943304927118 1.292773470416653
3.64938051029392 -0.3462407691370542 1.148580820776625
1.836292001663237 2.062381399591872 0.8655258717884862
3.522976257628017 -0.8729395312280738 0.9783915796324774
1.905354580869677 -0.4688981245098087 1.208825369220123
2.069374759317475 -0.6403145014756831 0.6093160810501735
3.622206591529394 0.3437335289149342 0.9106795988717051
2.483717743416147 -0.1890248746415018 0.5851499172868624
2.605468371657017 2.320080639047479 0.7862117790970062
3.637013836679597 0.4164355172615443 1.169455455328872
2.354469899033404 0.9978265199303039 1.563419577637621
3.646724951982424 -0.2737478909018151 0.8188812444132457
1.797484991966888 -0.1954900196757091 0.9160352331561366
2.334417687463679 2.321859153810993 0.8405286259089837
1.794192508411195 -0.1222460514798855 1.003763987993909
2.158886344372924 0.3255621458862119 1.490472508151177
3.524656634282628 -0.8678003897941589 0.7858287746512001
3.540821113701997 -0.4688981245098086 1.208825369220122
3.555603394366373 1.032248875493508 0.8327013658862358
2.10422879941202 1.711523671976126 0.4826970351591688
3.316719993419505 -0.6430914608233507 1.181976827458111
1.838602211943658 1.858633020569666 0.5827083134431684
3.56647161693827 -0.8045269394455907 0.8423440712435671
1.807390242678247 1.947080280794322 0.9623775316580782
1.864642201009857 2.113954458329334 0.8347314733986146
2.302890157001536 -1.02329924931501 0.6276757790524613
1.803605038802491 0.09092565128099765 1.012442321485488
3.209750927111202 1.345121028404039 1.519687981664814
2.893344592649008 1.252738892645782 1.542865848761436
2.583039117017086 -1.143731818311013 0.8774561709796196
2.244238205328954 1.736163372142673 1.448504712560623
3.546972927490161 -0.2192682247128159 1.222953332212299
3.394286232584485 1.839126618383825 0.4707396896198235
2.121865932618805 2.267247996975347 0.9689782701707513
1.974122969099611 0.4620333730201075 1.430582878042163
2.311864036508938 -1.084350926388439 0.9105851508855307
1.839696702705404 0.2685235833018288 0.7942662424853627
3.585866620053468 -0.7194874415461277 1.121605807431323
2.547994611092034 0.839351340483225 0.5881638571139511
1.910999481608356 0.4904658658379045 0.6079848493717815
1.809383578415701 -0.007091420807310334 0.8537734466290605
2.886925301596412 0.8157344522919826 1.590645665415234
3.005904097575061 2.279515626762307 0.7285553945623056
2.260523389772401 0.7236638454809959 1.581458282475845
3.276660410431657 -0.6514123230699065 0.6092007514843174
1.812552948666362 0.3432277695354978 1.08026999163063
2.681470899301395 -1.044261104618856 0.6113614457827948
3.59714674170892 0.3425284438976977 0.6372271043794145
1.835264251618378 0.8307649932132621 1.177594931991859
3.638385824055466 -0.4523534569699031 1.180816241393629
3.582781081147408 -0.7383892665273653 0.7414648686489459
2.844188750952838 -1.02445542425726 1.040808944367931
2.34061194391904 2.353887975115163 1.116788658846317
2.620138273266647 2.354426977720494 1.173329493272152
3.117851492936973 0.5691942235652016 0.5981028410769014
1.840066637167379 0.3435635823918548 0.8323708303553564
3.617926160505101 0.2691039468628413 0.8616774021743505
3.35163081189836 -0.9938227763181774 0.7681692873682158
3.389454072438874 1.559660015923229 1.463161103570299
3.169070070598097 -1.073911426791054 0.8568946924823766
3.252989586340563 -1.015194783337727 0.6415778380039758
2.490945997949184 2.351042707447469 1.171620064997572
1.874639415496741 -0.8051274326267939 0.9606283139120226
3.619296085122446 1.587316994920042 0.6477397016690246
3.374465690003122 -0.1518693005436838 1.236342267905934
3.46025469064826 1.960468693483355 0.5738713532974001
1.842238419753205 -0.6730349314372217 0.800404185694928
2.684922090838363 -1.071339591487221 0.6251590699804032
2.67876676819958 2.253803387454599 0.6656917447584911
3.611554051018755 0.7433086942538815 1.133599018388672
1.918650230146235 1.126011893254338 1.343818934868368
3.145046566078663 2.299510499419321 1.32675712418806
2.892928677690152 1.791424499939949 1.45072323620881
3.62982462320672 -0.4727490710625836 0.6431188148289944
3.633182381953734 1.682685408629242 0.7943998961223995
3.636916695465651 1.901283271217549 0.8340223747973063
3.329079911592155 -0.4551114710329595 0.5176429812302569
1.812617310355232 -0.007453998029528527 0.8240180008601997
3.308286320877174 1.669696754581334 0.5451602424196872
3.523484055095686 0.03698971659513727 1.275371178459514
2.764260373558012 2.317525105028584 0.9649791272998303
2.345113373654223 1.188339138007549 1.540237645971921
1.821273612303107 1.858183136749686 0.7042292238319108
1.818207614693339 0.09127109679628703 0.8286449252782056
3.553546685797458 0.9222746617885518 0.7932234106421984
2.131368492571417 2.278658416593115 1.233078356928321
1.817069481711451 -0.1222901046664082 0.6469918893337725
2.886895483253168 0.9067549518125176 1.583182439580944
3.036152511383965 2.336623930862177 1.291701462969384
2.66884667240582 -0.281283136172635 1.227774766011196
3.298241321873599 1.340412412906521 1.516717049495059
3.321502972019355 1.912294064126191 0.5642968884447133
1.890151771976699 1.540916532978388 1.300365474295505
1.795226052385892 -0.4295360269670775 0.8348915395907386
3.197933436074615 1.186242096268563 1.537875359824592
3.625496986440898 -0.2346975572671998 0.6421773398339246
2.753843420295347 2.377157698440152 1.147439862366131
2.643994231002293 -0.227758309948045 0.5788438890630712
2.904354558649553 2.337983182428525 1.19444851354752
2.405265074642937 -1.08417918772789 0.7620463998839873
1.8093179703363 -0.3289690096516006 1.191788982785087
1.88401942091954 -0.7881709096419265 1.098082126074222
3.626267808690814 1.946866582139212 0.7504010831067685
2.35492960926441 0.9061427528613482 1.573341243907057
2.481632292817887 1.953043201327737 0.5896196634074409
3.179903163008131 1.395660791688259 0.5989647605380946
3.359306107395667 -0.02340892958074081 0.6009011309541702
2.490945997949184 2.351042707447469 1.171620064997572
3.639150363120361 -0.473898010445721 0.721233403368917
3.395317754772638 1.972484569428249 0.5766419084971124
2.798051217644163 -0.5797541124120732 0.5907362888822352
3.26988791355965 1.392844141558405 0.6011678808260017
1.878511077067977 1.589973893001823 0.4962729349349443
1.872787468462835 1.13125076087468 0.8898506681146721
3.350484709678574 2.269158195692413 1.212199576098143
3.58527573412475 0.6553919327890634 0.6889555161055678
3.64915184228787 1.492143855703001 0.9622768531773631
2.245730923011904 2.287614119412081 0.7941056640983093
2.066832771835388 -0.4827628602558476 0.5131720281594165
1.827668945842298 1.37843706999747 0.6399154379830501
1.853679859687777 0.4919322396811633 0.7938270651559876
3.012017408660374 0.2544238386541016 0.5942286306526243
1.856164257961267 0.570887104051063 0.6367425409855838
3.647048118063759 -0.350580018966275 0.7909479424822069
3.523656344549407 1.186281710860038 1.350689224797968
3.58653955408286 0.7440603019599981 0.8642835961065036
3.622036861208754 1.446007537611169 0.6440318808894996
3.201368316788824 1.686188693841898 1.456952943202359
2.800471720048898 -0.3890237219171072 0.5788698386499348
3.00268627721502 0.2373731472664017 1.455749815516065
3.649541712526528 -0.3891490843488275 0.8152839785089471
2.98689059160067 2.34588049356262 0.9206764619367763
2.878236309989548 2.189965404341422 1.369015097225194
3.661807109523798 1.369490004026607 1.086577075671048
2.483717743416147 -0.1890248746415018 0.5851499172868624
2.025146676405147 2.244145791576311 0.9333053139239462
1.837308070174382 0.655596472522306 0.9619051097134854
1.793368037795841 -0.4741212954914733 0.9869678569417593
2.340994867292853 -1.07322318819873 0.7624724650707774
3.110070544960489 1.394946839398878 1.514742488430755
3.352224220612796 1.897175716742451 0.5210749135191101
2.155014885378162 1.244984018253354 1.528509308183549
2.978078546962464 2.198854689613405 0.6350871730926305
3.350484709678574 2.269158195692413 1.212199576098143
3.166029800188377 2.114407888674428 1.376302633675581
1.793323146133584 -0.4741021165294016 1.030680973881221
3.188670430100447 -0.7235073092202717 1.164123672713456
2.391675071590407 2.339550378339004 0.9215445690265223
1.793098906388845 -0.3891490843488275 0.8951312653128973
3.108513878155713 -1.049995084988547 0.6409800321337369
2.036416880622895 -0.9529266714018326 0.9777961974982858
3.010842789938917 2.368325464579259 1.080012219158855
2.685943026425549 2.340034793242065 1.196520385337369
1.879601464168077 1.128378964519887 0.7451393751627435
2.67033194999922 -0.5501926404215964 1.20766966015984
3.622206591529394 0.3437335289149342 0.9106795988717051
3.566795468811272 1.026548184673003 0.6889118570708215
3.608863849862895 0.2684824118491261 0.6899312963103894
2.152388138212336 1.454803330950443 1.499592142317522
1.867596987944146 0.6554658522413075 0.79327798003428
1.965795824803105 0.3136126634778031 1.385589479970513
2.059123315376918 1.703482734292062 0.442057096168096
1.860851122110889 -0.7384264680039645 0.7706832412779839
3.458597222041208 0.8773461573401336 1.450997072943381
1.822851140127057 1.682685408629242 0.7028674513858414
3.601106794938651 -0.09341944794915705 0.5919487251020308
3.489822703381321 1.511246501376073 0.5149408949477368
3.625614764253892 1.493325421873603 0.647998561117508
1.781370707537932 1.225466599235927 1.085491867412933
1.794307672078152 1.439194166327551 0.8644761264942409
1.82727259476401 -0.6184891969815984 0.8248275137408929
2.540518171999396 -1.071030161000051 0.6540054388715275
2.762528674360808 2.350443187252792 0.915889003495433
2.040792487698124 -0.1432864795013857 0.5104597295361602
3.20129239185754 1.636023097601143 1.467586944920718
2.882279886398427 -0.4024266373613277 1.223387279027043
1.798166295736736 1.205643209566795 0.889857574419737
1.861576877235324 1.024297187176424 1.246870682519579
2.227103455444409 -1.00920046130025 0.6276784453228278
3.626244730976281 0.3433533839121374 0.954491123292778
1.836346454139114 -0.1009723451966077 1.207514903100806
1.885703924757704 1.032738872296454 0.8642827720815778
2.360504924822571 -0.446544853936071 1.217707909574777
3.645104316050895 -0.5179406432656573 1.129872047248384
1.793488222352705 -0.07996075803957357 1.057040529325914
2.546825167272418 0.4082957211512753 0.5883998929533818
3.18565230479927 0.7236638454809961 1.581458282475845
3.627110183423465 0.2722749993184037 1.207378305182472
2.554308372206602 -0.2020480263537864 1.232764542401324
3.659559017004541 1.304283768888002 0.7934157432729021
2.341988473716466 -0.2674498078751939 0.5874311648212218
1.836717183492685 0.6596163746422038 1.233468759280041
2.647581049312262 -0.03069418717729829 0.5860239188882791
3.364507952638047 1.380280275219742 1.499935063288407
3.38243359435114 -0.535546629030749 0.5698364394762051
3.00155211936655 1.537604293672564 1.496416418797774
1.794614459825237 -0.3505800189662749 0.8607480849384379
3.166029800188377 2.114407888674428 1.376302633675581
2.37972828156127 2.313449645485826 0.9374103838628825
1.904647699981737 -0.2957377024257138 1.220025808040046
3.607146841051747 0.7475665588853503 1.235324203197117
3.649173658197815 -0.1220911157757031 0.8990683840644687
1.80971495463677 1.440728425256221 0.6972367767290124
1.810654766998347 1.587316994920043 0.7940803090776935
3.293787556359337 1.454803330950443 1.499592142317522
3.10832140024219 1.28796250983582 1.530464271556157
3.376250624241223 -0.3303827802656583 0.4428200384192767
3.634895661016136 1.858317677376825 0.7950920932420178
2.645014781426709 1.62603696366898 0.5783464834050849
2.805079590118626 -0.1363039667683825 0.5827423799186038
2.546825167272418 0.4082957211512753 0.5883998929533818
3.581063554212788 -0.4701280744698043 0.5365879257924635
3.45594623067724 1.941661294926885 0.5487841288934493
2.487705251373171 -0.2273096131168988 0.5830498323478111
1.922366799279035 -0.8715915302795397 0.9087134389481746
3.064577655549704 -0.8766792978186873 1.112037630486838
2.441245321336191 0.1379251007550416 1.403001224041788
3.28718235887862 1.581636438274906 1.477556648910427
3.604492087687828 1.175601398577353 1.191336520992226
3.334666251459548 1.323339324782171 0.6018637311319016
3.401320062233909 1.492225184323267 0.5468152981406642
1.807237400398354 -0.3123232152840409 0.7264181511570269
2.127612380790484 0.6563666761379359 0.6012599577580615
3.406690840495435 0.327284447953525 1.452838105322583
1.99389593956722 -0.06898909080238211 1.258145885383925
3.431165179297592 -0.6320093358421888 1.181976827458111
2.991697128448875 0.9065543745919129 1.577844184801803
3.636364224031722 1.815086211391473 0.7949064900745564
2.779598350586237 1.189850668014871 1.553265240021653
1.985044076908856 2.213208447902852 0.8751231705259617
2.751786359872108 -1.145892782560312 0.8734058606981442
1.875666749056236 0.7432580973155423 0.7932237941004079
3.201368316788824 1.686188693841898 1.456952943202359
2.267862698033891 -1.035504031396348 0.6409014790754917
1.808104232031752 1.682685408629242 0.8647895155249872
1.898564332024137 2.155960523582097 0.9194514169789325
2.782026826206541 0.7484016280057007 0.5840005806815707
2.218324304024489 1.22125040963297 0.600691220411834
3.193847457608901 0.4767326766478816 1.551550205269062
3.617144038025716 -0.597117805716028 1.153694008154479
2.666025491905681 1.538730777146889 1.504320300536731
1.862280532291722 -0.1267122259400748 0.5337004945993463
3.58316033296543 2.113954458329334 0.8656488582118226
3.616477320767115 1.901423461923944 0.653232150281431
3.220502509234745 0.3336517436780463 0.6010344356391386
1.932097991662272 1.277589284082721 1.366292927116072
3.622110217211349 0.08708693303679489 0.690908336325185
1.796795184277753 -0.3462407691370542 1.148580820776625
3.63608683862904 1.947080280794323 0.8652662161478065
2.892145621386872 1.928875270722248 1.423138677550162
3.158220085949915 -0.8521820456711725 0.6112502842902973
2.980866062180862 2.352884195500496 0.8886458439538976
3.117816700793177 -0.119090704555847 1.261161531476804
2.465425000994759 2.338607962120664 0.8389105500270007
3.644607149184179 -0.4295360269670776 0.7569123787407562
2.496189486375061 -0.9523573218906434 1.078642037972122
2.015112466132119 2.239130695984836 0.9676982757957058
2.143442360349688 2.01224451558551 0.603812046770206
2.780129104156605 1.839047161346778 1.445615500904714
3.014122900118087 1.125618589061458 0.593534988736482
2.187448996104873 0.07274516576163838 0.6022296127203227
2.092390580989961 1.812872820420878 1.433325876179976
3.579567411475585 0.8310847358234047 0.6366401185008567
2.541821135922119 2.337983182428525 1.19444851354752
1.829733635084414 -0.5189586580461438 0.6402925498617484
2.34061194391904 2.353887975115163 1.116788658846317
2.906190272852527 -1.106836062099006 0.806844631106749
1.983575759935616 -0.2236999600494181 1.224518824227487
2.967755085169538 -0.878787384429006 1.112267939714217
2.287955608621759 -0.8521820456711726 0.6112502842902974
3.653903512316974 -0.4294316081735765 1.084843792415617
2.610365135337283 -1.100670046268581 0.7796943147974311
3.644382867962698 -0.007662740098749288 0.94880024558792
3.476335511960794 -0.1850062466060987 1.227333015006205
2.472126055935203 -1.104405422605647 0.8094172168166629
3.00155211936655 1.537604293672564 1.496416418797774
3.639042650484555 -0.07972764970149156 0.8209526971882988
2.032192589720555 1.323656501478078 1.483859194748299
1.812552948666362 0.3432277695354978 1.08026999163063
2.085458042368401 -0.1489826811457329 0.5340331646054742
2.095716231223849 -0.9884187029225702 0.7399314202275207
1.813960084014418 -0.5710692127200499 0.8267470980340572
1.813178283503224 -0.2737478909018152 0.6896166486576441
2.751994666831324 -1.14964823594228 0.934481080489149
3.597464904483449 0.4918623098217398 0.6893662753501793
2.27494185854342 -1.072069470971454 0.8112275194301226
2.930361414467034 2.37329920767028 1.145755333825958
3.61180964723628 2.062381399591872 0.9178510617255784
1.858220650873616 1.127646211927685 1.134962738656467
3.379283272732049 -0.4473646821765331 0.487751324714222
2.441375212512701 -0.1607729916595653 1.243753679277175
2.962340629893236 1.866363916835175 0.589292211213139
1.861132900842648 2.113954458329334 0.9178975793394613
3.003582143984756 1.464556265709596 1.508503621723392
2.978078546962464 2.198854689613405 0.6350871730926305
3.630422559633527 2.002065666886233 1.020621229939379
3.610996716743371 1.682717258625681 1.200946758439147
1.978902902145942 -0.5043286594582453 0.5393739241568603
3.328826322098393 1.181956460935231 0.6012818553068438
2.228709220599291 0.8380614396999933 0.6006147282711344
2.025146676405147 2.244145791576311 0.9333053139239462
2.098203855311251 1.497392379536124 0.5612993421922232
1.801374996209517 1.437286528555642 1.14283496587655
1.798597652112589 -0.1219852774360524 0.8726079314227017
3.65338078566108 -0.1222609308776165 1.085826379533585
1.842183269860176 2.062852985216868 1.163387473114878
3.452142444481031 2.153304905947759 0.6470750066308051
1.805625484241204 1.901283271217549 0.9177170857954347
2.552578631712316 0.2371135145685477 1.459759748408884
3.221285869078357 2.017373295667023 0.604469212978945
1.815371038444933 1.587316994920042 0.7487353862682902
2.550144681257839 0.03506924359905503 1.351777215795073
2.782315899912391 0.4081856505920721 0.5842385857931055
1.833773515970754 1.999952175559809 0.6996852795048009
3.646641140171718 1.226338534773647 0.6890314670599262
2.685541194328912 -1.072540964330823 0.6689796176318955
3.573575525120026 2.113620231664761 0.7509082571820652
3.431134976158119 0.1776888076329576 0.6023169258947949
3.449052377753465 2.225543478305705 0.757442108150564
2.663449512038352 1.126242100141694 0.5840012110705837
3.005431506913174 1.396049300539603 1.518702682876015
3.514247198502703 -0.8656585400001823 0.6681595589731207
2.115591261455355 1.243064259140424 0.6014211325559273
2.01922604632892 1.972643239679178 1.393022290496822
2.089087832282081 1.23943336072838 1.518892767176237
3.500224036956434 2.176783004204555 0.6837440906448604
2.117349372473281 1.181956460935231 0.6012818553068436
2.664998625321286 -0.1210254293493253 1.267093179484014
2.864153115434613 -1.147482995133521 0.9373741737868891
3.60647899186627 0.2685235833018288 0.7942662424853627
2.671792650673584 -0.8072247537893926 1.142434706458684
2.833965426161475 2.346575685425802 1.296935324314262
3.295037228877375 1.281176975616317 1.52517091860349
1.799920097829825 -0.3123232152840408 0.7919702579942176
1.823414355172301 1.308266064576172 0.6384353788700147
3.12048238756524 2.329061020038504 0.9217616175862906
3.623107485685134 -0.6184891969815984 0.9288889371865354
2.682026255806659 2.299832607475243 0.7472660283485438
3.522689286169028 1.220773803324986 1.356409485576442
3.374465690003122 -0.1518693005436838 1.236342267905934
2.01128672532758 2.074174970855232 1.372425038359546
2.970049461479074 -0.9241954226549369 0.6083500819944698
2.511927507163419 -1.124583714121268 0.964392629775829
3.516487726896417 -0.8575792631280732 1.068535277362875
2.778130737153199 0.9069104413137584 1.587320708974656
1.965795824803105 0.3136126634778031 1.385589479970513
3.668584778211653 1.257670194473217 1.085786756009648
3.636231158630892 -0.07978278339697001 0.783770175057433
1.828513957655337 1.72792819863466 0.6480158675921186
1.806281981633249 0.091048340131447 0.9513314674971338
1.838174640503191 -0.6730349314372218 0.8818888845011305
3.16353744816734 -0.6105169791177942 0.6045741405553193
2.005638920222127 -0.9422871030332456 0.8559053779059191
3.546465686983218 1.172454126182869 0.6078809274366475
3.635955129349156 1.947080280794322 1.108199592230785
3.321502972019355 1.912294064126191 0.5642968884447133
3.230896469684327 1.623378712687314 0.5837873608156521
2.405265074642937 -1.08417918772789 0.7620463998839873
3.652510171001607 -0.4741212954914732 0.9380608984600288
2.417868356119949 2.333380960348676 1.24837469770156
3.202636220003388 1.784663138638351 1.441652174567577
3.526626200797019 -0.8690198395308939 0.8355004913322214
2.220964682156034 -0.3863844374751075 0.583436449235184
1.797364327412811 -0.2346975572671998 0.9553120109328551
2.985050562730855 -0.3597744137635006 1.2230640482819
2.073473052258655 2.258449565706364 0.839306864329517
3.61115822937963 2.062475716716871 1.103552030966474
2.663449512038352 1.126242100141694 0.5840012110705837
3.00029846750516 -1.021015135992041 1.041728815916732
3.642867720127581 1.858317677376825 1.021349468249376
2.759411459571827 2.344234803528282 1.253879187514129
2.776512498956365 2.066733569742735 1.398314335220416
2.453736598652116 2.017428798753655 1.401715876659289
2.263856528803935 2.059152897676591 0.6060631611313759
3.508544409189605 1.703882347088198 1.357242143918389
1.81170325791982 -0.3123232152840409 0.6892436124487498
2.308157832666842 -1.081932555390263 0.8841566529869797
3.357808260183836 2.269240308054895 0.8846553595498501
3.649277434242409 -0.1954900196757091 1.017673802571776
1.851274329818395 -0.7386511255100892 1.041601058558943
2.217326030246377 2.266947691028291 0.758989758659669
2.410023183187708 2.336623930862178 1.291701462969384
3.252989586340563 -1.015194783337727 0.6415778380039758
3.369495514407702 -0.9409341440810554 0.6239957693312189
1.796272641261654 -0.4696142960905864 1.137061803467477
3.651510286898042 -0.1573171497701797 1.03834785879219
3.359047518779974 1.901465321775931 1.414326597896226
2.558619249352225 -0.2415660991980264 1.228218335463601
1.809289595754968 1.492338343521257 0.7480058195969087
3.634472436651854 -0.3123232152840409 0.6892436124487498
3.566612755813501 -0.6750509370250062 0.6352463182356661
2.292442712427135 -1.085218860641502 0.9445961889339611
3.667128114959564 1.304283768888002 0.9622547901858051
2.19059619753039 -0.1343290751482639 0.5926003228016851
1.800191620663313 -0.07962180111612571 0.9018302021368408
2.091885433055033 1.935835083757551 0.5414735689962109
2.800471720048898 -0.3890237219171072 0.5788698386499348
3.593840691890039 0.6562139817089172 0.8641210157590904
2.054894073669035 1.794416185052433 0.454808948111352
1.852341461074099 0.4914075999954198 0.6368856116423214
1.816590332364644 0.1875215534362976 0.8842584645546425
1.820467305403101 -0.1954900196757091 0.6436223335946589
2.984456110560883 -1.126042601065444 0.853778575181126
2.511927507163419 -1.124583714121268 0.964392629775829
1.806281981633249 0.091048340131447 0.9513314674971338
2.756728172016885 2.378828947852697 1.079767745171966
3.626244730976281 0.3433533839121374 0.954491123292778
3.255579497041283 -0.1343290751482639 0.592600322801685
2.886913513369112 0.724292515758403 1.594106946603768
3.631690794422942 -0.1954900196757091 0.6926155999027992
2.049131225344028 1.505369987597742 1.464650049225593
3.571536279074932 -0.8051274326267939 0.9606283139120226
3.618426927373939 1.858345715518104 0.6514878129255241
1.824554617288837 -0.6184891969815984 0.8828461309546575
2.549832093738949 -0.08355915552083761 1.286615568407762
3.395317754772638 1.972484569428249 0.5766419084971124
1.828484482964643 -0.6184891969815984 0.8020994967400179
2.170648629032371 1.09217504900877 1.545791468219243
1.784534633171011 1.369702177170088 0.9622618209617051
3.004930373235482 0.1379251007550416 1.403001224041788
1.79733039513764 -0.2346975572671998 1.04520113587252
3.21902550664829 0.5693613652248459 0.6006528476628235
3.593464069053139 0.5714619807680464 0.8325803463668402
1.826069496764892 -0.6184891969815984 0.8483971162002186
3.258880547428103 2.290525422196164 1.195407012156572
3.593840691890039 0.6562139817089172 0.8641210157590904
2.303732008665852 -0.9444221095854654 1.078764382543597
2.8945243287187 -1.11953574759931 0.8289902509917289
3.651962583236619 1.226175905500331 0.7452203206031316
3.587693752921568 0.9224399045035729 1.025180733346814
2.126096440674558 -0.1844048095745677 0.5602343578387867
3.305127037183281 1.530832554605722 0.5712965726897727
1.826873679099335 0.4919678552713864 0.9583076601706628
3.636067839585441 1.771751258279221 0.7947302760949739
3.347720294221936 1.620501220762016 1.466186873822345
3.625688393256621 1.587316994920042 0.7022166536213941
3.525827321796973 -0.868377885189819 0.8105857512739152
2.445323217954681 1.592862154598598 1.484673093628327
1.808671970990749 -0.2737478909018152 0.7271314655113574
2.185445730008242 2.291296881514704 1.286596038997578
2.470847462572118 -0.730318310881322 1.165243472897758
3.605607865086767 0.08488734640991008 0.6396306223127196
2.285023615957726 2.180913671967259 1.361982755605938
3.661548991333485 1.226181961865311 0.8643064587380379
3.660915036160016 1.369702177170088 0.917433048122187
3.031341831302633 1.331117748347676 0.5941530932313187
2.069981744223454 2.263946534754441 0.9150004977314555
2.346471666926536 1.535551235999859 0.5920716082202691
2.01844548584889 2.225517048391079 1.100415140864048
2.782294729331401 0.2539837523704303 0.584708249531475
2.780683646696836 1.289736637125283 1.543210838997379
3.631457505687315 -0.2346975572671998 0.6906683367884513
2.117113782264307 -0.297748059989943 0.483258429153607
3.48780345293862 0.2317704795565027 1.353241796402008
2.774383043898089 -0.8072247537893927 1.142434706458684
3.175112210390835 -0.871224665706865 1.111907980065886
3.369896870934896 -0.08649961362912989 0.590941615260038
1.808250863249451 -0.1573068511585594 0.736867556566207
1.844324605824732 1.902859987181753 0.5932933775022002
2.894143394754729 1.46514059249506 1.513087488007092
3.639307671168475 0.2683228372264391 1.12330141031673
1.79397706698586 -0.4295360269670775 0.8577912461817066
3.388919243501132 1.607318407257006 1.459235403856906
2.53879689263974 2.120922274893142 0.600181241639817
3.11560331918473 -0.1884723790733962 0.5905528676299277
1.837311844708778 0.2684824118491261 0.6899312963103893
2.400246015628645 2.257031145997133 1.348395580575427
3.641724271202753 -0.2737478909018152 0.7623162199100714
1.841683606883845 1.175601398577353 1.191336520992226
1.820467305403101 -0.1954900196757091 0.6436223335946589
3.629343093906531 2.002065666886233 0.9177986863408405
3.573713383352003 1.032121650850436 0.9622434924823934
2.974999520210527 -1.074371606865064 0.704908741198369
3.553546685797458 0.9222746617885518 0.7932234106421984
3.209750927111202 1.345121028404039 1.519687981664814
3.65206711372733 -0.3123232152840408 1.041036623288509
1.800407046969054 1.538742511599558 1.086683919102468
3.431165179297592 -0.6320093358421888 1.181976827458111
2.762610521580368 2.320989094552448 0.7837008375346215
2.837731870883915 2.342231229648222 0.8338851668719404
1.79702634086504 -0.1954900196757091 0.9695626405988955
3.644830487260825 -0.2737478909018151 0.7931409743122978
2.552578631712316 0.2371135145685477 1.459759748408884
3.00511647008446 1.31518770325901 1.531223035714526
2.540518171999396 -1.071030161000051 0.6540054388715275
1.922366799279035 -0.8715915302795397 0.9087134389481746
1.799127576507915 -0.350580018966275 0.7909479424822069
2.477976949572697 -0.1200430933244375 0.5878854088461268
3.519990080581376 1.245807808243799 1.360792455191472
3.343644440581708 1.757988358022388 0.4851548187653912
3.003582143984756 1.464556265709596 1.508503621723392
2.470561609032937 -1.082684892125305 0.7319643007369949
3.287561623364285 1.679280805631334 1.456468358301069
2.183036122010017 -1.031062918494714 0.9655230084383643
2.112518208630328 -0.3089845014473295 1.221742997217907
2.158993335693054 1.581636438274906 1.477556648910427
1.957845138345924 -0.1665888734956337 0.4832132020086
1.84114639782827 0.7433168169134425 1.025284950380264
2.27471978004016 -1.036488994841466 0.6832971883709684
1.816590332364644 0.1875215534362976 0.8842584645546425
2.887347961800487 2.018393347537195 1.405137948997945
1.836404882212217 -0.668913537445505 1.099606878045177
2.442593550586917 1.464556265709596 1.508503621723392
3.623268424670359 1.227620247639792 0.6367873749238825
3.352536785936675 -0.9984578963996851 0.7933993026648034
3.492378059379135 1.949024463704471 1.376552721943273
3.452272427978194 -0.9354715560091704 0.8017098579228247
3.516487726896417 -0.8575792631280732 1.068535277362875
3.646819423739704 -0.1954900196757091 0.852615996812486
2.685210590937592 -1.1015840362172 0.7771289973374157
3.639067547126959 1.682685408629242 0.8901911429092355
2.280145894383296 2.114407888674428 1.376302633675582
2.091885433055033 1.935835083757551 0.5414735689962109
3.364507952638047 1.380280275219742 1.499935063288407
3.575075541594151 -0.7385449081823581 0.6718164914601208
2.978362192081906 -1.066906518642289 0.6380726064419011
2.681470899301395 -1.044261104618856 0.6113614457827948
1.823284810989746 1.901283271217549 1.176435851237366
3.549349904161919 1.031733347387348 0.7932218768093595
2.780297776657319 1.253078709190379 1.546667752551359
1.792366261425031 -0.4295360269670775 0.9412829811106982
3.52085037155897 -0.8661875062914322 0.729478450977
1.844396772637517 0.7434429261629639 0.9622436041134872
1.80971495463677 1.440728425256221 0.6972367767290124
3.044723866386932 2.366833455174715 1.116788658846317
1.832233421048021 0.5752001651707668 1.230761510499128
3.209750927111202 1.345121028404039 1.519687981664814
2.43542989700984 0.6568481926493938 0.5935421051123984
3.60647899186627 0.2685235833018288 0.7942662424853627
3.651433273223622 1.205319700401737 1.025083554514586
1.8222398289478 -0.6184891969815983 0.9747691559270402
2.57388093357514 -0.8798146240563851 1.112540972241731
1.849377657074851 0.4167142943587798 0.7940727120234257
2.456840987400485 2.366969726794639 1.145449879233188
3.327326359742457 -0.3373652086303827 0.4836454131470032
2.062205901314935 0.7174797626080797 1.537514225299933
1.795960542879981 1.439194166327551 0.8329889549419356
3.566662989991217 0.7431579545514235 0.7451390821248564
2.645014781426709 1.62603696366898 0.5783464834050849
3.31118788452702 0.143400133625525 1.392379167739851
3.648041392495214 -0.2737478909018151 0.8401179991448218
1.823311442240687 -0.6142149187284843 1.111324335617682
2.531135828540863 -1.141233691445103 0.8793807487541493
2.240109700995917 1.460254349192143 1.50246036046619
2.807456627143586 -1.150492544675803 0.9200999944832207
3.541789407171124 -0.4202739029412437 1.214606423027033
1.894953981425145 -0.7410969338371973 0.6351462637912158
2.016299522193868 -0.8788790149240793 0.6198047438397686
2.645574974251659 1.577695070351188 0.5803582485667793
3.072786098323521 -1.033847700743908 0.6270721684113365
1.818858005223326 -0.01166181136112285 0.6921126808524318
3.321502972019355 1.912294064126191 0.5642968884447133
3.104805711025834 1.788956609802576 1.443510123220258
1.994865566588489 -0.9379680957621885 0.8263189984110722
2.347435934780491 2.260884728982919 0.7040441419479978
2.097124295487189 2.00352839805615 0.5995473877365771
2.807370279744704 -1.147576108893536 0.9020991921495815
1.798178278179178 -0.4741212954914733 0.8102897518733415
2.891902999949726 2.353377892208712 1.172402231589856
3.275218550780624 0.5548435407736571 1.565560084583645
3.406690840495435 0.327284447953525 1.452838105322583
1.802180788473356 1.771752418696978 1.022609727113575
2.476126233092607 -0.9241954226549369 0.6083500819944697
3.209250378746851 1.392094243157854 1.512513134085194
3.653517686198916 -0.3891384293698988 1.036534676109845
2.472856248144671 -1.068650756181212 0.6579806424762007
3.653763030955652 -0.0799955671391431 1.09068532325456
3.649317688734988 -0.4741212954914733 0.8322510166608462
2.284495494346171 -0.7840757024592501 0.6093292231667256
2.406814551550029 -1.127120532103125 0.9397242432954901
2.400246015628645 2.257031145997133 1.348395580575427
2.490742409356916 1.625498554998069 0.5825565422614633
2.847333361071198 2.320233313929907 1.333277013681612
2.608392491797485 2.356537471936684 0.8846272183784067
3.618520504540852 -0.1572461831671873 0.5782278564530129
1.895415871159359 0.6766642841219779 1.334131391465424
2.203866658323358 1.997448614302362 0.602063358547601
3.098243014655366 2.316388666953107 1.215038238263629
3.350301067355735 1.669904260800677 1.456468358301069
2.552578631712316 0.2371135145685477 1.459759748408884
1.996358684107535 -0.9305326366883486 0.7483766351920834
3.643321314499759 1.587319052835974 1.025293910526456
3.320079253897115 -0.1844048095745677 0.5602343578387867
2.780297776657319 1.253078709190379 1.546667752551359
1.997123316818208 2.225543478305705 0.757442108150564
2.108309170403985 -0.2699159222750523 1.222954043578942
3.283477145531345 -0.95571708491918 0.6206564914767937
2.139065375946389 -0.9775513157857987 1.039646242063479
2.89092764952348 0.3997606179697181 1.538193666123132
3.588710602445489 2.000956781172626 0.647305075261597
1.862027852729643 2.113954458329334 0.8907701110573935
3.570508945515436 0.7432580973155423 0.7932237941004079
1.811114561596333 -0.566744308451977 1.120973611680838
3.088909065503673 -0.5736296739076161 0.5991367477161405
1.823414355172301 1.308266064576172 0.6384353788700147
3.297102522095953 1.452727940282022 0.5989605524438011
2.334417687463679 2.321859153810993 0.8405286259089837
2.076680180163971 -0.9409341440810553 0.6239957693312188
2.864153115434613 -1.147482995133521 0.9373741737868891
3.579948267772096 1.500486133754787 0.5378451196552914
2.892842623299991 1.838395329397129 1.44264971100725
3.625589189551651 0.1874167270274111 0.860985546651252
2.760842737670674 -1.08715955519043 0.7217505548778382
2.130430739859173 1.811663545400167 0.5513737488808738
2.35391266213774 2.015449365404884 1.398829279800194
3.649104837213347 1.370229428167304 0.7463968284197611
1.882165911609872 -0.8043599782108135 0.7933587804368275
3.600191424504786 2.061996699392737 0.7501511348505738
3.594417976516536 0.4167575914748795 0.746093655025997
3.588228518980725 -0.7384645444780047 0.8217814413558866
1.957874266522968 -0.7665183461037466 1.137501785532039
3.643994906098318 1.771752418696978 1.022609727113575
3.611383443580072 0.4926912389116813 0.8866710538009665
1.823311442240687 -0.6142149187284843 1.111324335617682
1.979320293727721 0.5374046630990133 1.444341159966063
1.82762738005809 0.5711464215530311 1.02433591303549
2.663880965240273 0.2539837523704303 0.584708249531475
3.424786505159806 0.9250559765684346 0.6012511269495546
3.347971839260423 1.497392379536124 0.5612993421922232
3.33752370329088 -0.9211548983692417 1.078598426764035
3.283002776090773 -1.022980154319516 0.8691529717888997
1.936669153074846 2.013151137792111 0.6137733260136131
1.848707228934436 0.7438232887703633 0.9173825041987791
3.639067547126959 1.682685408629242 0.8901911429092355
2.333505021217809 1.99908482550649 0.5996039671840554
3.59477031207109 2.060457898596196 0.6982215389635225
3.119402236574974 -0.09417911760807893 0.5947935245290621
3.620106197806781 -0.6184891969815984 0.8483971162002186
2.336105149611184 1.394946839398878 1.514742488430755
1.795281486750457 -0.3891490843488275 0.8368100873294988
2.159199920104892 1.62943868721661 1.466908114397894
3.59714674170892 0.3425284438976977 0.6372271043794145
2.258804450339482 -1.06563839463697 0.9706072329000416
2.86129290386796 -1.146356661784041 0.9040910139987735
2.124134115344432 -0.5675443134404762 0.597374233579236
2.926823759525447 2.319061326152124 1.330628336026292
1.983239280773669 1.271527607443698 1.437683797796442
2.420890330301887 2.119887263281735 0.6054224191603299
3.628822187274507 1.90114873059041 0.7504967227966295
1.997123316818208 2.225543478305705 0.757442108150564
3.279403491431697 2.150126151547831 0.624120404801315
2.783844644592853 0.1689678973001873 0.585097716246308
3.426949648242754 1.972643239679178 1.393022290496822
2.664141541305806 0.6568994057931864 0.5840084648875121
2.992630142638737 0.6365446895577178 1.585791589877898
2.887347961800487 2.018393347537195 1.405137948997945
3.413983104851118 1.323656501478078 1.483859194748299
1.827181725448555 1.18250038895062 1.025110829589878
2.89245273636453 1.641925303339308 1.477321670691466
3.377516938832257 -0.2910561222084163 0.4424330544258806
2.487705251373171 -0.2273096131168988 0.5830498323478111
3.607573482628015 1.858633020569666 0.5827083134431684
3.517935283971396 2.182551585392929 0.7165314925693507
2.799419099733799 2.021070077114278 0.5914046008304824
1.910999481608356 0.4904658658379045 0.6079848493717815
1.785346325767219 1.258237653405925 0.7933325628736289
1.82498093414885 1.815088497237769 1.179599359098562
3.567119139581914 0.3642088728222125 1.303027335875845
1.823481670552637 1.300777791043921 1.207191861551685
1.904349120872221 2.157914908556624 0.8932194893504598
2.631559264399859 2.376451869434775 1.146941200016254
1.81588937587459 -0.3891490843488275 0.6426290317046765
3.33741573837656 2.195342801140559 0.6611839767005319
1.79397706698586 -0.4295360269670775 0.8577912461817066
3.64955335349509 1.25887819647303 0.689335327713543
2.954122870514528 -0.4678567429507803 0.5868805206014189
1.792366261425031 -0.4295360269670775 0.9412829811106982
3.542736579353002 1.425296848648719 1.310924235134518
1.813759300954251 0.1871785571291425 0.9097286065546897
2.417868356119949 2.333380960348676 1.24837469770156
3.096294077583117 2.165835660200725 0.6210841235312178
2.773224580352815 -0.8806109506623394 1.112752629833743
2.897486043698432 -0.6655219208769965 0.5967880373402759
3.114532751439556 2.326918231978489 1.02597896835439
1.879704077633402 -0.8045269394455907 0.8423440712435671
3.361080441538794 -0.07506727240902394 1.267426566100115
3.666400184142038 1.304283768888002 0.9174135468595641
3.652800220798574 -0.3505778879704892 1.038899277799742
2.34238120871975 1.591481925356902 1.481025191535131
3.393065842616578 -0.9104286884536579 1.074720884627854
2.354474439673417 2.322558029030382 1.247847163917352
