0.6802198152113953 0.1731285499596245 0.7571293752690687
-0.7842406293171482 3.721302276638207 1.038702463707433
0.8099233915281823 2.163471413024401 0.9481602048261694
-0.4899503563858725 0.9248565182020465 0.8968670535037149
0.7637740993239329 0.2805078138473887 0.8227721051733197
-0.5735522653573677 0.4037441397662315 0.228088407293054
-1.014648565464835 3.134657511810568 0.7953277278905768
-0.9885219447067033 0.7548151099293612 0.5819508842596723
0.9640908889226517 3.694927777233029 0.5367525522162374
-0.9649338388404281 2.052770390273257 0.8332374538254292
0.9748061621072497 0.8549712135471808 0.7428632769248849
-0.8411276801378758 0.260708338642442 0.8322054061422011
-0.8591953439076271 2.32954961982855 0.961766853523393
-0.5557981464981892 1.483851982557023 0.256166144357171
0.234949466490462 3.364908540613786 0.2423454482018171
-0.7728640054557504 1.921694453340716 0.2564975170884742
-0.3884274853072384 4.25450181953549 0.7417072296544782
-0.6136608901527202 0.2031185797737446 0.263869020125156
-0.7861052298766178 1.06994469951872 0.916951516743075
-0.2743964974324124 4.263597545050574 0.7779426920465182
0.417324648169158 1.796897364513649 1.199676284603648
-0.6721871791116818 0.288904529550258 0.2380085372147388
0.9975331160616983 2.617400413735985 0.5416920516478145
0.6564546491204676 0.7303418783163372 0.8765290080356543
0.9596947748188875 3.770463881971205 0.7855900885763442
0.1894763937689119 2.68725536201771 0.6974258183111807
-0.5296076833589362 0.07864499499221755 0.2667136370167074
-0.6126699446753592 4.099833110288896 1.044172751661616
-0.9963246821496842 2.043077752573141 0.4769224088426929
-0.5178927247223946 4.066288659920017 0.2891748693551302
-0.9957113102382029 3.26776693848478 0.8934318838463883
1.003239323179649 3.134652500725563 0.6906669329990411
0.9984365738059076 3.134683235692971 0.5447267776193623
-0.3918248369968975 3.987107293200925 1.053977046827926
-0.5033164131742389 3.314574690865987 0.7814543746573752
-0.8310214030369056 3.700969784087121 0.2084646231241479
0.04391394751016223 3.399854271221249 0.8026235452593671
-0.8187994700842993 2.653245722890082 1.050350033662227
0.7394228305256672 0.4750686555372741 0.09257392708105744
0.7033731944247154 3.645959193461081 0.1755679371643696
0.2923590181498829 2.634302472233114 0.2470012297923148
0.9964876181529815 3.071479756988643 0.4412816585685392
-0.2994031564429053 2.167886249173145 0.2469116518879993
-0.0460344533225267 -0.2923078200163467 0.4847862352584877
-0.8274536692034564 0.8702257730647699 0.1609190871179815
-0.4404571711878852 -0.1681007450928541 0.5932846830534342
1.017844691044299 2.805543332108913 0.8137399323563652
0.9302272944274184 0.1146304342395077 0.4945968413519325
-0.9787327400474506 3.695008860256722 0.6089237172669553
0.6992580410862985 1.776585415331548 0.9599949278615184
0.9517608995975945 0.4890617894799771 0.3149889916662972
1.002691955541252 2.904857287506875 0.4364472140569559
-0.9706131524958007 3.700214984389577 0.9543852170483422
0.4507216465347684 2.31344659847659 0.6746910507909051
0.9754030360745611 1.011409905494929 0.7790534666727782
0.9424127876539341 3.924005973570494 0.8895069451287408
0.7968099915423383 3.468232280179507 1.024809176900321
0.9672399190810431 3.573202237727855 0.4403911489482719
0.2680379618486857 4.161634109004589 0.3738654102444946
0.8529275195334068 1.842996825837919 0.8948424625090268
-0.9633993491622905 0.8072310002891323 0.3232048608254545
-0.5379760244348713 -0.1738609405124724 0.3758670193661334
-0.7514665422819641 0.6349077246040831 0.06477251208836954
-0.4725569600887545 -0.2401253693268024 0.4795211633414656
0.9642496501509169 3.637371128012429 0.9531734729221081
-0.0565543378977996 1.840016054365455 1.164867166817302
0.9747737244048664 3.394285873453884 0.7586416693171809
0.767745651881552 1.488751528655177 0.2569698801866709
-0.9886525508650987 3.632162809738905 0.7160771190890556
-0.9730614909492334 3.454409382080058 0.4406284797056509
0.4932206460308328 3.817326433100957 1.054639632814146
0.1168468414879288 -0.2805300396981944 0.4717266677958514
-0.6132967140903004 3.807549042507199 1.051714154262728
-0.9769225778323658 3.332186622597668 0.4445949190231399
0.1636408621086755 0.7548482306114347 0.898771774608725
-0.6300426104410082 2.601780996797376 0.8952514750780406
-0.6078912252031581 -0.2128938247642798 0.5363357629988099
-0.8974872122123279 1.843147901233783 0.8799908214375586
-0.9859008850811104 3.454415751725031 0.7501307904003688
-1.003606826986181 3.075949377175853 0.9744602551904587
0.9129852235930537 4.06473647624123 0.6661164352463678
-0.6634396560327547 0.8904627411653431 0.8936056804496753
0.9775902322643304 3.513877134738642 0.7058687858965688
-0.2492244895163909 0.6196156093226459 0.2256009965731265
0.0663115691565381 2.915819236386264 0.2405323567515363
-0.4133597460518022 3.363852465887596 0.2438718245945644
-0.9122701404687351 1.431528543649868 0.891386630533095
-0.931692399934462 3.981643632700007 0.4245432146910905
0.8002029174195176 3.406175321586415 1.023545233899763
-1.001338515064462 2.285156108141076 0.6265145877601113
-0.9672347363998217 3.694603445138256 0.4397510395194286
-0.9527966943313808 3.924005973570494 0.6090171187507967
-0.7603985924315296 0.272103175768953 0.2441844336432374
0.9057171868587051 0.3777825921246999 0.8480978796626273
-0.8927910942498367 3.554124422651811 1.01227330076868
-0.7697686359801098 2.737997476614243 1.050485426025895
0.9985377849292181 2.809631033631853 0.9688198992134498
-0.06335589878228852 1.371124780117447 0.2371609967894894
0.7356325116995723 3.344710526010422 0.06269322635809682
0.2526041314950009 1.847821023779996 1.045248025076324
-0.9123055651547261 0.6993822663140583 0.1069462271642454
-0.908251492883258 1.634540916818388 0.8847246313161032
0.9878834475813337 1.697430741485588 0.400634029511393
-0.2743964974324124 4.264722101189744 0.8198098223393759
1.000526046270121 1.493377686568699 0.7944007542692895
-0.05793347521704667 4.27609670051857 0.8226264935042875
0.7241595560040175 0.3648590320537683 0.8286438361471553
0.04730971888546162 4.003764175106014 1.066778169965993
-1.004787396432526 1.278384590999246 0.7424886215413197
0.4419183684407466 1.716455188725867 1.185204921250822
0.282010102409552 0.6490925044470036 0.8765835025548957
-1.004787475738989 1.278384590999246 0.6949590032253588
0.9464592168135142 1.806182873646798 0.3030819454298446
-1.00357713520683 1.278384590999246 0.7836962219163433
-0.9449001488233032 3.454409382080058 0.2015348671745074
0.04686219154427284 4.248647149955838 0.6373011022202177
0.9417055707704922 3.924005973570494 0.6090171187507967
-1.024579281811848 2.722263160221752 0.7677439873354746
0.9523082256014018 0.8072310002891323 0.3232048608254545
0.4592283924492503 -0.2069268601889474 0.4316475301793732
-0.04655463165821265 -0.2072728303321593 0.5791617407575311
-0.6631994852222067 1.684852914975732 1.047479256198502
0.8514213922539293 4.172507353221071 0.9478307467808206
0.046735302279741 4.211277038262184 0.5101831701375322
-0.9895260580225452 3.573202237727855 0.6049839754178121
0.8601123363354635 3.25885545797256 1.024429476778093
-0.5660966175553944 3.487048998069026 0.2360549695394257
1.002631000200476 2.617400413735985 0.699414288320821
-0.2744863618935466 4.254416594404515 0.6974651479873091
-0.4633206031631214 1.218841981338966 1.011320039417785
-0.8662483856115197 1.336795772506912 0.8960565210989159
-0.06359482728852194 2.637463813778938 0.2364325733539443
0.8136383866848007 3.933369303832005 0.2749132618299127
0.3773553652559572 -0.2434240142599475 0.4590850346482287
0.5539253935694001 -0.02772562995930437 0.6540480475723667
0.8666121611878406 2.620455577746809 0.2639086137070499
0.4821772393214303 0.6058975012429613 0.8591226997469278
0.8791342767872511 2.994761817136596 0.2417155191359944
0.05949390059125738 1.126753027919165 0.2382762424173095
-0.8224972394807874 3.784284780871083 1.040467879347152
-0.4829360883636537 1.353348829587485 1.0690998579939
-0.2931137131578996 0.7034602388069814 0.885688896291409
0.9385464622560652 2.043145650708051 0.3004824092917715
-1.020682282146965 3.070712385020434 0.7986534405861007
-0.0504183251006111 -0.07610723811550108 0.6364109856972662
0.8559262533625488 2.043338939841079 0.2621845317987926
0.04846686670544005 4.092665980122115 0.2712920062562857
0.9011368740785307 0.6457267343881397 0.09930150743454544
0.07521874693396469 3.230586622070612 0.2432944467251935
0.6908671819084181 3.232521237084234 0.9829031460187357
0.1736097064508209 1.07445816946785 0.9617604317893552
-0.4297837443185006 2.632194795815343 0.2525545287248026
0.9871076827669369 2.531359597951467 0.878742418968143
-0.9448538842207279 3.987235322094496 0.7451764314375647
-0.1264883826708224 -0.2309088224422669 0.3645007379801905
0.9563241166526265 2.292665969691962 0.8545013927254025
-0.1640915757839219 4.270188471489387 0.7790084263148794
-0.661942669186844 0.0883780832002154 0.7222228949388017
-0.6650175181927907 0.8380171525887591 0.8902554315097754
0.5612456136282782 3.606739483212915 0.241057948349432
-0.9338824231320094 3.475291212528677 0.9946849764666547
0.9378904425718284 3.9239248905468 0.5314639065243465
0.2379099606834602 0.511013644287456 0.2275423288917919
-0.7294092590724356 4.087849842840935 1.043060938586442
-0.9704338893768875 0.5944879405090475 0.8403229456964994
-0.9840380996024321 3.394272131946939 0.6126148965278322
0.9964876181529815 3.071479756988643 0.4412816585685392
0.4734187017819187 0.4330729990869118 0.8168337794518775
-1.010343533120941 2.588786687252958 0.6893947655021372
0.9446407267677008 3.267726003657371 0.1983140870732831
-0.961709179044792 3.155594442431863 1.007880681273198
0.5877130226644221 0.1959267323667509 0.7242732293995765
0.9263578311638205 3.353126018053443 0.9978258783238436
-0.9895602288496788 3.332219983617907 0.814498275460003
0.6284112824921599 3.101159131047948 0.8907290866479269
1.007264742568029 2.655842387458399 0.7698882401935491
-0.2181866495531401 0.1843806879621846 0.2505431986613304
-0.3047102998293218 2.674027790532624 0.2471095751836966
0.4630376827222543 -0.230947194506781 0.5685345487240495
-0.9395716764892492 3.983108604381712 0.5293311651887638
-0.6918140179305174 3.068273275114559 0.2226407892565102
0.7815296619477168 4.16524224201297 0.5795940192369972
-0.925825744551334 0.3227463499804369 0.2389586194359209
-0.8112940409804064 3.406175321586415 1.023545233899763
0.7842113475467695 0.5301909702015979 0.8961044825836489
-0.4728918053260274 -0.2491199134347496 0.494961450424796
-0.5651888157558284 2.823310159743385 0.7738093693404206
-0.1640915757839219 4.271316311785517 0.8214427346120218
0.6568946687371449 3.554476018970514 1.037274807356891
-0.5557981464981892 1.483851982557023 0.256166144357171
-0.671260136195547 2.539035232015423 0.256489476731405
0.4913918945427123 4.24740513437903 0.8174723066768357
-0.2499619746015653 3.708006041436485 0.2500516746107883
-0.917004840700515 3.574586855053535 0.145238168385939
-0.1903318591688124 0.122808990320061 0.2513570984589798
-0.7683919656188515 2.112666385846872 0.954293541109525
0.1686544773281047 1.920174784628828 0.2407925071152139
0.1683947930605823 2.431497518653246 0.2407762265194667
0.7401794586594306 3.482969872877417 1.024109421475663
0.9260684856152425 3.944805149993864 0.9933865765495115
-1.004733015766943 1.594086232749794 0.8251366335376072
-0.5871495544918736 2.821584072641076 0.2564225460143842
-0.9620350456744478 1.59358631071553 0.3080184693365172
0.1991141050098591 -0.2763787149259632 0.5464128207054151
0.2480317908987843 3.522722609000104 1.039256320007071
-0.4200220801377346 3.229442053473299 0.2452697313752424
0.8850036497535192 2.566809062435512 0.9893360725376532
-0.952238780336141 1.411798407242453 0.883501702843042
-0.6799059028076637 0.3134451962082132 0.7859738344160953
-0.5776894570457618 3.502938187938382 1.014416529818884
0.654673976131902 3.291868611810143 0.1875019819638981
0.3962369506950575 -0.1759052968183131 0.5927804484755328
-0.2023800381996841 1.127038008725352 0.2427002256837706
-0.4240205376057808 2.167336072943555 0.2524660507165457
0.5405831867547928 0.5596470654674978 0.8455024419569985
1.009591158586076 3.070712385020434 0.7986534405861007
-1.0081145506067 1.697430741485587 0.4981967631290457
-0.9583713429949552 0.2411017450082092 0.3888612036726137
0.5412625649371522 0.9305610775807827 0.8945861731724198
-0.3706926873475428 3.579132192026767 1.078029940847062
0.8272243544624793 -0.06473170396672345 0.5425840789546017
-0.9280546562463541 2.188909627863354 0.8799315904859283
0.9500404057610964 0.1773718592624255 0.543452521923666
-0.3859919770961862 4.120217901491131 1.047586656024066
-0.4668767357004328 -0.2069855147758292 0.5836737852445795
-0.3869631416208486 4.259527548481493 0.8666720539563315
-0.4601690526322352 0.2341549231330367 0.7491785857739949
0.4913918945427123 4.246289172662103 0.7764170923029607
-0.6105079100854208 4.236040431582353 0.8179522044493782
0.04677644868499101 4.228835272940731 0.5732613484914023
-0.8473560144644615 0.2333635289890265 0.2682275122516361
0.2923590181498829 2.634302472233114 0.2470012297923148
0.3842394778335591 3.320294454134285 0.7133916230065326
-0.4949753609315253 4.253167829227638 0.9087093566208023
0.8309498348836016 1.464841544071857 0.9027396241614424
0.04537784749512452 4.2084295374043 1.048972297207508
-0.9114548089668477 3.981198834633901 1.021523653422839
0.9125069835990187 0.7601429594618058 0.9211112502445101
-0.7074525715687443 3.168132069118359 0.9873460554018952
0.9280264105524808 3.13800493667753 0.140133832985176
0.9336898946965003 3.987926962985043 0.830958023310747
-0.8723979425666534 4.166472616132368 0.9049124887754114
-0.9443465662338964 3.988011680683628 0.8865177566637523
0.1530004522229539 4.271316311785518 0.8214427346120219
-0.7522366948404214 0.8134164606508203 0.9227622005269958
0.117129670892107 -0.2938446537722494 0.5043770898689249
-1.024494252764056 2.997977105059129 0.8038153121001022
0.9676672711184283 3.695008860256722 0.8801513225976334
0.5001522042630051 -0.2102186639500121 0.5913640822524997
0.8781134495489859 4.037732327128611 0.3385821631024372
-0.4280948350441406 1.802060695481319 0.2525101431922182
-0.04579358341353072 -0.2493593498234121 0.419469834478704
-0.8785522696336443 3.192212241161906 1.029782079409428
-0.4932683628823188 0.6058975012429612 0.8591226997469276
-0.2133315883754683 -0.2860225902868114 0.4896839097712292
-0.1564314838463513 4.283169291021396 0.9962082237283733
-0.3860449956907575 -0.2117357668755465 0.4023254470025556
0.8850366533984306 0.1826926315854744 0.7852359194581289
0.2830682094810174 -0.270925175257752 0.5496192900350966
-0.8214395037284589 2.685832781859411 1.053303983986995
0.2705846856464564 4.127977869216175 0.3166966757242719
0.9227912995711208 3.475291212528676 0.9946849764666547
0.7577769736723998 2.164885858566936 0.2564887779885534
0.9891049451710435 1.594086232749794 0.4073024611133865
-0.5446611031671295 -0.2223636634259564 0.4795211633414657
-0.7509736596253892 0.5814780870584692 0.06521668620805395
-0.0504183251006111 -0.07610723811550108 0.6364109856972662
-0.4741288062831428 -0.230947194506781 0.5685345487240495
-1.026473694909813 2.902687837474216 0.6368290953332768
-0.9619038968856475 3.8532336003364 0.7905652289360576
-0.1532279086318497 3.463265172095049 0.9373992185017019
0.04684235165599922 4.27609670051857 0.8226264935042875
0.8163625456425678 0.87022577306477 0.1609190871179815
0.6341773932405564 0.38821385033189 0.7953551815175707
-0.6740892263984775 1.268388936149842 0.2577048772886209
-0.7952521265947832 4.131938978533704 0.4471587084524584
-0.8327633419493672 1.205355824001974 0.9034776491976475
0.1695465110055907 2.606661927270618 0.2408185322518597
0.4558746922429161 -0.1912981635868588 0.3759479598370896
-0.4228417442340644 0.8755311894459621 0.240026180045172
0.9185105403680585 3.893388371213683 1.011081698767963
1.009236156380019 2.721878599238505 0.9139063191390739
-0.2298045044019663 0.9974693881341676 0.242900522002419
0.8169722739929427 1.826176783541477 0.9094204041648323
-0.08494714810339066 3.491834175296301 0.2440051142716048
-0.7078056146597367 0.3675865518980987 0.1667244453810737
-0.3951487590992819 4.154426225531243 0.3778609878322475
0.7795545499137311 4.212350566978486 0.8837837005087745
0.9844028426610527 0.6474238594100933 0.752233181842791
-0.5575328525372503 0.720196815585419 0.8754635001852218
-0.0579533151053203 4.248647149955838 0.6373011022202177
0.9809174077550729 3.267726003657371 0.547903897435492
-0.2494460742962448 0.3546721395917845 0.2397317593769746
0.625621654673465 0.08827413733888412 0.2674982411596959
0.4038987447890787 3.550455616879861 0.2479078779730137
-0.9518861478870782 2.419273674659161 0.3103728470769911
0.9701693784519782 0.9125822109670287 0.7807516604537448
0.9320585053339864 3.984469117761235 0.6064604523819955
0.1913258337711767 2.918867105703464 0.6943227759852029
-0.06335589878228852 1.371124780117447 0.2371609967894894
-0.7495703012591012 4.225544116108683 0.989059019853477
0.9430191363334308 3.924005973570494 0.6807790034254432
0.656498277863266 0.4080420565448111 0.1959631344085606
0.6992580410862985 1.776585415331548 0.9599949278615184
-0.8473560144644615 0.2333635289890265 0.2682275122516361
0.3550359120905209 0.1895241162067283 0.256333200212479
0.9183316079305548 0.1149241751674795 0.3794154882004476
-0.2636952550558896 1.847821023779995 1.045248025076324
0.9407950243261894 2.419273674659161 0.3103728470769911
0.05226477522124105 1.371124780117447 0.2371609967894895
0.9414270855345133 1.276857510501697 0.3117895312391438
-0.9719797739208786 3.267726003657371 0.3252301176892467
0.06695233717317806 3.832694828943497 0.2465191512638968
-0.605017725806092 -0.03519461868561569 0.6720491606888759
0.8264166043205636 2.793110948523253 1.053040516575591
0.9775959452344454 0.7010116212097907 0.7823971029513962
0.8077083465234106 2.653245722890082 1.050350033662227
-0.9374489547247092 3.353126018053442 0.9978258783238436
-0.910149862087565 0.03546017803425592 0.5177665003479275
0.6345744918704173 0.1885449925331789 0.7372567087163419
0.4088385841296275 0.7809759758492241 0.233223396761898
-0.8544034274949173 3.57121934616588 1.020651264134585
0.6861686561276432 2.475666464710324 0.9885746319658035
0.407300930850226 0.4561174148685805 0.2315667533467751
0.2703113525631126 1.902741843396334 0.8904482954513936
0.9892632945781344 2.163264170898033 0.6675872071953036
0.9619249860279633 3.394272131946939 0.4421223103252192
-0.06994741390472607 2.725473831023711 0.7043708979619894
-0.4112264407351328 3.767596811021198 0.254082633147423
0.9695845247716833 3.454409382080059 0.5361509770629752
-0.7967342292459509 2.90886337929447 0.2551663626753676
-0.9902706338118194 1.277701327336311 0.4149499883633756
0.97094692787935 3.272997372632785 0.963246547840571
0.9951389879903885 3.201326313734674 0.7923963107782461
0.3962369506950575 -0.1759052968183131 0.5927804484755328
0.582219390374508 3.043204082658269 0.2457808856295258
-0.5744766833623918 0.7288686780884595 0.2215474077950556
-1.005557745434043 1.92231998531384 0.6616212521471341
-0.9957503144875006 1.146878022511458 0.5815176129581314
0.06024509454137302 3.121256799313128 0.6980312319432984
-0.08459596462920196 3.774900012347159 0.2471882622816974
-0.5159379189335109 4.11170597043462 0.3241158730231802
-0.8778100059553841 1.551639501209284 0.8967970926884261
-0.06157825219031117 0.6422533277648196 0.8846155397939124
0.479941782129044 0.8761074274014095 0.8948549348185972
0.8457977443495962 2.066610122613836 0.9157648698396305
0.9907206329414005 1.697430741485588 0.8165924745149717
0.170828788736059 1.800564048613865 1.227870119276922
-0.8410815939889357 3.144726077064017 1.043487909815513
0.6629981028375889 1.268388936149842 0.2577048772886209
0.9784691052887902 3.332219983617907 0.814498275460003
-0.05628304328346501 0.1467637009970493 0.732392526704902
0.8181625725618855 1.052493191511404 0.927645803163726
0.9563241166526265 2.292665969691962 0.8545013927254025
-0.1413478355308964 -0.07245354030275567 0.6365135385326783
-0.903452391614085 3.396048827213217 0.09881465384414989
0.2024782809673943 -0.2901887428911507 0.5069820847715877
0.4838842373706367 4.253167829227638 0.9087093566208023
1.002691955541252 2.904857287506875 0.4364472140569559
0.4196702778204837 -0.2453579120654576 0.5576312208802536
0.5971318662315979 4.238376002737748 0.8664747167519429
-0.7509736596253892 0.5814780870584692 0.06521668620805395
0.5649464701008727 3.702551481569217 0.2458223387457286
-0.9967490926979057 3.267726003657371 0.688369629156079
0.3844772068412755 0.3585480024442893 0.7991611672136131
-0.921670975138229 0.4943895329422599 0.8813202689532593
0.05247372135677185 1.687858213334146 0.2364691595053709
0.7372480989522379 1.581234067031469 0.9656853654667198
-0.746723635260461 3.344710526010423 0.06269322635809682
-1.004787396432526 1.278384590999246 0.7424886215413197
-0.5749192119861576 3.659463538688158 0.2432184756248448
-0.8370967007700509 -0.0602786528374443 0.5192968380395022
0.4608222139599989 0.2974246057346824 0.7726495927368628
0.9780100476720766 0.6474238594100933 0.5203870796156855
-0.9611315293219851 0.1773718592624255 0.5434525219236661
-0.9707343790626879 3.770463881971205 0.7402488177291222
-0.9496375858169537 2.043145650708051 0.3004824092917715
0.7329196090454853 3.407375089698593 0.06538345949553524
-0.7599619703225027 3.638822924408316 0.1487605896938603
-0.337148065770794 2.564613400951657 0.6736124499551182
-0.9227119135416083 4.057311306865928 0.5971216325406856
0.4545220394890258 2.683248057588627 0.700628768633037
0.2669372296206142 3.831331209271296 1.062862300542077
-1.008663549730034 1.390582137590838 0.7909146706388468
0.4907644634570133 0.1799137121258862 0.7258688622793458
-0.9858972856681384 0.8549712135471809 0.7428632769248849
-1.027202968523561 2.902080613539747 0.8548112149500843
0.9667839422577866 2.537605272065931 0.9172441322996002
0.2562277421368166 1.839990318326505 1.150504444660948
0.3773180797967234 4.257169976758868 0.8183298029003406
-0.2160011055041564 -0.2001790967484143 0.5838248748172806
-0.9878323990174807 0.8071274914568608 0.701628154091569
1.011879811482197 2.998049894986992 0.6324239194036714
0.04391394751016223 3.399854271221249 0.8026235452593671
-0.8079011151032269 3.468232280179507 1.024809176900321
0.9734309944080173 3.332186622597667 0.5438103046385406
-0.5983703091548333 0.4506056230849226 0.8127722875893124
-0.04655463165821265 -0.2072728303321593 0.5791617407575311
0.6861686561276432 2.475666464710324 0.9885746319658035
0.4617011600702247 -0.2016126044390823 0.3120133930556278
-0.9821364477773237 0.8071274914568609 0.5184408457401121
0.3525651285405185 -0.1863446190040918 0.5899969879728569
0.2388238857014283 0.7823036737037157 0.2324476642949933
0.8074922954415824 4.196494911064452 1.000048691838269
0.7356325116995723 3.344710526010422 0.06269322635809682
0.9125069835990187 0.7601429594618058 0.9211112502445101
0.4080433979169548 0.3545896615457884 0.2401159902276861
0.4672921302782648 4.239303628977575 1.01369971243057
0.0772052726718154 3.071416932058628 0.2452434677487225
0.07489876169649706 0.511403463844293 0.2265809456805802
0.6258003843988836 2.904062136751048 0.8952053122885759
-0.05793597676874936 4.273406117779499 0.743238636464317
-0.8961277769593192 0.1826926315854744 0.785235919458129
0.5115353725132024 -0.02769484218502664 0.6426070200442938
0.9387059215647272 3.791279102777899 0.9956747973649303
0.7734617000148158 0.3473986393834215 0.8456333500270739
-0.5744766833623918 0.7288686780884595 0.2215474077950556
0.9975331160616983 2.617400413735985 0.5416920516478145
0.3626991141135633 1.846857566442776 1.031752037510729
0.8891008419624404 2.626452447508815 1.003532618672521
0.5570293215672034 2.909100617271325 0.7726111607461836
-0.74216208638697 3.870617164504006 0.2669743840227782
0.1755613141116162 2.044551504341983 0.7407818516152871
-0.5543440277625167 2.600283133663591 0.2557181022336745
-0.4187587739337511 0.6187616426694341 0.2270811166251623
0.6934481688402014 -0.1609371594695622 0.5702320091595001
-0.5717869078669143 0.9087928076077519 0.2478406041686867
-0.08532930081653314 3.553217295024402 0.2461164677704213
0.4134948757118885 2.044311967710493 0.2524660507165487
-0.6731246832750351 1.382163812358818 0.2572731802271724
0.9688024667253568 0.7010116212097907 0.427928689442034
-0.9535094464989128 3.573386304619723 0.2203770079434822
-0.7260709932040097 3.153791489423223 0.1504249920991186
-0.7900102413925525 1.362739512222393 0.9052129431583694
-0.4133597460518022 3.363852465887596 0.2438718245945644
1.010364919249413 2.997793115571161 0.9124806990417157
-0.07026313751355373 2.834205434720719 0.7016811388306251
-0.9374489547247092 3.353126018053442 0.9978258783238436
0.2887091061000819 2.044449954047491 0.2469116518880064
-0.8517565217863533 3.511796865380636 1.019406275298905
0.8620740695678766 4.114137257651136 0.5197507104890107
0.4151200838065325 1.920703023587888 0.2524748692116832
-0.7054953503588597 4.145356221670349 0.4498875216487681
-0.04591156833749575 -0.267996580836575 0.4486113101981303
-0.8844190875944382 1.032697099126607 0.9316382128910158
0.1991141050098591 -0.2763787149259632 0.5464128207054151
0.6948590640853126 0.5632672654950959 0.8603933285059908
0.8856523700507288 4.103887154002051 0.993109324360427
0.6565796952845062 2.04383253932075 0.2564887779885534
0.0477645370621163 4.17248940137762 0.3662613018917507
0.981158773057262 0.5419891193178226 0.7083750687549335
-0.552387044021452 2.541810573252214 0.2556848679333272
-0.6584503789873009 -0.07447136200046542 0.2741623368278173
0.04685986251791792 4.265739279623404 0.6974228823834197
0.07521874693396469 3.230586622070612 0.2432944467251935
0.0749011224240943 0.4567711315548245 0.2297154743116012
-0.5696103784227345 3.8889962278641 0.2661888279490433
0.4605908524516508 -0.2252362825492826 0.4595207037985651
0.1625298819125479 0.5365222843026097 0.85944491193124
-0.4808271547676906 0.3656159558106468 0.796331893844463
0.5048467953726225 4.11170597043462 0.3241158730231801
0.5526941290240637 2.580746570317874 0.7655785638127078
-0.5731587177844063 0.4568407325296018 0.2231630288307518
0.9589643195356875 0.2394175073864198 0.5112574249260872
-0.6676583991238551 2.28931415433209 0.2564873812258506
-0.0543438242381008 3.466339810176167 0.9419684532744355
-0.9202688488459998 3.827700861328894 1.022407564950456
-1.010031575901367 1.806414273584888 0.6716963940557903
-0.583408681692857 4.228146608378209 1.013098341057356
0.05171511389653864 2.168698013587953 0.2363409022031274
0.5376135879494264 2.166594353984825 0.2556841679207518
0.9906059273386734 2.043077752573141 0.6598487092613397
-1.022926935093396 2.722457837522089 0.6347733655293201
-0.9052141342944855 3.456262130327377 0.1086841572432273
-0.502649121363095 4.237178387447241 0.6975002236156993
-0.8303720141035487 0.4292083722517301 0.1113021128043566
-0.1695915471308463 4.038064488091786 0.2577795864743107
-0.4719133375208875 0.2974246057346824 0.7726495927368628
-0.3376714214990716 2.830064579710775 0.6871257955538999
-0.7066877227701882 4.15937916936028 1.032953282200106
0.8169722739929427 1.826176783541477 0.9094204041648323
0.9775959452344454 0.7010116212097907 0.7823971029513962
0.2382429089106023 0.6748131298760134 0.2262908986053397
0.7324569730969165 0.1556879771869994 0.7751027921180207
0.6829629511879335 3.733454734302971 1.046281126510063
1.013537753552711 2.998031697505026 0.755364640009804
-0.2667018479692368 4.273864353962778 0.9459264916699319
0.8938413918183246 2.657792104907257 1.009128070075342
-1.006230111551277 3.201326313734674 0.7923963107782461
0.3587505047628183 4.249033340396043 1.015980782764324
-0.2979613450238521 -0.2776812651029685 0.5417965886766606
-0.7435480966578051 0.1556879771869994 0.7751027921180207
-0.972253287435447 2.922035125253709 1.014194084988146
-0.8288387457192478 -0.05006012177394083 0.4199446371928273
-0.9310217654993677 0.8959802736032186 0.2355761282875626
0.6618230509280847 3.726510551095561 0.2403153884579174
0.8620740695678766 4.114137257651136 0.5197507104890107
-0.6097468792772423 4.18961028118811 0.5787456940646845
0.7125064524708465 4.047037610551538 0.2903628853360318
0.7825350700956633 4.209954143479746 0.8279179717236497
0.3749538721298688 -0.2117357668755466 0.4023254470025556
0.3891650968896319 0.4889436014796078 0.8368492250781455
0.7426446034642911 1.230971229173433 0.8982346759790355
0.979993408905244 1.92231998531384 0.3886212743728612
0.6811698890364288 2.048063616696683 0.950511787877437
-0.056468971056172 4.2084295374043 1.048972297207508
0.7149798696431211 3.153791489423223 0.1504249920991186
-0.7065284613170269 0.4679694371506875 0.1300886288715976
0.7050211519862553 3.718054202054618 0.2238717438554092
-0.8943343353708035 0.8793429647003708 0.1820699526619896
-0.8438867378564999 3.071669503344945 1.051300322899068
0.8605962117327562 2.534052013291763 0.2637513248069399
-0.9900772019897691 0.7548151099293612 0.644314017771836
0.8122573673192999 3.401106637536401 0.05917157273452961
0.8233624414770078 3.27394488502851 0.06426984392689777
-0.9611315293219851 0.1773718592624255 0.5434525219236661
1.000786702368691 1.697430741485588 0.5660612333344254
-0.1586843015914 -0.1187955259802492 0.2589565816671702
0.1641532663783701 3.981990762150807 0.252711516759374
0.9555314378105185 3.573394505301827 0.3284004860913833
0.8136383866848007 3.933369303832005 0.2749132618299127
-0.3017869186356155 -0.2841968657452603 0.5096010798081854
0.9775959452344454 0.7010116212097907 0.7823971029513962
0.8010645889490333 3.587771847972916 1.029056178498662
-0.7437530852518842 3.03667808088856 0.2211965162670773
-0.163767603119352 4.20663319196858 0.5119977869512754
-0.5370053291409325 2.110101504913024 0.7995745306234399
0.446628346348402 3.897206883852177 0.2630469190705459
-1.019142305660046 3.070711382803433 0.6264175952159956
-0.9812605020128667 0.9125822109670287 0.7807516604537448
-0.4802317368576544 0.09224830731639426 0.6965917110519212
-0.9766620736535601 3.135479121245883 0.2160794687857654
0.03928754540751028 -0.2045527633332132 0.2682813909423814
-0.2491125931078541 0.5650895128143706 0.2260609252813402
0.3871005712906585 -0.01121213263339272 0.2652462861789789
0.9729973007737566 3.394306448223447 0.8722606527077363
0.9462597870514684 2.679345649951099 0.9861716392900516
1.001895222948226 1.493377686568699 0.6388140599732141
0.9809174077550729 3.267726003657371 0.547903897435492
-0.2509145559749908 0.8548832543632614 0.2360063161795585
0.8190694584833934 0.5349477796023514 0.07052474221600455
-0.8517565217863533 3.511796865380636 1.019406275298905
-0.6805107814737454 1.359517816278355 0.9719209990052748
-0.1736210054735159 0.5365222843026098 0.85944491193124
-0.8437955935856003 3.779949211493279 0.269935058379994
0.2894099906539353 2.430260674440897 0.2469045170195501
-0.6107101210812838 4.225865186472265 0.6975034407319326
0.4829120615253852 0.7679730100924536 0.8857428886266926
0.601833101223922 0.6743918088482099 0.86462509930708
-0.910021056285518 3.24171037230274 1.01774402651056
-0.7458636826473278 3.468073223296855 0.0771518588383309
-0.8473560144644615 0.2333635289890265 0.2682275122516361
-1.001697050899562 2.043077752573141 0.6598487092613397
0.7432040865824543 0.220454080772616 0.2629509152627745
-0.961944071203079 0.8554887577085383 0.3253417851846663
-0.9899737791850896 3.13494211146106 0.3262415096058329
-0.2801679886791492 0.2843213529488983 0.778551169614317
0.2384077228206622 3.664300250787759 0.2495017843949651
0.5573682455185417 1.703835416182393 1.130527439060973
-0.6675894014241547 0.4080420565448112 0.1959631344085606
0.05192906039657065 2.432394153064807 0.2363336006078451
-0.714464317985604 3.645959193461081 0.1755679371643696
-0.159917774798607 1.840005238312328 1.158830963414673
0.9906059273386734 2.043077752573141 0.6598487092613397
-1.001722772499248 2.418062332322664 0.8073781421074905
0.7310709628260813 3.870617164504006 0.2669743840227781
0.4134948757118885 2.044311967710493 0.2524660507165487
-0.9912524794281008 3.573202237727856 0.7069402113467082
-0.9896117047811223 2.418730704472151 0.4145369666846289
-0.9922498966181504 0.5419891193178226 0.7083750687549335
-0.5403566503842994 0.3743138512185408 0.7942333703272692
-0.2509145559749908 0.8548832543632614 0.2360063161795585
0.9593427658159988 0.5944879405090475 0.8403229456964995
0.7627748666596785 -0.06529834953608653 0.6799881238589842
-0.8793577930075994 0.1199488979720201 0.7626019713548182
0.1530604953702701 4.243924583625209 0.6378958263659157
-0.8340836549941171 -0.06742180614664491 0.5686288277122996
0.6588193285782332 0.7832852268893606 0.1937923522047178
0.7593849389594019 4.219939628694663 0.9551315623142457
0.1169701080631012 -0.2929235929130533 0.5231348744123302
0.5498451153796515 0.1425904996545382 0.2659141702783679
-0.8192749208560153 0.1055450198612617 0.2725018248286215
0.6107716858152209 3.239950216443857 0.8866917688059589
0.3282948014090524 2.916212050122424 0.6861333408205664
-0.6196512629091682 -0.1557294568851614 0.6391554407549451
-0.8313264397494963 0.640895440795652 0.05968831685555755
-1.012404936448627 3.134665014772486 0.9052146885220531
-0.5516743103156814 0.5596470654674978 0.8455024419569984
-0.4141080489235883 3.969650243207551 0.2640901757981318
0.6882264243901628 3.414022689798048 0.1138142696403539
0.9877281315128249 2.043546502573141 0.7587752740840754
-0.4255841107800432 2.428834353264957 0.2524590034546858
-0.5370053291409325 2.110101504913024 0.7995745306234399
0.9754030360745611 1.011409905494929 0.7790534666727782
0.9737733392056518 0.7548151099293611 0.516487354562658
-0.988239606888216 3.632162809738906 0.6655786394077987
0.8201563868692058 3.86205969385223 0.2743010579573322
-0.7723268071594722 1.139020158262557 0.2583398878747213
0.4052161886152116 0.9104700852364124 0.2453824572329796
0.7734617000148158 0.3473986393834215 0.8456333500270739
-0.4189445290041589 0.6737984336215287 0.227633785888234
0.4592128233994874 1.596492745656555 1.152581223983968
-0.6129242247848107 0.67439180884821 0.86462509930708
-0.7720770033809623 1.005738188503088 0.2534858580806427
-0.9695933646497853 3.018598690161395 1.016576853371203
0.7883865221391156 4.084641232231425 0.3293920050741816
-0.2990723050885048 -0.1948623255003619 0.5867355297230056
-1.024628877113599 2.998031697505026 0.755364640009804
-0.5594204802992437 2.359192113275364 0.7558350571771508
-0.8374932137451001 3.579477333610261 0.1159866824304703
0.9647484259323044 3.513876816256393 0.4400487573948396
-0.9183962872933221 0.4389668576697464 0.8658627861455016
-0.5932553483573894 0.3839082284332009 0.7923075895544354
0.259243613926501 4.270529176622349 0.9128511939603965
-0.5178927247223946 4.066288659920017 0.2891748693551302
0.6495647586651521 3.357566303685598 0.1848738793258101
-0.7557178496957179 0.9711529474030021 0.9261406116018365
-0.4703039469603759 1.596492745656556 1.152581223983968
-1.006998476991844 2.53046950233013 0.7929202056885736
-0.6903497678534907 3.801025726446767 0.262403658358199
-0.7078056146597367 0.3675865518980987 0.1667244453810737
-0.9902706338118194 1.277701327336311 0.4149499883633756
0.5570293215672034 2.909100617271325 0.7726111607461836
-0.7548974030259936 0.6530958513291112 0.9005879329143444
0.07506323583934838 3.665697837784169 0.249308904870957
-0.1572990924090049 3.589019996615419 1.091595425277692
0.9202302139540965 1.94568862961547 0.8622191993174639
-0.5665680678693541 3.361940472213877 0.2330196751450582
0.9505267067275199 3.8532336003364 0.8297175817590652
-0.4827748021865749 3.693259031288565 1.067197970645616
1.009236156380019 2.721878599238505 0.9139063191390739
0.8860693840200665 3.982553371248303 0.3244393258438935
-0.1963515404693823 2.826965595754682 0.2422500276171378
1.00361315580032 3.134653753496814 0.746954161165059
-0.3005501773976969 -0.2559360157010668 0.4573425329767418
0.3585574433862073 -0.2603196661423657 0.5527020590566744
0.6958355598625693 0.574877722107964 0.1091189486694328
-0.9396354866335457 0.1773718592624255 0.7149908930311857
0.9748097615202218 3.454415751725031 0.7501307904003687
-0.3743342173784063 -0.1066375953709995 0.2701761129457129
-0.1586843015914 -0.1187955259802492 0.2589565816671702
-1.0079704591131 1.493377686568699 0.5142936257499214
-0.9990703719227592 2.285247433711179 0.7791962702273039
0.8661636056680473 1.696010418035716 0.2629380705872078
0.9396461343826705 3.715833356788142 0.997560069873807
0.9855842600237177 2.664050774531192 0.9522338681594134
0.9906045667529648 2.531415152157228 0.5316509046054561
0.9982534552538076 1.594086232749794 0.507477105505167
0.2906957950747269 -0.2841968657452603 0.5096010798081855
0.3967019827127485 0.2432449469458005 0.2540786506631061
0.8529275195334068 1.842996825837919 0.8948424625090268
0.4105335436062056 0.853216333513759 0.2365100872787617
-0.9796912908300047 0.3062944376299066 0.5712980798714672
-0.1564026372385713 4.263128571908393 1.024261654427521
0.6185319044121228 2.75042436120011 0.8987600640110643
-0.3032408157080914 1.479885833378796 0.2474031599843193
-0.9575503403744029 1.806182873646798 0.3030819454298446
0.6992580410862985 1.776585415331548 0.9599949278615184
-0.9116453007716139 0.5927238697184128 0.0997526688228465
0.713872460270773 1.737739018879815 0.9717782302747384
-0.8340836549941171 -0.06742180614664491 0.5686288277122996
-0.2007210079033402 2.764153657343428 0.6970116718720147
0.5048467953726225 4.11170597043462 0.3241158730231801
-0.9922498966181504 0.5419891193178226 0.7083750687549335
-0.6977945543415731 2.745190431684597 1.002419940523582
-1.012797722372703 2.616160201580986 0.8738630315334132
0.8433798357625334 0.4549479293449666 0.8914196868229519
0.9647725140452559 1.007993587180257 0.4187385568758385
0.7356325116995723 3.344710526010422 0.06269322635809682
0.05551285468414687 0.1188321126866867 0.247016996209839
-0.716112275547144 3.718054202054618 0.2238717438554093
0.4089309565768302 3.229442053473299 0.2452697313752424
0.9596947748188875 3.770463881971205 0.7855900885763442
-0.864595548038545 0.03303164980103551 0.3053740434892095
-0.5112306173094616 4.145104992352307 0.3801759524886932
0.7689079105484054 0.05375574626407745 0.7514351295397763
0.9844369833804638 1.146878022511458 0.7791305293148634
0.1551422199317402 3.836659743870087 1.067787867901407
0.9941244347274749 1.92231998531384 0.6036817326836954
-0.6587254559246352 3.420843304902993 0.1862615571190278
-0.7430506003756474 3.872745844054109 1.047785895024586
0.669419657912857 1.359517816278355 0.9719209990052748
-0.9620350456744478 1.59358631071553 0.3080184693365172
-1.004580886176141 1.390582137590838 0.5173644697228781
-0.8233534519613158 -0.05225711476017572 0.3626904853650789
0.3844772068412755 0.3585480024442893 0.7991611672136131
0.6629981028375889 1.268388936149842 0.2577048772886209
0.5704069696397308 4.247711333961242 0.9862541256557358
0.3684510302106945 -0.2661159146111226 0.5451985810668473
0.9726496080531996 0.3724566241333391 0.6697831332305364
0.4131491104898349 3.164069247563598 0.246422402534745
0.04519191972241755 0.1467637009970493 0.7323925267049019
-0.9872553036918147 2.285156108141076 0.4032945352284006
0.5054961420933336 0.243556463934359 0.7476502192652018
-0.5575328525372503 0.720196815585419 0.8754635001852218
-0.8186876498248166 2.593709870125676 1.040358183842946
-0.957350910612357 2.679345649951099 0.9861716392900515
-0.2852933482751655 0.3530378691184309 0.8027018165230718
0.8559262533625488 2.043338939841079 0.2621845317987926
-0.6264254014705918 4.101192451928908 0.3248431873700686
0.05634220320589523 1.717188050309423 1.215619292509284
-0.705950187646201 0.5632672654950959 0.8603933285059908
-0.7730600872262754 1.863960942431223 0.9248634495625591
0.04480664379161613 4.287729484094916 0.9748772071185683
0.5649213006466437 3.732963347630259 0.2505031655717646
0.05210331107182371 2.548708620630922 0.23634163274056
0.5620675942235176 0.4568407325296018 0.2231630288307519
0.05993025376186348 3.021626468928138 0.6993968621651783
-0.8596529630895615 1.948874426168041 0.9018051100836301
-0.9122279976394193 0.6457267343881397 0.09930150743454544
-0.7093139795681431 0.2358953673144533 0.7822102202132877
0.9589975104989087 3.459643175692126 0.948442344629054
-0.8544709593234219 0.4549479293449666 0.8914196868229519
-0.8327831738864676 0.7488091304882805 0.08667238346903794
-0.7242690473709035 0.2979623040247111 0.8055041862973733
0.03489621575652917 -0.2831522391848589 0.4695218428166867
0.9272314319059887 1.016731703902849 0.9059348185865515
-0.691994319525774 0.3803760891146536 0.8093717952814521
0.2439298442495949 0.06766742518903864 0.6910309880405731
1.002434521117869 1.697430741485588 0.6854608859863544
0.3221211013615843 2.303170268102652 0.6613333798476843
-0.2941593330419061 -0.270925175257752 0.5496192900350967
-0.3632337310324404 3.454162262186326 0.9292631615045711
0.4169464729923656 1.376410466688165 0.2532575792935537
0.4097438120317589 0.2801432946542258 0.2499331131216658
0.8199302794760168 3.700969784087121 0.2084646231241479
-0.388409203357612 4.257169976758867 0.8183298029003406
-0.4749572763208529 3.111955455185453 0.6974123592044881
0.9925781008092683 2.656079829043886 0.4257972912848272
-0.4630227528135732 2.824442306961659 0.2533616968561629
0.4617011600702247 -0.2016126044390823 0.3120133930556278
-0.964599075152726 2.172956785139363 0.8393983557298741
0.5376135879494264 2.166594353984825 0.2556841679207518
-0.1746072057142412 0.5910475489912397 0.8712573816362262
-0.6521352147476349 1.094416720809049 0.899799124847359
0.8260055772091622 -0.0602786528374443 0.5192968380395023
-0.5565662014335632 1.586493240816719 0.2559484596025898
0.9788979358692312 0.5419891193178226 0.5944003106463508
0.1530004522229539 4.271316311785518 0.8214427346120219
-0.1258615654401426 -0.2391997292691406 0.3324875998757362
0.3666151263985767 4.190066807088917 1.036791398537198
0.8177476221583593 -0.05006012177394084 0.4199446371928273
0.06083831140428353 1.347869312945764 1.090682850978384
-0.2639493937370818 4.276296578204022 0.9685839975428693
0.9689579929802599 3.695008860256722 0.6729228595141723
0.4105335436062056 0.853216333513759 0.2365100872787617
0.04936572967274873 0.4130263006677104 0.8304032898972779
-0.1264883826708224 -0.2309088224422669 0.3645007379801905
-0.3678831819460369 3.388230868054253 0.7976103536230351
-0.9619038968856475 3.8532336003364 0.7905652289360576
0.8923612680531963 3.396048827213217 0.09881465384414989
0.07521626599433823 3.709627227960603 0.2498548793844669
-1.01187782592958 1.697430741485588 0.5660612333344254
-0.7021419091963159 4.162169784969404 0.5182028149326204
0.9091192853245935 2.761710611074406 1.020943734399567
0.8245132300953427 0.8419035289458871 0.1346663548622668
0.9733738470160861 0.4336398337780062 0.6179258350571615
-0.165506009122575 3.999557454085182 1.063251399075914
0.950259056199666 2.618194632917561 0.3132095414733102
0.9904859534985293 2.043077752573141 0.7137521016438377
-0.7600646958429244 4.223358537163312 0.9728701920375369
0.9021707503647658 0.03404174067410146 0.578500535317758
-0.6729141744889733 3.726510551095561 0.2403153884579174
-1.003818676507395 2.58938396401945 0.9011058477614975
-1.025195732567305 2.804682451872918 0.9130623723607834
-0.247001901166409 3.552056647980508 0.2468693415113931
0.7366415312128772 0.5476619735290801 0.8794004721962022
0.8309498348836016 1.464841544071857 0.9027396241614424
0.2697114330480948 3.324707595190173 0.7016739466436515
0.3596015637866541 3.579132192026767 1.078029940847063
-0.05786757224603847 4.228835272940731 0.5732613484914024
-0.6993175479510516 3.414022689798048 0.1138142696403538
-0.4470171740597035 0.1345554298949278 0.2627702688364619
-0.2591229144596779 3.522722609000104 1.039256320007071
0.3510382900412634 -0.2559281456877353 0.5573171236823129
0.2887035866594658 2.293074180960062 0.2469102249143023
-0.6596484713579043 0.5715343139232412 0.8465650473664745
0.9550207921501441 3.201315017635669 0.2054446915932024
0.7842113475467695 0.5301909702015979 0.8961044825836489
0.506801601161506 4.066288659920017 0.2891748693551302
-0.9581207868929988 0.3741533061116746 0.3138235111452759
0.6508515456259555 0.08837808320021538 0.7222228949388017
0.934316352550132 3.288674202607588 1.001753311459638
0.9856579691370169 3.267726003657371 0.688369629156079
0.2911730480306715 1.801387023601495 0.2469562924901689
0.2638128240966164 3.76682383214864 1.068456107186581
-0.2494988463816302 3.664300250787759 0.2495017843949651
0.8845695510536622 0.1125294498372506 0.3061455953922112
0.8177096822080312 0.198654948554621 0.8098025104761228
0.1475931780304505 -0.1187955259802492 0.2589565816671702
0.9924860116459415 1.278384590999246 0.7836962219163434
-0.5736809535412853 0.6189418436829638 0.2174496551285081
-0.159096732750702 0.1506817408168115 0.7304777270408471
0.7800049739336383 0.4747634595499385 0.8824275348356637
0.9446407267677008 3.267726003657371 0.1983140870732831
-0.4123153552321199 3.427616786031873 0.2446616326853449
0.9822534850379391 2.418789142475116 0.8454183906849494
-0.9106458622569699 3.515804770397461 0.1244190241432946
0.6345744918704173 0.1885449925331789 0.7372567087163419
0.5309870857408349 -0.1893200645493858 0.4316475301793731
-0.1690079843385308 4.088271987694701 0.2753991523340492
0.6649539253076484 0.8762033227074919 0.2273107722851644
-0.1284640782684127 -0.2408550256513478 0.2983768060383135
-0.2912608000188425 -0.2658064321761706 0.5545385665153315
0.9254302839916804 3.534732797607185 0.9961627158818849
-0.426857577190487 2.544179360990071 0.252466755807507
0.8636959811715155 2.591702650616259 0.2638513658851263
-0.9235981071599074 0.7601429594618058 0.92111125024451
-0.200450383884404 2.723965135660316 0.6980523125046976
0.9846201866773144 3.26776693848478 0.8934318838463883
-0.710499996416325 0.6162237639493925 0.8718101560756968
-0.8571295958315429 2.19437516948207 0.9360301804308397
0.9433608321629075 0.1776656001903973 0.4557968009204521
-0.8833093055503719 3.128296193056917 1.037726941534596
0.4267646279222946 -0.2218628280933932 0.5718153017288825
-0.9837810254852637 0.9125822109670286 0.5796460314549212
0.3221211013615843 2.303170268102652 0.6613333798476843
-0.522626496074091 -0.02769484218502664 0.6426070200442938
0.8989299327246294 3.24171037230274 1.01774402651056
0.9838537799393261 0.6474238594100934 0.6636727252931121
0.6175569579967513 2.678849316790188 0.900105706547652
-0.1752443899393382 3.981990762150807 0.2527115167593741
0.7094172703608308 4.092010393397653 0.3250305069147406
-0.3699112883361093 4.268948976007335 0.9886421692302487
0.9424183229380241 3.573386304619723 0.2203770079434822
-0.4284157717300466 1.796897364513649 1.199676284603648
-0.08685930625665606 0.8794038415469831 0.2367948373595458
0.8100371988901762 0.3406960846653143 0.1666516387481614
-0.7646032672262815 2.606246243001858 1.04346603560642
0.26388536389385 4.066410701741203 1.056390118936124
-0.9122701404687351 1.431528543649868 0.891386630533095
-0.705950187646201 0.5632672654950959 0.8603933285059908
0.2019986791910826 -0.2769128996276311 0.4747680690398352
0.8277453026158558 4.188721884837269 0.9869649995817699
-1.003079214111721 1.278384590999246 0.5834184325646944
-0.4949753609315253 4.253167829227638 0.9087093566208023
-0.2667018479692368 4.273864353962778 0.9459264916699319
0.9879792483618706 2.285247433711179 0.7791962702273039
0.669419657912857 1.359517816278355 0.9719209990052748
-0.6150912586390337 -0.1560032841443809 0.4054728070842314
-0.7748652228848219 0.2805078138473887 0.8227721051733197
0.8756616441597636 2.726054827988356 0.2643783624755524
0.3249600274965368 2.721883996341601 0.6893362675344033
0.3221211013615843 2.303170268102652 0.6613333798476843
-0.9633993491622905 0.8072310002891323 0.3232048608254545
0.1169894266225252 -0.2896663343239606 0.4868445748432091
0.5412625649371522 0.9305610775807827 0.8945861731724198
-0.6657650996927909 3.291868611810143 0.1875019819638981
