0.9670517178536219 0.9411211542022051 0.6588247850633388
0.9059598471150243 2.751933184555277 0.4260584393046228
0.09912049650091623 0.8235523727736698 0.2189416566204123
0.4475780112758355 0.3034532006861171 0.2245717746208326
-0.2706242083033484 0.5746172492751296 0.226228594714411
0.5581722402022594 2.858473912838524 0.3306481636382853
0.5515355427825592 -0.682808214177501 0.7562214304849102
0.5053437821889426 2.869323474304374 0.3273805032910738
0.4428627057649998 2.544389069724876 0.902098036301767
0.5322820496716947 -1.335354105857735 0.5396563887114761
0.4946999609790671 1.947631141573606 0.9504209908236461
-0.836064199257844 -1.20765958410766 0.5220061008751071
-0.8943339484765626 2.200580533975577 0.6024100121907572
0.9799939698260658 -0.9249701624945577 0.5377471512530621
-0.8809228758531422 0.0792253947480385 0.741164828710323
-0.5108202586877161 0.4144496301179105 1.092158954810639
0.1699629260905056 1.237972618228241 1.157343611972692
-0.890313751798992 0.4508180101438685 0.4983432999219161
-0.3219905309435358 -1.203184768269622 0.2339180830418857
0.5444914518193231 1.461216979350655 0.2388327733479458
1.017764300573438 1.895312781828439 0.4803331680894405
-0.8361278062726452 2.200160099659585 0.714021894372911
0.2976988325649795 2.876712844761649 0.8630261552498717
-0.2020747856183953 -1.460149923809752 0.2315659880226904
0.4494165801236538 2.285488858535327 0.2516264664980931
0.9837672646411557 -0.855082209699499 0.4954048117909995
0.01140184556975468 2.906514268661153 0.3079463015594607
0.9777868678412063 -0.9254569469585504 0.4884192041484914
-0.1473997058592031 -1.528738278426733 0.3256343651164614
-0.1510616383191071 -0.1429169569859915 0.2230950292266667
0.8120315662557465 2.285755877121914 0.121427574852133
-0.2047669247235029 -1.40919727097868 0.5226656855334009
-0.8861189006832562 -0.6701731859740152 0.5810284322871915
0.09902964960866512 2.919465736839413 0.7872130814159863
0.694693767964859 -0.6458457679419144 0.7612291433963654
-0.7191549010239079 -1.218589557286598 0.2625738742481309
-0.1301401363485116 0.1602265458218649 1.039497882959719
-0.3190296148971777 -0.261441158057392 0.8509132178697906
0.8756438588465716 -0.6578819980421079 0.7470851150996072
0.9637109946724543 -0.3966719956777361 0.2978058597754226
0.457467844893121 -1.4898294666894 0.3968059264820851
1.011660409000127 2.142762318278424 0.4428120272863392
-0.3170449769302858 -0.1025181611894109 0.9268166060475767
-0.4879060937967824 0.5075915268139407 1.116020109179055
0.8598314325206642 1.455938704092838 0.2625019857208603
-0.6284861893674018 0.3135782533263968 0.2352935243977604
-0.4285948458545582 -1.468620691158482 0.3137717970837308
-0.8368193727007557 -1.204208852383729 0.5033284714293809
0.9483056870172433 -1.211113140395135 0.5004350829725629
0.4503122367252422 -0.6935845448226042 0.753318008848635
0.9849881538697284 2.32973298451631 0.4072584475824765
-0.1418659416451434 -1.42172347881089 0.5216274092427581
0.6989280070956561 -0.8680633872042317 0.04167823801987618
-0.7128622466973853 2.765331060845708 0.5903809429745675
0.5803463025674728 0.5107632616390786 1.123662101139303
-0.5329999745312817 1.375002430121529 0.2424683026407192
-0.2137658052796949 1.820108853936107 0.2284685108817207
-0.8773747275507156 -0.7879400348711796 0.5450151146167184
0.7454450742793842 -0.3311344137241531 0.2385415455894477
0.7941684936880449 -0.4819031287668735 0.7907920471795499
0.8160924820761641 -1.226723022550102 0.5702891304132285
-0.2665867479924931 -1.50647727385371 0.2887804581523217
-0.9000581069121061 1.753502063063527 0.4823518935886885
-0.2009591121023152 0.8221309416412026 0.2282278399998393
-0.8288857507473332 -0.5597026460015619 0.7707892684637095
-0.8657956406318934 1.893618732106394 0.3579209442744722
-0.3700985532125948 -1.355427674273066 0.5343582969648839
-0.4863573261216146 1.279021642896225 0.2411780149493775
-0.07061888290618899 -1.062282303371506 0.2136124093285656
0.3175374826700939 -1.359355113415493 0.5448622798836977
0.09607461227583292 2.094460812352839 0.942818740773847
0.5660441573827063 1.875417920735392 0.9646788284371162
-0.4719147229590282 0.1830971584530899 1.033899044926751
0.6171499079763784 2.525078410637873 0.2744721283776903
-0.4392861887919777 1.847458369106168 0.2359998651670053
-0.4185879127520274 -1.3244823451638 0.5447147252997333
-0.5452873949417254 -1.427989878766782 0.4783705722404195
0.1835613499743398 -1.114308138077755 0.2159530226361234
-0.8857295579530804 1.538812108728431 0.5710370155085599
-0.2027536490467221 -1.519751237357684 0.2494867849375025
-0.4356491758904256 0.6850526440453388 1.159213807830352
-0.7905374417950715 2.73122918821189 0.3422137057352659
-0.2876651383218119 1.516162323777487 1.083371752018616
0.3156566687539975 -1.490688977054259 0.2339525067259991
0.3196319775102284 -1.129479507057809 0.224767225255758
-0.07323505333256701 0.1625717828384144 0.2127663651377973
0.5461132733141331 0.7675287530955604 1.162546850773183
0.7294663008782909 1.170031907215766 0.2445982399555087
0.3856807986968372 1.478742487149507 0.2315336253995035
0.9235901557413317 0.3460764590637033 0.8212843798296712
-0.2107053766888771 1.300520840707964 0.2286903379341493
0.4439621307294169 1.510319979268708 1.082263019652227
-0.3324159462559481 -0.777637206651091 0.2194954361066515
-0.8572172765120744 -0.5663801287020336 0.3503448251055626
0.3751681998601772 -1.443593501862807 0.2338002752128173
0.01179110450705486 2.504169208409067 0.2553442604669839
0.09938239987699034 -1.542409136186483 0.2350825449118207
0.8893852970159047 1.986677303010796 0.7693686623865635
0.2920321673012906 1.23398714018996 1.154229346609826
0.8269798986825933 1.775401904040532 0.0614129500814754
0.9839755287897686 -0.7276553219656075 0.4204401092892798
0.9975828375501575 -0.01076294301382484 0.7515269053566186
-0.5263212751914485 1.170031907215766 0.2424705798077118
0.9772631705736787 -0.6192371321417576 0.3686469446524139
-0.4875311047392995 -1.455548293923688 0.3342088951532174
0.4556765269079086 -1.432043492715317 0.4995605175481846
1.001429828771936 2.33136866486858 0.5427907818208171
0.613183587248137 2.857575081493984 0.3466329740012835
0.3976561985386297 2.895506597432169 0.4928986858165678
0.01402115651050009 -1.523378724629619 0.2283136234184183
0.09747931630671594 2.905528078592728 0.8475246322109061
-0.1428812003966099 -1.265310628020318 0.5857775446160445
0.7279054136253328 -1.392172572498008 0.4771233005199073
-0.07695361644209348 2.731808334335233 0.2615438960089925
-0.3352666894444102 1.95722145759536 0.9516445498842969
-0.2122110103422137 -0.8758108241410201 0.7100784990944926
-0.900052716127119 -0.4518736212332873 0.6008783487664158
-0.3492774780748069 0.0872244060505929 1.002904067107471
0.1915106683610979 -1.515466205396557 0.4742480526920108
0.3585190592939139 0.2387236925475075 1.064266370637929
-0.2106157659976783 1.483466026901625 0.2286903379341492
-0.8945161875605243 -0.3467995016319115 0.4268467821874321
-0.7967751039885367 2.736914244166408 0.5040624820264026
-0.4388580943283073 1.903837798374308 0.2381614386897132
-0.07640026483175547 2.884383783113645 0.6534874866064022
-0.4531889888772749 2.509701471778647 0.8981739045094112
0.6254831397399761 -1.424978748100808 0.4881061438232943
0.613183587248137 2.847670336385573 0.3339019742641336
0.2920321673012906 1.23398714018996 1.154229346609826
0.1024141406022907 2.736108662332983 0.2589361576899752
-0.7597181959071917 0.07873383543079472 0.254878895796897
0.9109922930721408 -0.9008570170538741 0.6713613905214875
-0.2061038243980515 -1.254018474266499 0.5865942898115654
-0.5006634078897763 2.610635168881275 0.8808375025351976
0.7783058690987038 2.789243177634375 0.7600496131991115
-0.3299478057500153 -0.8885803282582471 0.2202931510154137
0.8828500306324152 -1.240126382648764 0.5520410973242967
-0.23536230670496 1.522663343457102 1.084722385512641
-0.05391959710359211 0.7708188096111472 1.172373151831949
-0.3197343373391977 -0.3463854212747305 0.8254026795216918
-0.3884164330141155 -0.4357465491166963 0.2353947441461886
0.2654259440310099 2.911758109682031 0.3273888002778727
-0.7221950284963923 -1.316388143744263 0.3091223358682279
-0.91500160397855 -0.1161876706065969 0.594824755654852
-0.3720074656580572 -1.48160178471563 0.2900033312268004
0.5452622589443975 1.382213276684814 0.2388327733479458
0.7067918877344366 -0.7015761101077229 -0.01278598934948344
-0.2253907940358279 0.8722858921220892 1.169320375378617
0.01200347931829167 -0.6009897370570725 0.2157658804897645
-0.4304045975389159 -0.9683598659681058 0.6690134292612213
0.01119023835811321 -1.55074139515576 0.3839521808953589
-0.9030576526596724 -0.3950501901169419 0.5820740701808976
0.1011475805759165 2.897023554218005 0.7201481238136449
0.2694062299505063 -1.502659469710012 0.4745588326675319
0.9296903667046819 -0.714835123250618 0.7286239427175281
0.4054525602160331 1.905922625249052 0.969120906787885
0.9494259005416337 -1.20765958410766 0.5220061008751071
-0.3295010044812101 2.544389069724876 0.902098036301767
1.003675453082782 0.4508180101438685 0.4983432999219161
-0.5210968028893007 -0.889915975894787 0.6928872959404615
-0.06303294009395485 0.07010292017822548 1.006825345919933
-0.3350864491741313 2.265602582123274 0.9330220205257471
-0.7290020959887218 1.636737140864494 0.2260940753422056
0.5829253435866764 -1.296524033890201 0.5536892305956445
-0.8351383975165486 2.086468783572482 0.2116836641159589
-0.4976501653112574 -0.4015491826708424 0.2366304700893544
0.9666318457597191 2.427940997061185 0.364483637642338
1.009947948218087 -0.5095087580508798 0.6348220868383682
0.449204755973767 2.019861915291759 0.2417895185304167
0.4483212654581041 2.326905077307888 0.2524868239545584
-0.5424382268010521 2.338859173677096 0.9040208963590644
-0.8071978569174617 0.8174510732382998 0.3496897853429449
-0.4617945721970903 2.847426700893723 0.8011785753857315
0.5392731784307918 -0.9733643266483759 0.2282951059228517
0.267057986219358 2.908507518533346 0.4906217637603677
0.09587132135274674 2.509419348093918 0.9233588042050998
-0.4498674812715294 2.669038842388019 0.2775113905847448
-0.7965445695532754 -1.263677765977242 0.3673687265472313
0.7366032499937261 1.375519308584502 0.2445822943206047
0.6224315553736032 1.563571481463194 1.031652676491899
0.6022676123072532 -0.6795081024829212 0.1929093111494372
0.5810999420112722 -0.1611391437890937 0.8870014440927266
-0.4338909272185815 -0.8430276909715558 0.7121569984557667
0.1868656609787929 2.048247729232864 0.2299525998192893
0.1012576184914978 2.324306498901016 0.2403938561579472
-0.1239052859666765 1.449435637734425 1.109678125758721
0.1014680788586805 2.157308974986499 0.2319906343288365
1.018758410362993 1.836163449307591 0.4805266698473644
0.9451931058722767 -1.219744545842397 0.4830282417952296
-0.572856109347277 -1.415708645764112 0.4763511111434821
0.09565427355580138 2.603219285045211 0.9086302803012881
-0.2752521024229389 -0.6823646038223368 0.2212186312672285
0.8382247539427217 0.1736710512914553 0.9559787269466673
-0.5015849014740418 -1.451190258056372 0.3992323074807788
-0.4750171974501924 -1.079293878220641 0.235998188330297
0.2590093492032331 1.721338559475122 0.2274683692128194
0.9621954895193248 -1.063131196654632 0.473003589530012
-0.9034535674431641 -0.394972734890141 0.6038748721665448
0.6074991584625017 0.7516031025196063 1.139267798125907
-0.214864050591908 1.939047440226158 0.2312288778160453
0.9959918084890531 1.9868497457041 0.3882548401682874
1.02836330526234 -0.1161876706065969 0.5948247556548522
0.18488150319556 1.666452258589775 0.2229757186778155
-0.8368768240444952 -0.3903978459126282 0.7985002001340871
0.6059676901298039 -0.6772949406696435 0.7575040145331851
-0.6694845344093447 1.753018177532867 0.8782126959212211
-0.8929116536931239 1.647340068454726 0.4559096055801589
-0.8612122812243052 0.8191727507122898 0.5994015791755403
-0.8073974217699924 1.170031907215766 0.3011763569835263
-0.2061038243980515 -1.254018474266499 0.5865942898115654
0.6197973581276518 2.817744798170154 0.5892754300034302
0.1763946413778495 0.07010292017822548 1.006825345919933
1.009896149905187 0.3152141510978826 0.6662666170324046
-0.8468532619530871 2.258249719921791 0.3407040739066384
-0.8740689042983209 -0.3939942905650785 0.7876053446839482
-0.4338836390361444 0.4469299522191861 0.2308678499501869
-0.6172465739710843 -0.3710986810716318 0.2152585319157664
0.1016609228529753 -0.4173739249874675 0.218897722038318
0.9485343775074797 2.658507097489609 0.560871373546215
0.9685471266683197 1.537126465404294 0.367034988063134
-0.7524820010594385 -0.7746193138180335 0.7129042496824853
-0.8834261435106852 -0.5646261102609901 0.7413084972309649
0.18693591475545 2.319562465907931 0.2425788775545126
1.017769297538808 1.895313017882606 0.4473878817577717
0.2678907952196258 2.885129029695717 0.5506918469367815
0.2307444325926935 0.9958444324346963 1.172578667716049
0.9537280414589504 -1.18909178294508 0.5260239834403805
0.8293862674986307 -1.315209733948507 0.2852168742515543
-0.8998927608655019 2.087606590358263 0.433235135583107
-0.7145862855448029 2.141624773138117 0.009746392500959758
-0.2022949674702078 -1.490688977054259 0.2339525067259991
-0.4998218859643475 2.847670336385573 0.3339019742641336
-0.8726807051032034 -0.8545869594355005 0.5601380127537718
1.015323899872257 0.188776122618435 0.5505467144468779
0.9494165883393017 -0.3964220623624015 0.2235051428808214
-0.147518695418677 -0.7627956616390538 0.2126177556289329
-0.8876577720184805 2.034599931106236 0.3888547882794609
-0.8233239545331552 -0.6192625645288077 0.2112558415010424
0.965841443025971 2.5587913757653 0.5087977387304959
0.4321752350094978 -1.373781939008487 0.2350105709428631
0.6824603167413437 1.180857685644542 1.084085528347494
0.9911160242302426 -0.6188810787230586 0.4212198184444158
0.40579432347957 2.219504648703446 0.9339442240143844
0.4706610404696631 -0.0104152839888902 0.9647850895070067
0.525057632076139 1.102570744472618 1.160428544615289
-0.2762224626570975 2.030383745355022 0.2390993967953546
-0.3690584971669396 -1.308702873466686 0.555631602757328
0.4480606111921552 -0.6667936235163369 0.223967790833663
-0.5155563886998803 -1.032084256602726 0.2049294240922994
0.3276116915587987 2.088123963454376 0.2386246333288714
-0.2126661567143771 0.297873462729453 0.2187932792405937
1.009110792536227 1.94306284031773 0.5445360400381664
0.9706457332004579 1.986468340879058 0.3415790212969422
-0.8311082573354385 -1.22322572461112 0.5151151956821685
0.9413031098103538 -1.227094210652022 0.4948523035588206
0.6443600378623647 2.285721833510746 0.1837703120502749
0.8423637972725115 1.636737140864494 0.2260940753422055
-0.2061851879002772 -0.4229303454590883 0.8115158791842543
0.6461636967852896 2.245362269365926 0.1592638884960529
0.4457776475397378 -0.777637206651091 0.2194954361066515
0.7685942580576419 1.376980161726481 0.9590357797445404
0.9444699586192282 -1.22322572461112 0.5151151956821684
-0.5954895650782506 -1.298452569198092 0.2445982399555086
0.8105072495560302 0.9408795255392812 0.9284577100790885
-0.2182968867605831 2.879600284710898 0.2976001304764355
0.9912383761453845 -0.2831951177220377 0.3503273818811036
0.5452622589443975 1.382213276684814 0.2388327733479458
-0.4324044090540804 1.732340317182584 0.2384780973600191
-0.3834986767061882 -0.6530888645262194 0.2262245704894066
0.4829161947284102 0.6978935401311144 0.2342177041910098
-0.8367208222008404 -1.204623531319338 0.5064753625030547
-0.8220266765687031 -0.6597230206786161 0.7441108039389044
-0.6168033498184213 2.747865177462019 0.293618879184557
-0.8288919957334837 0.6980086840274463 0.3652706325842845
0.6083340987200852 2.09076077927026 0.2161024224655247
-0.8304839197351042 -0.7280445424732092 0.2971618854726087
0.1719271683487439 2.368362581863381 0.9385466253822837
0.971901445669044 -0.2165049356647003 0.8159730931107039
-0.5910449592986 -0.7540674785569832 -0.005778892522757687
0.9413334570574499 0.5837032041368069 0.7839604337019394
0.5401812468141712 2.296855471332582 0.9284761738242641
0.9912383761453845 -0.2831951177220377 0.3503273818811036
0.947293603507021 -1.214345071802485 0.4959293472032084
0.9839747913570071 -0.5112039186574803 0.3688217319516796
0.6091712874337191 -1.369580144253781 0.5186079859706981
-0.2651200969184548 -1.391943510754873 0.5259490144115788
-0.4855631045956503 -0.7852087636614389 0.1917474416002231
0.9489329760428755 -1.208898317510643 0.5025600236323775
0.5142516895972458 -1.468674900696365 0.4647360847551219
-0.4549969220888978 0.5107632616390786 1.126125722887981
-0.4382716481108476 -0.5247889365481238 0.2327177422294154
0.9086923508217584 -1.068668657215094 0.3011838186733236
-0.2688448613868024 -1.024853922553262 0.2229406116584365
0.321214513089445 1.188975771981422 0.2286903379341504
0.01426176777150029 -0.1202191269397493 0.9293396297175645
-0.8986983467013491 1.89529567454254 0.5431187896046372
0.6393354188852374 -0.7753902222709305 0.09571825634416678
0.5666730171930616 2.349761920769951 0.9205654186164322
0.9211766693651857 -0.8548576282099779 0.2300989266938311
-0.3098669154155245 2.879063475075145 0.8289268654186681
0.3289637167963873 -0.5268417093824325 0.7944164756925989
-0.911229122039765 -0.01003389885065042 0.6201625380480791
0.950505056415268 -1.203025654995124 0.5058159617205341
0.9553474396110449 2.422253141774283 0.3356833329399811
0.403752620503847 2.061110605782884 0.9350163158559158
-0.8014901845089473 -1.026758551861428 0.6293626990344506
0.7243477899827173 -1.39670110745188 0.3399583432626541
-0.802726164756566 -0.8404439272442975 0.6921070568238728
0.5653899073732891 1.934261606063332 0.9483369336718119
0.0171437453715804 2.315517873489187 0.9421851350714862
0.6052394951919676 0.3290951478273174 1.078457365260508
0.2492894378698796 -0.02728630007524551 0.9672188913001583
-0.9062556831612917 0.08029137445162071 0.5595037349930059
0.548695324683816 2.368653518337947 0.2585250670743842
0.2532284629967264 -0.1923036981698284 0.8887224817484303
-0.4181093282484821 -1.469365510554687 0.2683944567329292
0.6196560192771001 -1.27647191413481 0.5607734248556383
-0.3173771092144878 0.8697276845897816 1.16693614692523
0.3014779807235637 0.3140181081044825 1.087480611810738
0.448939678888104 1.897280673653809 0.9679721004526615
1.002673615963159 -0.6176203401212793 0.563643808849259
0.3271487635975052 2.038441925918531 0.2362822689914508
0.8527041057069419 0.9409484382895988 0.8637558989452059
-0.8558121636300129 -0.9262456595557226 0.4174244067998919
0.443309507033805 -0.8885803282582471 0.2202931510154137
0.9489257433225721 2.656739533125882 0.6100093048803478
0.9480954220282312 0.5788484327512067 0.3427574145832101
0.3154960921858422 -0.1894734100422693 0.8883924071890429
-0.4210998767127795 2.516247790692938 0.900298326586363
-0.5438579422825742 -0.08383765282005565 0.9239045679484781
0.1001027521386768 -1.123913610114206 0.213045795654973
-0.8247057804709332 0.1871313871862023 0.2880202739042386
-0.2706242083033484 0.5746172492751296 0.226228594714411
0.971028369888078 -0.6680603076707682 0.737083468914844
-0.2921224493725231 2.163194106493487 0.9326555715041685
0.4892797800430593 1.69816638590556 1.026032931414884
0.1724681202326208 2.25216535514561 0.9403466051260834
-0.8112745058140218 -1.224098830999965 0.3678506724329081
0.8399474915385878 1.646114422215283 0.828714741459853
-0.4549969220888978 0.5107632616390786 1.126125722887981
0.2628955297552184 1.943777652886071 0.2282746772434459
0.01802529240051779 0.5966632842709467 1.157587786674457
-0.5319941779556978 -0.4866621627440848 0.7963643316088134
0.4902870903682449 1.326906813609937 1.128616714769099
0.1028588405787458 -1.551774336610545 0.4464564676831165
-0.1779869083280493 0.5975212902083126 1.153439686922778
-0.5301086730322617 1.535456402093167 0.2414576406705188
-0.05900354676790133 2.194649051471123 0.9390202784321093
0.1002462253037088 -1.071737296248123 0.2106970612426417
-0.06901246607733463 0.6979362175823669 0.2199462138477921
0.319546889184067 -0.4229303454590882 0.8115158791842543
1.013409422217883 -0.4518733539225437 0.639465167552262
-0.6018434289737789 2.79665529272052 0.6555642970698261
-0.8770233803016893 0.1882316738334486 0.7326385520324006
-0.299214412953921 0.2423906272401403 1.063341912989743
0.3840624276592969 -1.50584466962007 0.3107621829379901
0.8260656970526038 2.034218595971493 -0.01880525938955554
1.026476628169597 -0.2277859189744297 0.525875045754597
0.7113297757787878 0.939401887532016 0.2445982399555086
0.3185548145347629 -1.306619907228469 0.5666445044358149
0.1870456919035608 2.000420577273026 0.2276627835142145
-0.2626420723126503 -1.506702403298249 0.2501627860710813
0.5678393176606932 2.29192617145984 0.9258695401987919
0.8579260274010614 -1.238312592651228 0.5588765825672704
-0.8867738118750548 -0.5094728758800111 0.7501804837917823
-0.5424382268010521 2.338859173677096 0.9040208963590644
-0.875220601676281 -0.7883958620291975 0.4987328950032846
-0.4672926818252879 1.210142223903486 1.137267628956734
-0.8904925054916707 0.5805703173675084 0.5718351365472917
-0.4109816174678789 0.6849976149621194 1.160055168527763
-0.8777543229464527 -0.6188810787230586 0.4212198184444158
0.9879059474580523 2.434630422991438 0.5619544597350621
0.01749037993125271 2.509419348093918 0.9233588042050998
-0.7714491566997881 -0.5094526753668052 0.7827790157296695
-0.4937975838100393 -0.5153481261727922 0.20958157422036
0.7113297757787878 0.939401887532016 0.2445982399555086
-0.7435361296758516 1.941152194198403 0.8052354897091366
0.1815549281905173 -1.541415792180755 0.2479679104549237
-0.8952230044651456 2.2599742606719 0.5571586171640013
-0.3735803175918532 -1.040994623912324 0.2302369104892463
0.588549863428824 -1.457356871358719 0.2911659852159738
-0.2347973102346641 1.609314917993633 1.061286517609042
0.4492544436765713 -0.7477268860699874 0.7395986986128269
-0.3890199996136474 -0.4099979704865207 0.2359691889513675
-0.2181961174338263 2.90821435720797 0.3304152092672065
-0.1403370342866643 -1.530314245071359 0.2487822463968201
-0.1497970549975247 2.147986509848794 0.2382058734186348
-0.4485638225883157 1.417605637646871 1.101161051718567
-0.5778572937872069 -1.288316567044015 0.5509358340117312
-0.7906335429194739 2.749126249675563 0.3732646136288922
-0.7116465790725217 2.257167892731539 0.8617184524089289
0.9257686596504374 -1.250441540175743 0.4008594165371261
0.01449061898847387 2.917408047749257 0.8027970972080155
0.184920906760617 1.724928605284077 0.2240504422745733
0.8373030049373118 -1.280619231256985 0.532490572042768
-0.4321786860630024 -0.9053654132806552 0.6917306956698042
0.4428627057649998 2.544389069724876 0.902098036301767
0.4706610404696631 -0.0104152839888902 0.9647850895070067
0.01200347931829167 -0.6009897370570725 0.2157658804897645
0.2503867844550827 2.909474523392849 0.8150759833869283
-0.7136181973988034 1.775401904040532 0.0614129500814754
-0.8109485742382419 -1.215015285111372 0.5588144775452877
0.9107410353350439 -0.1538847063075496 0.8612223878793456
0.2631400472995504 -0.5284835959308318 0.2239723066054693
0.4405925137333118 1.182186672854706 0.2342487274261064
-0.8469163775953992 -0.728055653839004 0.3503448251055626
-0.0781489670772033 -1.515466205396557 0.4742480526920108
0.4895156717304221 1.504146300578634 1.081091408260072
0.5528565764048165 -0.6243161065169233 0.7714694625247456
-0.600969319839227 2.034218595971493 -0.008739036999968693
0.8325166023076976 -1.218589557286598 0.2625738742481309
-0.8787861496750316 1.171748095052762 0.6389051529154755
0.7418478906511914 0.3135782533263968 0.2352935243977604
0.4467811244788999 0.4430933678824149 0.2261493524593365
0.8994739994650882 0.8174510732382998 0.3006476888140632
-0.9000192514805033 2.20060568911113 0.5365229266605069
-0.7306527398997158 0.6979832188434729 0.2602514286338614
-0.4675632172753123 -1.367195870239531 0.241378944724948
0.9436083610056411 2.656494659024194 0.6745055518272669
0.01089120679493065 2.893246675601232 0.5349297114622851
0.4268629054507809 2.882982430470103 0.8143109889776992
-0.2148231866766905 2.256771888282816 0.2453578969463534
0.9809488919186192 1.453453365512487 0.4027262670335169
0.01184881691657941 2.215278745333822 0.2342691170868613
0.7773631469296012 -1.358736042823764 0.4865686068199431
0.9807543003116531 1.375298175451076 0.4063313765167146
-0.8569611841827894 2.25828285913685 0.357150116159241
-0.8740401236595335 0.4514151386240307 0.7352726809081402
-0.529742070249176 2.316430806645088 0.212410654831576
0.01381393766606794 -1.551504306674391 0.2651127810591449
0.9446597409684161 2.141624773138117 0.2153117205915082
0.2568643323370977 -1.102905116578358 0.2194043024528655
0.6931099092070244 0.0936536360725955 0.9914255530477181
1.010438609690058 1.894731923251713 0.4207186815974672
-0.274089119017214 -1.505576001277829 0.3288567405803314
0.3265399959972607 2.349806952264212 0.2497506548330729
0.4981507913632572 -0.5943792205695941 0.2296079048829299
-0.8276471608723585 -1.198883149886518 0.4064928539271604
-0.2618798632731561 -0.1847999130718562 0.8880757023341616
-0.1490675031947242 2.09341717927773 0.2356969922468501
-0.8036270874370226 -1.184531625319433 0.5766196778948906
-0.4229331855937233 -0.4028926394770928 0.8111161242668743
0.9602780788791888 -0.7280556538390038 0.3503448251055626
-0.5958995546621766 2.316235851223027 0.1784169061181157
-0.8465030177114743 -1.119487862519982 0.5250057503051838
0.2631876247125968 -1.528789510599236 0.3495509432174363
0.945314147990723 -0.8562596433847387 0.334043536239141
-0.5905852066334182 1.761116910106912 0.9348597641513211
0.930343749780071 0.8174765370230646 0.3679079574076273
-0.8752752362457738 -0.7878133478089947 0.6496866337244434
0.6249164402489834 0.8174510732382999 0.2420266173499698
0.9837672646411557 -0.855082209699499 0.4954048117909995
-0.8980126444592055 -0.3060323130984506 0.7753515690246879
0.6406955654047041 -0.7231942038011199 0.7437685979699731
0.1014042509651 2.272752683782696 0.236679582976
0.01222840452801085 2.366731908321209 0.2451856166503858
-0.444898185397227 2.879727057565685 0.3648798074503273
0.6223845279512529 -1.350874626665769 0.2424705798077118
-0.06726937333069431 -0.1181106885377102 0.9288488390165401
-0.6430021508686286 2.203018296939164 0.8860395849003657
0.5603633549415003 0.09639176958104911 1.001603821501224
0.6899702514599527 -0.4139590026203686 0.805237321001831
0.9498480027198266 2.53716830529095 0.3399258901810945
-0.4704386605473035 -1.275177517737218 0.5635495097120219
0.8799212157918442 1.53807017553577 0.7826272457930136
-0.07564928575968921 2.928405135178805 0.348226587513141
0.6412487601325225 1.622361794448941 0.23162271719072
0.4017902946521967 1.436200795827379 1.105466682233757
-0.4485638225883157 1.417605637646871 1.101161051718567
-0.4675632172753123 -1.367195870239531 0.241378944724948
0.5685865592044346 0.8635067225488542 1.153996940378323
0.2523359412095158 0.8226430017148956 0.2252605164404221
-0.1748271588755427 1.117499162965361 1.166487414620447
-0.4394724331611372 2.101490768514706 0.2477212642452757
-0.9144050831059039 -0.2824395115064524 0.6049066408759154
-0.5387072105808565 2.056823590932646 0.9042797640746934
0.5853577497821204 1.317057669169978 1.116601285776036
0.3822800381594101 1.186021713074065 0.2315336253995036
0.1870456919035608 2.000420577273026 0.2276627835142145
1.007979690885618 -0.5095012520812547 0.6983475707194986
-0.8864497427874527 2.142005941046776 0.3925643299467512
-0.05730428430621645 1.621568665704972 1.065915254263343
-0.6415440225361183 -0.2462326560894441 0.2438165625211583
0.6912189950709968 -1.288316567044015 0.5509358340117312
0.3332547217399881 2.592099363080966 0.2647085204914796
0.01200246236758067 0.0479674139413294 0.2122618733805722
0.2694062299505063 -1.502659469710012 0.4745588326675319
0.09969646648594616 0.6979898701752263 0.2170415101555163
0.9873478609850914 -0.4535688345820595 0.3689009207471199
0.9476349801902085 0.81783303000977 0.4197047465682423
-0.1748271588755427 1.117499162965361 1.166487414620447
-0.632700685743012 -1.380022753273013 0.4836202490186038
0.8494350446052738 2.662128424999169 0.8052033294875053
-0.8342732789064187 0.81783303000977 0.4197047465682423
-0.8541415696967929 1.645938579331855 0.3484319191099646
0.1005545438909362 1.669307240194629 0.2200928579814143
0.3950110149190942 2.890742098281883 0.3206600039349795
-0.8816514980346716 -0.7264479670782325 0.5482832694841777
1.016794415539309 1.895235712481165 0.4381358760328971
0.5691111779085754 2.074181785643152 0.9256068760648621
0.7288914987415962 -1.387069301592313 0.4874909739540912
0.9546806776813068 -1.164327424084861 0.4689390020960013
-0.2742825914261008 -0.8667543714412793 0.7105500266973408
-0.856418668979325 1.834801605306706 0.3266014581034626
0.5427503377019093 1.632135162732394 0.2392269237014916
0.485724984781057 -1.371121575551094 0.526898754201275
-0.8475297539399431 -0.6192625645288076 0.3340487281486481
-0.2656446677310679 -1.291170948522468 0.5694327265696313
0.2371853448070546 1.34771063268692 1.135047166444609
0.5836929867152693 -1.456799476890716 0.2687908458222103
-0.8830638988498215 1.171675890697572 0.5252335453195969
-0.9003040670913429 0.4513999087855907 0.5690497214796869
0.9452248269546062 -1.220150162098196 0.4953150985138054
-0.8259445735911757 -1.23091902744736 0.4485486650945836
-0.07151980191177089 1.666452258589775 0.2229757186778155
0.1851123787050594 -1.471854291859276 0.5030320756072231
0.01184881691657941 2.215278745333822 0.2342691170868613
-0.5297395041830723 0.5788484327512065 0.2373465114825531
0.1022247688766573 2.886462456246151 0.6530818854491531
-0.5423963266698645 2.835998577001703 0.4970459525841255
-0.2793014365667861 1.111702186205529 1.163790551198299
0.676321415947014 0.1802014251914487 1.022675076051274
-0.9044075962550182 1.895313017882606 0.4473878817577717
-0.3781906753242313 1.696134111366631 0.2381962918342696
0.914851885792737 -1.026758551861428 0.6293626990344506
-0.3722005001314786 -1.211811040877545 0.5941633038741586
-0.8002658034466827 -1.22392298193659 0.556041927876494
0.7828462356931345 1.753018177532867 0.8782126959212211
0.01181690397151266 -0.4853066168915545 0.2180414318391007
-0.7143598007207909 -1.259426885314361 0.2625738742481309
0.4915523766080211 1.696134111366631 0.2381962918342696
0.9474778084868112 -1.214583751401883 0.5061451276280413
-0.6922495470166221 0.1457673153441372 0.9807284900141514
-0.8793584628521777 -0.7269149981575345 0.4990656341749951
-0.6374168019151021 0.6305168841062112 1.018737907805706
0.3889415975246418 2.87952571821201 0.7208637151664429
-0.1239052859666765 1.449435637734425 1.109678125758721
-0.7266703448827163 2.724961015609608 0.30449067462356
0.9839755287897686 -0.7276553219656075 0.4204401092892798
-0.5533977267689255 -0.235569588523324 0.8499119428378068
-0.0591064189487262 2.25216535514561 0.9403466051260834
-0.6315079577011129 0.3749250548330897 1.042961439874629
-0.4987935653470741 2.84192773483761 0.7857996808555472
-0.7265857902547979 1.646114422215283 0.828714741459853
0.950505056415268 -1.203025654995124 0.5058159617205341
-0.07151980191177089 1.666452258589775 0.2229757186778155
-0.5031164325744402 2.817011825773636 0.6561410915477846
-0.2033051146141969 1.072168714426973 0.2286903379341521
-0.7622821575627817 -0.6578819980421079 0.7470851150996071
0.9906620322550168 -0.3966682777291737 0.3689648441918163
0.9937828322347464 -0.3471559055594284 0.3690220755686149
-0.8911875448065363 -0.5646527542244026 0.6913562319975263
0.9613741730924488 -0.9974132865393129 0.4142955764130232
0.8712239327288105 -1.047607860156942 0.6255501229220318
-0.4568339058158736 1.41760563764687 1.098654723689155
0.5572316404360302 -0.2665937763811189 0.2381191292130538
-0.8186455489720952 -0.9977987830882377 0.3339641356285684
0.9546324994852493 1.059469647208398 0.7144525164940978
-0.3731452850760591 2.643350020823309 0.8881816694942856
0.7137407144821623 -1.399931978522137 0.4822288444171883
0.8179707999831061 1.059088798204987 0.9211410972024333
0.5926989869217249 -1.080249412239781 0.6271021164860031
0.5287946673184719 -1.386165189951059 0.2395360275624423
0.9537280414589504 -1.18909178294508 0.5260239834403805
0.4987576803596561 1.963913373201767 0.2417470527875635
0.8304322582939314 -0.1024162282132437 0.906838754051615
-0.3951529108565207 2.848983475563363 0.8450398008499276
-0.7512029690678259 -0.01553588415506293 0.9203721734202526
-0.07475268463487766 -0.418383110136596 0.2217847150981576
0.0996612697918014 -1.273142315517976 0.2190800653384573
0.2503867844550827 2.909474523392849 0.8150759833869283
-0.8333720143554952 -1.21780982403543 0.5091861591548774
-0.4019317127727538 -1.454105575854186 0.4787787884130469
-0.7124543576455281 2.770766975489602 0.54205129030203
-0.06114779528670401 0.3113475016670922 1.089843402630931
0.1726904723437172 2.883625857834059 0.8640317756492568
0.09630635212717453 2.256714449207694 0.9418928004500873
0.01724047736438824 2.373247763969994 0.9400858849542046
-0.1521007003250561 2.925922148847626 0.351223114662463
-0.3630705506325916 0.9438132879965041 0.2364775493146999
-0.3435897425404777 0.2456976503162672 1.062583027533078
0.9099062708370651 -1.263677765977242 0.3673687265472313
-0.152611106415052 2.930405794327037 0.4102170652289256
-0.4766329937193926 1.872302730092732 0.9550291008970649
-0.4740575419479253 2.347592675736885 0.9150915987932382
-0.8913559793620913 1.538822080363043 0.4706894528312244
0.5832143894580996 -1.327936508329389 0.5390467928220918
1.00725061261353 1.988167736029717 0.5481364898566703
0.784921154527368 -0.3725487580598186 0.8081771851839429
0.5600519365334571 -1.464114341608197 0.3994314016226583
-0.3630705506325916 0.9438132879965041 0.2364775493146999
-0.7168747218209957 2.648778564452504 0.8207089578754132
0.6989280070956561 -0.8680633872042317 0.04167823801987618
0.5002839143964597 1.856276947286194 0.2364759382694283
0.5871740729711639 0.697968298852403 0.238949946783582
0.4470277796678217 2.051353955311444 0.9338438390925242
-0.845012965827185 -1.116641973648671 0.5694559277743162
0.6276907506077297 -1.332355743245601 0.5341404583513283
0.9914214989421193 -0.116787409750507 0.3619155638947668
0.1006335556673371 -1.482491830283155 0.502836164783486
0.9733050879576864 0.8190953250643873 0.550373731450044
-0.07666060083120165 2.911000326364831 0.4892786806879749
-0.5536974935384369 2.829015063288169 0.7846234986929254
-0.8149962362414492 0.9394273498827206 0.3684897593772651
-0.3258801330819952 -1.057505827403439 0.227991071660491
-0.480685947741136 0.4176222611755637 1.100593965985883
0.7941182587644921 -0.9351953534814966 0.127844515938613
0.8805714669699828 2.558744907813389 0.791120582374751
0.4476580825229291 2.099750349294041 0.9310307640078576
0.4841974383578902 -1.253446863979257 0.5789173175405851
0.9556258286662838 0.3229202345012756 0.7781251908474147
0.9235901557413317 0.3460764590637033 0.8212843798296712
-0.2869989550422838 1.602127675051465 1.059925181491917
-0.07711828470944138 2.891147544932334 0.53567565502399
-0.4185879127520274 -1.3244823451638 0.5447147252997333
-0.4162862192699889 -1.449404743945722 0.2429057200242417
0.5362948868775131 -0.4028926394770928 0.8111161242668743
0.9879009034649596 2.434629988060653 0.5964936825454118
-0.901436717299403 1.943081159954398 0.4815697422182142
0.5204339983641504 0.8671806091783234 1.164669327268906
-0.2636258717797341 -1.507757949663686 0.2671607660948137
0.6039716745814117 2.29063665687234 0.2369095831919865
0.9860406601311031 -0.8545874153462403 0.5519483048769605
0.6055775045811656 -0.5683538105297312 0.2024549443672261
-0.8233239545331552 -0.6192625645288077 0.2112558415010424
0.6403863875310398 2.819980978714713 0.7213477111234462
-0.807814968081396 -0.854857628209978 0.2300989266938311
1.016810272592188 -0.3949724858227449 0.6425288748595109
-0.5769134969610896 -0.7445549972555546 0.7343291745550701
0.2429109054999296 0.234249678816793 1.066243445454149
-0.2277186585300911 0.6844540963187472 1.164513149064455
-0.7244715681464833 -1.299994943635075 0.5148811480473544
0.8756438588465716 -0.6578819980421079 0.7470851150996072
-0.508481822778442 1.479766360584066 1.055134983130321
-0.4944690827570868 1.894624087054857 0.2087127420690677
0.7162227497117484 2.086468783572482 0.0008326213984311062
0.01238782256783725 -0.781645188217286 0.2062075354390499
0.2636313839890989 2.492478849080047 0.2585421484370559
0.01176169029405641 -0.4475688051671172 0.218311287039839
-0.4131673844234713 -0.09163369102435012 0.9260368305821054
0.4016342717215896 1.336265189647839 1.130865916876139
-0.4472757626557691 1.495539783724681 1.079044078138679
-0.2214407528269831 2.87883281159649 0.5867396738991738
-0.7290020959887218 1.636737140864494 0.2260940753422056
0.9897148002741529 -0.6701553052878403 0.7194295336805345
-0.3666682241779296 -0.3410880995097532 0.8253046463874598
0.5820488515813409 1.576191054204326 1.045715549752531
-0.1490675031947242 2.09341717927773 0.2356969922468501
0.9881160799675973 2.08807808162396 0.6310272721209874
-0.7010343146415974 -0.7121565740985166 -0.01237032176764347
0.6503605746606523 0.3135782533263968 0.2331138345901124
0.8258707235654601 1.940874871472198 -0.01547354174324164
0.1717909672973517 2.090379666084389 0.9413009755461232
-0.4177999798645202 1.06162044624962 0.2388327733479458
-0.06980577287535833 -1.277260431782236 0.5853062984952877
-0.5058122722449707 -1.285400036308125 0.5566122820780119
0.01286634965274867 -1.096619728542368 0.6476699450834508
0.9205595582012517 0.8174510732382998 0.3496897853429449
-0.349817431545637 -1.45271843114283 0.4859077057989716
0.9738472342149873 -0.6718608266411107 0.3685915490801068
-0.6615272816742552 1.647151883154569 0.9005195985899765
0.5359353498944358 -1.199194395664548 0.5964704829673215
-0.3750019718600712 -0.9904253114441062 0.2279361980737
-0.8706138275059787 -0.7276553219656076 0.4204401092892798
0.3525042965190276 2.174860093852891 0.9341020489922631
0.9733050879576864 0.8190953250643873 0.550373731450044
1.010441940768664 -0.4524551000431151 0.5175087291494745
0.1020784761924007 2.934994335497747 0.4061207314765152
0.8893852970159047 1.986677303010796 0.7693686623865635
1.001348681384848 -0.4532125658592489 0.4250294598650052
0.7864852669093936 -0.645966245076524 0.7562274040028483
-0.7082272342782453 2.246630840053795 0.07707285992212497
-0.4557494766247855 2.074181785643152 0.9256068760648621
0.9515727682624811 -0.8562958209308842 0.3503437867236612
0.8325166023076976 -1.218589557286598 0.2625738742481309
-0.3321985916941402 -0.9204080665200551 0.6912526959166048
0.4003606563260735 1.602127675051465 1.059925181491917
0.3175374826700939 -1.359355113415493 0.5448622798836977
0.3802274563304811 -0.4198979873781021 0.8114038135807199
-0.8190267717682206 -0.06485070427085356 0.8451152041060043
-0.9032961166092732 0.1888230493919003 0.5661654719282303
-0.3880396324200462 -0.02523950979580647 0.2320218919214139
0.7824687858211629 -1.095340130319368 0.6169257595658522
0.3259521590595852 2.381787133801074 0.2523984768891159
-0.8284650634577131 0.5788484327512067 0.3268707144087444
0.6376338222273907 -0.4364055355751486 0.8035130262479813
-0.8244021592313819 2.645707721843552 0.3424577478610388
-0.1490675031947242 2.09341717927773 0.2356969922468501
0.4955746999986651 -0.8507002247347454 0.7116260455190018
0.314320813386105 0.8221309416412027 0.2282278399998393
-0.6314621631319393 2.513954107853234 0.2769261845747035
0.4566486017229843 2.904783384931994 0.4160621968254497
-0.54745251490426 -0.2573474932133983 0.2417554563512037
-0.7798186989870817 2.086093742114071 0.7875464615687888
0.01238782256783725 -0.781645188217286 0.2062075354390499
0.0129562145496368 -1.012198367921016 0.2079345516227355
0.1884932960479994 -0.3664613138866422 0.2221984565196152
-0.2825356600953721 2.917766944919568 0.414122145061318
-0.3403257867947833 -0.1368406015943102 0.2317040202898887
0.2578508773715831 -1.141416333365807 0.6273633468784894
-0.8448300451330918 0.5788738993243512 0.3604752590111137
-0.4751881621450342 -1.457356871358719 0.2911659852159738
0.5846961698537121 -1.255985866777582 0.5721851146312044
0.1024141406022907 2.736108662332983 0.2589361576899752
-0.2876651383218119 1.516162323777487 1.083371752018616
0.1879363990651462 -0.4482886135175557 0.2212003077874585
0.5817528794316319 -1.433797951734509 0.2438506705819156
-0.479155718498435 2.507024432264497 0.8934941503310266
-0.5938322600566018 0.3136474831185991 1.053410234942351
0.5881207343975693 2.070728144341739 0.9187000125383479
-0.5395412125859492 2.412274987368421 0.8962371195623515
0.9431012203119923 -0.5112293612963523 0.2136227185702598
0.3780986987540402 0.697826951773181 0.2292403574461846
0.3254155246093664 -1.517948956877622 0.3272788580268619
-0.1401816658533489 -1.521852667979563 0.2376251178145252
0.2655450363674889 -1.483777218808591 0.4887590827548451
0.1024945078474263 2.889716840651745 0.5492265213218389
0.5098452236259875 2.682802325058904 0.2751066857864798
-0.8353612828567099 -0.3409382794338309 0.8046507459816743
-0.8573037919748293 2.328677653876984 0.3599499866320738
-0.8265219974548732 -0.789536229645223 0.2976977483810749
0.01571158856879263 0.0683832741500563 1.007623451287435
0.01157110524706304 -0.3667301412248898 0.2193128989969604
0.3885653362383365 2.407181262072756 0.2565798757047158
0.9555514355372511 -0.9266579970678368 0.3683939172094456
-0.8913511279326092 1.538821944640922 0.5052023738631635
0.1877750625340336 -0.4836843428345117 0.2209313856519257
-0.8386843925594245 0.4568487983825498 0.7820663552310941
0.8799212157918442 1.53807017553577 0.7826272457930136
-0.7215311866888542 -1.168753860406129 0.2625595076612186
0.7288914987415962 -1.387069301592313 0.4874909739540912
-0.8008571608732256 0.4731106182039661 0.8246950791257954
0.7301650511022111 2.747865177462019 0.293618879184557
-0.8002658034466827 -1.22392298193659 0.556041927876494
-0.1533528926561128 2.599094208526267 0.2624428852367289
-0.851824198125239 -0.7241364217061418 0.7226617176674884
0.9416290150691332 1.538643774969739 0.683283528105008
-0.846756849124789 0.1871313871862023 0.332595592316805
0.5342684577552666 2.743815595432165 0.8752547718939628
0.9967878447944749 -0.5646261102609901 0.7413084972309649
0.9283579375252392 0.9394273498827206 0.3684897593772651
-0.5769134969610896 -0.7445549972555546 0.7343291745550701
0.3117541504276378 2.905605898394419 0.8148099661398649
0.01431959346869704 0.9517245033790445 0.2194166932366349
0.4119493350386109 0.3193737522771463 1.085424820536165
0.7563638521524184 2.203018296939164 0.8860395849003656
-0.3914651416983989 -1.412564066022453 0.5053893847724993
-0.3422418156951136 2.879590752378723 0.3242882144881627
0.9136275047304725 -1.22392298193659 0.556041927876494
-0.8357699142842988 1.987837311343036 0.6632578698021144
0.6269408615140906 -1.07185071836084 0.6279529436400176
0.7507785031988919 0.6305168841062111 1.018737907805706
0.836722619143048 2.542320480477738 0.8292116688845306
-0.7094259765231634 -0.5527980285196623 -0.007901492039434251
-0.8108957435702918 1.685506255798281 0.2297117375814906
0.9542189039814055 -1.186001710169303 0.5165326561290229
-0.1748271588755427 1.117499162965361 1.166487414620447
0.7895849510703565 0.2151758159897969 1.003697442214788
-0.5536974935384369 2.829015063288169 0.7846234986929254
0.9781687943679747 1.454749604099055 0.6501068626480402
-0.2106160461573349 -0.8623709573650396 0.213334675278186
-0.8411408609854875 -1.184784551697781 0.5079578880354851
0.9257686596504374 -1.250441540175743 0.4008594165371261
0.9605697827978337 2.556610606158317 0.423403153400527
0.5582598866810166 2.879727057565685 0.3648798074503274
-0.524273245417839 1.85976079800134 0.9404008826405466
-0.07108425105335091 -1.002915088361193 0.2108594515038488
-0.2924326221957803 2.219504648703446 0.9339442240143843
-0.8578504263106861 0.9410460467577348 0.5442572230490275
-0.7010343146415974 -0.7121565740985166 -0.01237032176764347
0.5823640921625158 -1.240559799630779 0.2412009250936949
-0.2154826715782658 2.199875360703338 0.2433776974400495
0.5204339983641504 0.8671806091783234 1.164669327268906
0.8056112483004119 0.1457673153441372 0.9807284900141513
-0.3249341147041284 -1.094895069575019 0.2303520411992242
-0.2669704853468319 -1.113883393806977 0.227624030665192
-0.6145437123415432 -1.392172572498009 0.4771233005199072
0.9472857719298304 1.453139397116764 0.3339255495595928
0.9573127970603684 -1.161073174413095 0.5150484958809659
-0.4276817149346763 -0.9161003298625532 0.2250777547306789
0.9494895075564349 2.200160099659584 0.7140218943729109
0.6033464515021294 0.001878873161418977 0.963241263232083
-0.86267613476246 0.5792304313483743 0.4146670056474361
0.9074210287857932 -0.5745002393462406 0.08093059432554625
-0.882445181647572 2.33133955091557 0.6430776993331474
0.6326459023819442 0.697983218843473 0.2402507675190015
0.693293659814801 -1.399762798643703 0.4914065148882109
0.5532104715321798 0.2526719843363944 1.060982578870955
-0.8288919957334837 0.6980086840274463 0.3652706325842845
0.3876436763655488 -0.7394017620485716 0.2185162785044946
-0.6288577389918905 -1.298330732648983 0.5396935224734603
-0.8655102643864925 -0.7876003848817584 0.6917990296690579
-0.2778337412287527 1.87390486321902 0.2315320046097981
-0.7188847314874988 0.5140039065790298 0.9284221903557635
-0.9004726029394179 -0.3955543243192318 0.5201740252760922
-0.2818423362789074 -1.453569815271469 0.4935654420476566
0.9352232180518906 1.171660170834331 0.7502040302376156
0.5674179473720294 1.687476097069594 1.021551393943682
-0.1436407084962395 -1.206499109175307 0.6061447641869827
-0.9014332690918067 -0.3949642215934239 0.7075196476750623
0.7337379981201573 1.456086474700036 0.2445185117809888
-0.8119982505074535 0.7009784594075623 0.781395975311588
0.7195827479556517 -0.4203065957463923 0.1305368086573649
0.09583417287905129 1.351953059176287 1.138143383795062
-0.8629133291522007 1.941387409273236 0.3581317543396522
-0.4285710406379793 -1.029651094729664 0.6464554849868306
-0.8841449911083552 1.27837943428159 0.4727750624905367
-0.4695636423028865 -1.296524033890201 0.5536892305956445
-0.3383038536925838 2.179054592944709 0.2488371515137267
0.1799623623822456 2.91535819454197 0.8025825074409175
-0.8453372680768786 0.313578253326397 0.3335363223874126
0.9930959327760902 0.0790956489720023 0.409305328087231
-0.6928130200135894 -1.239230924813652 0.5649571633827946
0.5681956477112705 -1.452732282677982 0.4713112985884123
-0.8463007827424209 1.835420241662697 0.2927069390304901
-0.5363750248032199 1.890938602527077 0.1107873078733863
0.7148513415551381 1.940831039265404 -0.006136661814757085
0.01405742588312606 -1.49404497333292 0.2242786539750616
0.3376535410270234 -1.505259122801846 0.4624967265822397
-0.7953026764132086 2.558865729115723 0.7673030317597448
-0.5326303725997775 -0.5486253042582675 0.7865250084831346
-0.4552839946589639 1.495539783724681 1.076558926729176
-0.2793014365667861 1.111702186205529 1.163790551198299
-0.2754731658220836 2.339877896720485 0.2511502896333088
0.1012951871686147 2.004241526503194 0.2247961852839339
-0.8536900165698319 0.9411211542022051 0.6588247850633388
-0.05713337099232649 2.817362076091465 0.8792618896853973
0.8894403528335345 -0.08394592133433176 0.8913520063836393
-0.7188847314874988 0.5140039065790298 0.9284221903557635
-0.6909075824758522 -0.8842390242766075 0.07983629008872251
0.5600519365334571 -1.464114341608197 0.3994314016226583
-0.8402255028474033 1.453085097487678 0.3503201893877515
0.3348035516375354 2.88122022409982 0.5513799608281009
-0.2762251843021609 -0.6227581600320096 0.2246224298131324
-0.8576666686042881 -0.6680603076707683 0.737083468914844
-0.07400267931096602 2.268157334631193 0.2393795634547847
0.9675032709805826 1.645938579331855 0.3484319191099646
-0.3453607326994855 2.882052612371443 0.4939633486163469
-0.3869222131126699 1.856276947286194 0.2364759382694282
-0.8804211309509566 -0.3471559055594284 0.369022075568615
0.475881120418071 0.7682315597980243 1.164519391922136
0.3239777474411246 -0.8623709573650396 0.213334675278186
