0.8987100554844519 -0.8055228462159204 0.2172019302094253
-0.3657440833399258 3.069953417259431 0.9910516792690948
0.7466761632931975 0.8355671638347043 1.698259855953391
0.2765672510136667 -0.5757650919168922 0.2290698958242028
-0.8479511236535651 2.941837210846556 1.01707214163833
0.07829743163055591 -0.5920071944451645 1.206452730240772
0.937393479278557 0.6783676116392081 0.7489956418539951
0.4292344476773974 -1.120071630894273 0.2477841495154993
0.7871406173937122 -0.1642761269034049 0.2838908960600668
0.794794484697631 2.353593139749328 1.717408676957218
0.5624276614173844 1.598345907455228 1.808988457891231
-0.7743467967020383 -0.9803217536164947 1.14457251005725
0.06930354544825955 0.8141489326343301 0.2290943642492822
0.397824758124316 2.625871693469748 1.770933465701797
-0.667889986656149 -0.9189360364489061 1.15996292883353
-0.6685545223761249 -1.169128853473344 0.2743517433746561
-0.6775130982357123 -0.6759575331635387 1.187590844895192
-0.2747566221804422 3.073671701442178 0.9576088291896489
0.9262034748711268 0.5537660513304086 1.123917410141344
0.5503567049405675 1.17918523001835 1.808726532922628
0.0742419247182543 2.99807474596672 1.260769808682187
-0.5455796431376669 3.0642710291966 0.4286695471013172
0.2709558437115626 0.08145796584985415 0.2407031357071928
0.9244235185054825 -1.478108696525236 0.6379785374850207
0.4004290437168164 3.072460278467164 0.9582910006516477
0.5707097861117039 -0.4660434147436218 0.2311494419529689
0.5463369612870153 1.91179847055539 0.243519826322231
0.9333491485752041 -1.354157481251415 0.5938211591388727
0.07707691283606817 2.107077241446408 1.834837572598081
0.3743682873769046 1.177816786279211 2.04996621214669
0.06988190177468104 -0.419138457813557 1.27912772784884
0.1908834761246197 3.065693207736839 1.037817934788159
-0.9339746603652136 -0.1552520353376831 0.9961100918276292
0.6922039187778327 -1.391612675291885 0.2808323947323155
-0.7647317348941418 2.353593139749328 1.717408676957217
-0.6508420164036044 -0.2164111712168813 1.395688278863243
-0.630861687449718 3.050837819559235 0.4328272260887332
-0.9082393749829747 2.194009767771218 0.5236397278688633
-0.5459717294964435 2.598595917532593 1.762439947514692
0.9343822660860417 -1.130794952218475 0.8849586872111346
0.6736033287163018 3.038688202365 0.7887623271344434
0.6519958953015222 1.816778930340361 1.887294580258132
-0.8484774547381518 -1.595352885543337 0.5532556070005962
-0.6782180121556494 2.010574261436541 0.1042147947926025
0.5542636647884502 3.036195873412474 1.101289558281871
-0.9085591263044127 1.333160261916137 0.8450313089037678
-0.6042340613234818 1.436035369808469 1.871432693279357
-0.2280988092389323 0.5478423745363522 1.784915790644092
0.5481097933568694 2.585480058723141 0.2398675173135468
-0.9088898259188798 1.068399096740877 0.9396214394219495
0.4936411040884049 3.06561170391762 0.8568565344241874
0.7764903953736968 1.757808233376238 1.714330595342774
-0.4545987468211061 -1.744544491761224 0.6741793514709149
0.9568942927475528 -0.3008836741979631 1.045944267776222
-0.5112521106128232 2.696944725468505 0.2551911302154755
-0.6145458579665741 2.306621451029713 0.08769902714205366
0.7535997894917619 0.3521240586250291 1.649244547557426
0.173938161217673 0.3099381688512931 0.2342185713234249
-0.6735419027127663 1.505126952878034 1.805317793496453
-0.9077287158243471 0.43660600852516 0.8386573678583176
-0.8298312918840691 2.457235433371033 0.1550607962550599
0.4310485804762255 2.189254438996059 0.2285740114576779
-0.8990167640238098 -1.264628420915831 0.4406052082409481
0.3576155247020747 -0.4175316217277735 1.274463646010569
0.8770311078442876 -0.5245850788435765 0.1471128376309459
-0.8409800714171676 2.823590135974761 1.115976845794582
-0.2756255046702327 3.07429924673094 0.933162385190897
-0.9124164891168389 -0.4690592094549361 0.5094121405959724
0.7632437518249838 1.4888724985358 1.711146633033215
-0.4562593395856809 2.671362056939666 1.729059405437451
0.07829743163055591 -0.5920071944451645 1.206452730240772
-0.6329939119807027 -1.58515416447789 0.9812431994196539
0.8849249920538332 -1.552896933583225 0.8779199859661453
-0.7527809742415278 2.673118199274498 1.502018915747233
-0.03919443452602305 0.1968143652093926 0.2297803568406569
0.6209684305584968 2.176958425589103 1.84301338501861
-0.5086731719285591 -0.4022640212714534 1.272937758138754
0.9318390548272586 -1.12443140315734 0.9984432229774212
0.8546478211113113 2.98747877531312 0.8769029137547363
-0.04793932051978192 2.36094473195138 1.842443383518342
0.7941309464572643 -0.1231099612420313 1.418041962864364
-0.7540513548010783 1.547507591467746 0.2816439207939613
0.4017138032638429 3.069917869815666 0.8548757924106938
-0.7852887191881633 -0.6680102830119246 1.178957907821687
-0.8847423550567406 2.389331303569441 0.3749963287325881
-0.7535717929847726 -0.4062016355071723 0.2522621504600559
-0.648445603865951 0.4270113998158132 1.800964530046207
-0.6433227000405651 3.046023015011793 0.9014011974712326
-0.3657780748700918 3.078438810256375 0.4186906750752967
0.6339352983579207 0.6719523791029808 1.869214758694716
0.4775991597759473 -1.624780913519047 0.9803546537149839
0.7663145046669907 3.023883322649811 0.9662751371307474
0.6142363446090129 2.387847125839323 0.1792770498317071
-0.9339302552344431 -0.1552520353376831 0.9202146015465451
0.8006081304893082 -1.216679011261418 0.2924507068805407
0.6434858051487967 -0.7317053306561169 0.08749756460503008
-0.2477601178289591 2.076439936755875 1.982128114096077
0.2007853546754584 -1.110382501929175 1.14791942541582
-0.9135307634892539 -0.6921778442286888 0.854370285485287
0.4832888249404405 -1.744859218441352 0.6017036962968957
-0.7181926553802066 2.898601404754844 1.229628990092455
0.4336310588170155 2.11468325420561 0.2307803418931677
-0.9107498101632411 2.325402313570571 0.7500489151120751
-0.144236133204371 1.235984592318438 0.2338347397031091
-0.7647317348941418 2.353593139749328 1.717408676957217
0.3141564918566247 -1.250439748650079 1.128623424192233
-0.6023875676195813 -0.3909892911915662 1.270535556885647
0.5484107342714563 -0.7511270821923338 0.2211038341554071
-0.6030870655299375 1.318227389124098 1.872953516883602
0.7739567615403926 -0.706320573126515 0.0386986375735727
0.7865551359614877 -1.620510426525929 0.8095428100811866
0.2310805002739133 -0.3404836024027627 0.2370235291356728
0.5328264431949247 -0.07839322736215509 1.527489622318929
-0.0585940626089061 -0.3405509228107906 0.2322922232556154
-0.3793994842999818 1.171074913824535 1.895625503888545
0.6663260096953114 -0.06730752481244744 1.510548448336832
-0.8679807703969276 -1.131962533317884 1.102752706655972
-0.2390489751192831 -0.2434059665362459 1.416469722128943
-0.06651937438003366 -0.4735554762152587 0.2286506088160495
-0.9329994616984461 1.628302431032231 0.9397723231113007
-0.6935934235620734 1.130607723608702 1.766380629936366
-0.8412309618441948 2.666145685552969 0.3702884981498667
-0.8124495263598944 2.331055541284539 1.543360525359028
0.9232168495563308 -1.052534866278981 1.011534442613834
0.222683623901921 -1.28098170465776 0.2483185398185898
-0.9314666923309539 -0.3008836741979631 0.9160289947426603
-0.7827702692173441 -0.7248943228484639 1.173974240841921
0.1809567091323326 1.459083612591689 0.2339689200259988
-0.6808759819840407 1.915217332648873 1.811814114347488
-0.8593790978597131 2.942333344049892 0.9517045973072702
-0.1345594993931283 1.332699985088893 2.114322504355016
-0.6613239899721988 -0.6602837838705905 0.04945971509456467
0.3104114510736574 -1.341729830624098 1.112029540050677
0.9319543224386396 -0.8624210592754814 0.7430592216865981
0.3805164295290913 0.7160592415454302 1.984403710558782
-0.9151490137131744 -1.264944199814092 0.7426337816151076
0.5996193042786048 -0.5724658444018678 1.202684241395492
0.4920509143777503 3.068141195082029 0.9595989035299878
0.9386263292882856 0.937388681639022 0.845031290176154
0.3118592147859027 -0.7114308625422259 1.190310685983552
0.3078402866965568 -1.035110586395977 1.154441796626187
-0.1702067027849599 -0.8299453674534346 1.17938396789626
-0.1332411302724702 1.185284026331992 2.131361074751734
-0.9197008791749863 -0.5767295442389013 1.052627652900969
0.9211194335620694 2.516491726733608 1.077507229487379
0.6516465294831374 2.578453458847642 1.755059139554157
0.9466007897701332 2.260768027008578 1.0158716422868
0.4370842004586161 0.2999108698132964 1.732453766379357
-0.8787914037153779 2.754148396420118 0.8453147018031776
0.6333201450716512 0.9214920781333829 1.880374421094364
0.4678275973592366 3.047664334589519 1.10118880204954
-0.6038725485544314 0.6719523791029808 1.869214758694716
0.6285117230346272 2.884479058445139 1.337410854984581
-0.7400204953195586 3.024354688417533 0.9237307720791902
0.6408111346162191 2.260259335713867 1.866163288487456
-0.7122735114670694 3.013060650445543 0.3692445268846276
0.7069900971691353 2.966134134537033 1.164473001399112
-0.8908369381898442 -0.8624210592754812 0.4996175728912288
0.5413148604163125 2.696944725468506 0.2551911302154755
-0.5943228542263839 2.105471878727773 0.1791582109518118
-0.4532260751369513 -1.744859218441352 0.6017036962968956
-0.6189839789047202 0.6722099635296672 1.860838335198446
-0.930964282282843 -0.3008836741979631 0.8250241001806181
0.9388458010550624 1.33214366452672 1.023833000707496
0.9542461943393076 1.538326678928232 0.9396235059927325
0.104625469847607 2.114894457734922 0.2201581390357356
-0.7421796269774899 0.1008597026794784 0.2821747442472469
0.350136275422665 0.05761349307275547 1.63136818838739
-0.9205622274079008 1.981665696995343 1.126843969943043
0.5738134429937678 -1.641204184823154 0.911883196821381
0.6379501855256894 0.4316307933461415 1.840670126686773
0.6514008329288779 -0.5569951700711542 0.1369233198123734
-0.6938519734765496 0.1798070769571668 1.644960351667202
-0.9073903824038139 0.937388681639022 0.7495067248130033
-0.1445477920580943 -0.2434797285079847 1.419284266729363
-0.369591472291218 3.066752118789289 0.6111349558024606
0.2580949154013055 1.465563462295491 2.095286123654142
-0.9088800868203181 0.937388681639022 0.9396676480596327
0.9439434124423851 2.124745974153692 1.124237025814735
-0.8236643307615088 2.989860161782687 0.941822312754941
-0.8626999884463049 -0.5679998569817726 1.164668865172002
-0.9179015922709759 -0.5767295442389013 0.7281918902071694
-0.07520551730259517 2.043411181734569 0.2233201071854985
0.715923861392786 2.27137295663711 1.810434126373594
-0.9278222131145636 -0.01387916095550358 0.8310805311840774
-0.5990777038312963 2.230935146377467 1.869743359154991
-0.5921797451828579 1.504412449987634 1.831603228797965
0.2978242393590565 1.670904608675135 0.2405830403737691
0.9255949928700173 -1.320813091318428 1.021931943414813
-0.2455214931474786 -0.6929528687598385 0.2240706287024399
0.892609024588615 -0.9824895374359977 0.2540927358196886
0.9208996879933338 -0.8624210592754813 0.4996175728912288
0.3667036382129972 2.062278082594177 1.938246448305323
0.5535741677874184 -0.630699701773552 0.2246291112223356
0.6490539814588183 1.045447144179637 1.877629610193028
-0.701461328809984 3.018349527965702 1.038607091102916
0.491091891832308 3.062462037460493 0.6147015223430682
-0.6212442083950491 1.514074034908227 1.882116096366189
0.0752826149634423 -1.567459179832727 1.046525946055716
0.5481097933568694 2.585480058723141 0.2398675173135468
0.4094622341034712 1.171074913824535 1.895625503888545
-0.6306947449677414 -0.4097488490716714 0.241206512830272
-0.5491597026982884 2.466735678168178 1.807915184381506
0.4418293819025649 1.083321112827074 0.2509153522145203
-0.739147258440741 3.015032636844754 0.7087114301704484
-0.6137526755149804 -1.129684753705762 0.2549594816240922
0.1806985869333218 2.082142189172602 1.985576912567331
-0.0471004943261132 3.064739125821512 0.6885931106959102
0.07627878451288314 -1.719694596797863 0.7546947921083164
0.9401071165410537 -0.52049241610635 0.5096416015978805
-0.8990167640238098 -1.264628420915831 0.4406052082409481
0.9389525757223691 1.068399096740877 0.9396214394219495
-0.6211437028264369 1.55509178433053 1.882971795223663
0.6609244372532073 3.050837819559235 0.4328272260887332
0.5484107342714563 -0.7511270821923338 0.2211038341554071
0.4444514826061677 1.803277137531654 1.844146880343304
0.7445118178611414 2.696511735953846 1.545525566691921
-0.2440137933586625 -1.041975299866119 0.2355663438465931
0.7165858967546521 0.05868964274555527 1.578277748711804
-0.7195052345172621 1.095220530983831 1.706495214929926
-0.615337547742434 -1.093225916154336 0.2264866191461408
-0.6397554745145256 -1.702457925222461 0.6096982378814403
0.9527232664786437 1.538535961930915 0.7495458095099953
0.6567615210117114 -0.4433231389560445 1.239639279228857
0.3884444386149006 2.08094650505802 1.826285633596038
0.3871322207522443 2.870364886956452 1.454370820832391
-0.8989799175311712 -1.461851834852982 0.8416198779602766
0.9373435698998524 -0.5767295442389013 0.5090585480014243
-0.5990777038312963 2.230935146377467 1.869743359154991
-0.6825915336538877 -1.13248152280774 1.137989729580171
-0.431724187112615 -0.4653472310154379 1.242262397423924
0.6202367960948827 1.9604453098212 1.838876092315016
-0.5174985448590243 2.527719640893636 0.2361881395994452
0.198808303490219 2.430480964744165 1.835309032471482
-0.9204892355305324 2.194028849871502 1.021431626776273
0.8894418476632026 2.942333344049892 0.9517045973072702
-0.7206243768610117 2.632435988486674 1.637747667071116
-0.8548317939567138 2.583388779947025 1.227353748131468
-0.0456490001848634 -1.752881464394788 0.5123863328136722
0.3720519568625526 -0.4711689601749792 1.242805600982259
-0.3919272832214713 2.699622928353246 0.2511478002745987
0.9373435698998524 -0.5767295442389013 0.5090585480014243
0.9064661254433399 2.517525189164243 0.3825931699994459
0.9565095738699891 2.053319495176925 0.7498147606250276
-0.6114133647415883 1.222575813396736 0.264308429888829
-0.9084815868907136 0.5537660513304086 1.024437624823448
-0.3665732712562179 2.982364114078394 0.2679148559566471
0.9181889573994871 -1.058639338307457 0.5802422194615701
-0.3657440833399258 3.069953417259431 0.9910516792690948
0.1967688669738441 2.564644058450022 1.80975522947785
0.6197643644975639 -0.327981195244656 1.319089309468243
-0.5827854447749276 -0.9784391631646257 0.1960909287616573
0.9442259800201249 -1.197495587168195 0.8163002039500227
0.9447867443985872 1.466922674761605 0.939509783584297
0.0776590608431342 2.430597404245297 1.840114759724674
-0.1577321808668289 3.055561227326889 1.101580315582932
0.6646580751022698 -0.3163191746864962 0.2623735041536446
0.9406429324017298 1.538813721584562 0.4968236910264777
-0.5724640322279818 -0.6317148771581869 1.194401658024207
-0.6825915336538877 -1.13248152280774 1.137989729580171
-0.5901740462913935 1.960445309821199 1.838876092315016
-0.6917866794887335 0.6176783170241342 1.743450819664756
-0.0470141630324875 2.107077241446408 1.834837572598082
-0.8334343917004968 -0.1488236205185528 1.309021996003531
-0.6018711894270085 2.018711401396461 1.879895532148742
-0.7675745479592604 1.998130727950088 0.1078089947007281
0.1742895793354989 0.8141396827850173 0.2338446386949643
0.7865551359614877 -1.620510426525929 0.8095428100811866
-0.8803274712076703 1.834544496994994 1.311870760475959
0.1946049390897789 3.032203352452629 0.2812288996341735
0.8030227327681154 1.940487391545511 0.1502337521716643
0.8797292901141057 -0.921824268014691 1.124436036281798
0.06838553648768769 0.6993745911558905 2.053335329033114
-0.673057272971836 1.474477863855798 1.804960272220711
0.9264985258430774 0.937388681639022 1.123987630263006
0.7109387317875299 1.915217332648874 1.811814114347488
-0.3655398297851192 -1.716177186675535 0.7602883391947404
0.938136727727104 0.43660600852516 0.9356620515322941
-0.5852601477394457 1.905512802659415 0.2381633990861083
-0.8948924249149902 -0.9877745498457597 0.7699791724491378
0.9372661166588888 -0.4626911427660455 1.126535475894486
-0.5404265742616368 2.268100779671278 1.822874413370373
0.785361927365273 -1.610364405057914 0.8593703973201349
0.2948212323836042 2.873272757841273 1.456948122380022
0.5846356291595496 3.060048675093257 0.9195764277123127
-0.906809833341395 0.325508057908722 0.835316981337056
-0.8498206400279466 -0.9930878913262844 1.117387147403714
0.6834407319307045 1.839797361727941 0.2513631227297384
0.7271407896748109 1.389526212348544 1.767829436954427
-0.9088791945763129 1.332906112568782 0.9395802807793923
-0.6989480063115716 1.450147923901678 1.767750713382547
-0.9092769092273292 -1.197495587168195 0.6253774975327361
-0.9117466414873818 -1.197495587168195 0.6948856448249808
0.1755111315019537 1.362525220840672 0.2338456291065464
0.3059907244545721 2.49778619707981 1.821607471585385
-0.6444211595010214 1.622772064079503 1.853384545020475
-0.3659297251957684 -1.701300943264811 0.7995183101370758
-0.6331684638838586 1.64718472577998 0.2652739318336131
-0.8791787906777915 2.754148396420118 0.932208501815267
-0.8775635459710633 2.754148396420118 0.7505464719984656
0.6876313751920122 2.589508757546449 0.1909346118541677
0.3331569267850263 1.463782291152844 2.078827218873696
-0.6719289363966041 -0.3234294910001509 1.308924861358421
-0.1648793512991428 -1.704638681358371 0.7961026466802447
0.4936623746856365 3.060848648668763 0.7835706286832185
0.5074584788732997 -0.4718686991416405 0.240666489536401
-0.4564968756076976 -1.689229151197179 0.801859218523876
-0.5109021028222713 1.352203437966904 0.2575928674780936
-0.1448150723685086 0.6493575598983788 1.98606638281883
-0.7358141772478202 0.5525151683796634 0.2811540189005172
0.404446647964238 -1.032849257928721 1.153839126791877
0.6874527135411541 2.486196325588262 0.1113203219480702
0.926146063223102 -0.9877745498457597 0.9353647271593111
-0.9315833069327388 1.732754195394235 0.6460932481662978
0.07113152969619913 0.6596775218050923 1.878919490685589
-0.6537295091398465 -1.001886299628346 0.1391621291187737
-0.9134016948688304 -1.197495587168195 0.7622841843052467
0.5180804203518987 -1.33831606931804 0.2662082485471581
-0.04621603470924179 -1.719694596797863 0.7546947921083163
0.9158798927570984 -1.43306223569768 0.9852962755013328
0.6414166395743908 -0.7902584810861026 0.08811007871925394
0.5970411283717277 -0.806831492630496 1.177379473847972
0.9216520780813521 2.453107626332617 0.5251442447516993
0.4834928622091685 2.723163142632251 1.672111452777296
0.6438281059625816 2.559652301039167 0.1740648370545195
0.07724150325512028 3.074655897182391 0.9318761586487021
0.9129607252539324 1.742310760498787 0.3582850701701683
0.6201345907331385 2.179566055537941 0.1693014318298356
-0.6432912647721576 3.046465553086267 0.9383207502140973
-0.4563091729453068 3.0735978709263 0.4235093209339496
-0.9085591263044127 1.333160261916137 0.8450313089037678
0.06642349963903839 1.465680162803935 2.102263215296312
0.9500369005643877 -0.5767295442389014 1.019157241782904
-0.238070803155685 1.724599220688812 2.059189382184538
-0.9259955967035158 -0.3016181998501848 0.6321244324301703
0.8299419398511273 -1.029407941413685 0.2082338263033833
-0.7854438717537806 -0.4022361077811066 1.232830155162485
-0.8775635459710633 2.754148396420118 0.7505464719984656
0.4356290853426513 1.619029373169387 1.886990675334293
0.9333122773006066 2.453107626332618 0.8452143547361445
-0.4117617552976972 0.8132363338794454 0.2509172921671984
0.7031577227694223 -0.7913211857909467 1.175949172466706
0.918797661906798 2.583965648129194 0.6504276913698264
0.934889981153718 -0.7490852907475882 0.6350766606461862
0.6981677201942784 0.7730422260560085 1.789493923135738
-0.3593499607292586 -1.564165410218009 1.046411431192068
0.7584774431387054 2.521544666638772 1.730033734366574
0.4450260727237373 1.358070250604868 0.250918262645622
0.7948872510851548 2.483435284030675 1.676268378576643
0.338752171020001 0.2978486448862238 1.735784606014485
0.4926290717891789 2.27976025469559 1.822267680804365
0.4828406209576744 1.53335199817026 1.812383042836234
-0.3240518124079548 0.6785275685009836 0.2449805929384583
0.7036046525162554 1.505126952878034 1.805317793496453
0.6215935724862929 2.037213664885917 1.841078777833724
-0.3155904544619568 -1.280824591215889 0.2539686188293946
0.0763171266000601 3.080138067074984 0.406282366498674
0.9252775031798476 0.3255080579087221 1.117368969626635
0.9444622536229818 1.467177930448254 0.8450364768546463
0.9614486304953869 1.981655609961887 0.8450999446156681
-0.5545728793560605 3.060048675093257 0.9372668613259402
0.4914812916884442 2.48477981492749 1.812637853672448
-0.9171928201509706 -0.52049241610635 0.629765018529358
-0.7464905152201082 1.433366577159627 0.281193670434766
-0.8960507669343709 2.389331303569441 0.5247385457676614
-0.7245216691972798 3.021997859578925 0.9986760296022624
-0.7513923301150968 -1.672753861188387 0.6140991685232339
-0.7876925132198694 -0.6106564406080056 1.184102910535761
-0.8476494636403563 0.9373886816390221 1.305431579615398
-0.5206260996562565 -0.6910343488938667 0.2215449474271358
-0.9317367990782095 1.981656956722545 0.9399750537517688
0.9388819166352771 0.6783676116392081 0.9395813290360373
0.9665785836064291 1.731974748680052 1.025211487895358
0.06642349963903839 1.465680162803935 2.102263215296312
-0.8479511236535651 2.941837210846556 1.01707214163833
0.6785083536694402 0.4270113998158132 1.800964530046207
-0.7360541630177971 0.8095668595894914 0.2810776612485639
0.9326433337855904 1.84319631004473 0.3669509943044325
0.3237550460941127 1.045456099708147 2.11922171098521
-0.04793932051978192 2.36094473195138 1.842443383518342
-0.8008802132870078 1.631117019351146 1.550897532967275
0.9496339805066684 -0.469059209454936 0.6296558503456955
-0.2446395396845463 2.635303066958573 0.2403863345602905
-0.04663776134628436 -1.457451920325878 1.088954710315294
0.1056139531489711 1.943156724359586 0.228924879033779
-0.9025805839821012 1.843196310044731 0.3669509943044325
0.3059907244545721 2.49778619707981 1.821607471585385
0.8544737483929752 2.989519963715606 0.9194383848744104
0.7271407896748109 1.389526212348544 1.767829436954427
0.669400360607342 2.87256737171843 0.280070707760587
0.9376666929304705 -0.8055228462159205 0.9368308249875668
0.3982230498309756 -1.454319756202505 1.088010311419119
0.9383237577684301 0.5537660513304086 0.8422618773323936
0.9464945920036336 2.260756947658944 0.937607651388506
-0.9036800620287852 1.394836107597979 0.6442111302217978
0.7438545196075876 3.031377327067845 0.4357128529768926
0.6222424949863471 1.504412449987634 1.831603228797965
0.6153228975429348 1.905512802659415 0.2381633990861083
0.9340030828297906 1.212021641613021 0.6441996180028309
0.1038228424523577 -0.6930435635989666 0.2192620323505962
-0.548839535231065 2.746544054369893 0.2625857753293921
0.8786735723737932 1.334931509385865 0.3509813498603868
-0.7854438717537806 -0.4022361077811066 1.232830155162485
-0.360806466212133 2.759882563137854 0.2526882883590932
0.6100184494694455 -1.32103549096631 0.272773904133911
-0.9048272313502288 -0.7490852907475882 0.6350766606461862
0.4783540487485722 1.456275572535541 1.813135745326143
-0.7727785713767458 1.837569210927218 0.2609343901807776
-0.2452785832407717 1.426890976894335 0.2396470108193403
-0.04717875345147897 3.074655897182391 0.9318761586487022
0.7962084262911879 2.41989605545611 1.702531611906831
-0.3959228854139941 1.913436869483316 0.2409836481080186
0.9388819166352771 0.6783676116392081 0.9395813290360373
0.6510868199753161 1.625492280865594 1.884457651366649
-0.7421796269774899 0.1008597026794784 0.2821747442472469
0.9165768447999835 2.665168863826066 0.8452829402005009
-0.7617198806766612 -0.3125386851511419 0.2810546547206523
-0.1625811391259944 1.670984652117079 0.2348354957492771
-0.367557954685989 1.70809632512102 2.005399640592247
-0.9279021317653035 1.628840450918386 0.6448942936544422
0.2489101026648867 -0.435851475456646 0.2358611177660884
0.4109701672254414 -0.6502354165469652 1.19480965403796
0.9367860874606491 0.2172438334506567 0.7407440805401748
0.4873561638187254 2.97113058919289 0.2737144781481194
-0.07323675383575851 2.530445873618212 0.2307217381917745
-0.6693972797622946 0.6499303960982807 1.783435305129343
0.6348731164489275 1.176215619982749 1.891315945051478
-0.8955102212993759 1.068425585196137 0.4962016064891792
0.8803225210146864 -0.4765252337080818 0.1758780002258726
0.7435255554846685 1.895190274207907 1.773773603141424
0.6674945918917181 -1.620966374275006 0.9123156875389049
0.2769468485176477 -0.6325334637831123 0.225742899876709
0.7838361017277189 2.139716764526805 0.04489990533274164
-0.2439030476353674 2.465794740531188 0.235878510179625
0.5039111416927508 2.75712466129893 0.2577218158529783
0.8798712186045541 -1.402145787486801 1.044193744085185
0.2907900052095809 2.091477912330721 1.867113600112019
0.2792160288375348 1.459020592985439 0.2397227289135354
-0.8484774547381518 -1.595352885543337 0.5532556070005962
0.3951711456766046 -1.739252463092513 0.7233479363505602
-0.824585071307822 2.98747877531312 0.8769029137547362
-0.271176736959289 -1.693750610393347 0.8480987531051298
-0.4532260751369513 -1.744859218441352 0.6017036962968956
0.6549893098357078 1.994137487770092 1.890652960307974
0.8409592685087377 2.266219449298561 1.551437254001329
0.8849249920538332 -1.552896933583225 0.8779199859661453
0.4370842004586161 0.2999108698132964 1.732453766379357
0.4274804951520324 -1.041837387867403 0.2413086053497117
0.6508950307458685 0.5550213580002772 1.851354769514264
-0.8671451263887671 2.830143314436379 0.647632040218871
-0.6989480063115716 1.450147923901678 1.767750713382547
0.9577371942845253 -0.4071259357415049 0.9800031119103538
0.8697749262591066 2.579410429045777 0.2749663103587023
-0.6917866794887335 0.6176783170241342 1.743450819664756
-0.8592994158321335 2.516491726733607 1.247406475533201
0.9577371942845253 -0.4071259357415049 0.9800031119103538
0.9264175351927096 0.808185253888819 1.124463469926816
-0.9087830512515731 1.33214366452672 1.023833000707496
-0.5323649116138952 1.598345907455228 1.80898845789123
-0.03849479513447035 1.724829045213904 2.064925917057326
0.2875656397336565 2.090630793962029 1.941442955259702
0.7150391929389994 2.421414490141255 1.788399651832703
-0.9317367990782095 1.981656956722545 0.9399750537517688
-0.8993308177478794 -0.6603256556870725 1.112967361213157
0.9255641006850783 0.937388681639022 0.4962025481190301
0.9388458010550624 1.33214366452672 1.023833000707496
0.427304166921511 2.46565084314887 0.241618515109
0.162502955603788 1.048558204504201 2.144343912026209
0.9043120728411822 -0.6921778442286888 0.2108343622881631
0.5413148604163125 2.696944725468506 0.2551911302154755
0.5846356291595496 3.060048675093257 0.9195764277123127
-0.8803274712076703 1.834544496994994 1.311870760475959
0.8961684689564813 2.828902411778716 1.039722496029713
0.0776590608431342 2.430597404245297 1.840114759724674
-0.8094667631381064 1.91835931205483 1.552208765308567
-0.6421396684054753 1.040995750614784 1.846606302141985
-0.610112520055926 0.3186505016007263 0.2646787400931022
0.7865551359614877 -1.620510426525929 0.8095428100811866
-0.919106019772339 1.538591513861644 0.6443840367171284
-0.6739961456726122 1.618314384679559 1.807598677463592
0.6868939911604191 2.200064433731218 1.84883264816321
-0.6026601324109286 1.732264080023952 1.874987049270574
0.1052682671062364 2.043411181734569 0.2233201071854985
-0.9085635794847964 0.937388681639022 0.8450312901761541
-0.4721265037517943 -0.583720176024954 1.202924544786991
-0.9071640057102899 -0.8055228462159205 0.8603160061109904
0.5979010511299847 -1.311026943182169 1.11244252704306
-0.9043607147590237 -1.130794952218474 0.9362653041814146
-0.1706716962092594 2.28850208204638 1.837098185754709
-0.870031110743092 2.260789628929989 1.299758679903883
-0.7763503557663136 0.3308312580519834 1.498965191547674
0.07553399949920113 2.097050300135925 1.845141004526036
0.9337428118322745 1.394836107597979 0.6442111302217978
-0.368817008298988 0.7349720789054253 1.851271670682548
-0.2727984092312019 2.628455771190663 1.775590729696662
0.9337428118322745 1.394836107597979 0.6442111302217978
-0.1672906113339516 3.064578508744713 0.6906178015214133
-0.9235766201897098 1.912919314630224 1.127466002592529
-0.6116441102301473 -1.016399826558955 0.1656579327882843
0.1035222894671945 2.63543308948825 0.2356750946738802
0.9341832659146242 -0.8624210592754813 0.9115495958857895
0.7466761632931975 0.8355671638347043 1.698259855953391
0.9278153767656544 -0.9220010579901241 0.7173934320605331
0.8879817291776558 2.93882889051398 0.7350841310426819
-0.9300472287433028 1.913082501545132 0.6490358907746643
-0.6316850667548826 1.55550309643503 0.264859706605405
-0.04663776134628436 -1.457451920325878 1.088954710315294
0.953071306564684 -0.469059209454936 0.7260621880225618
0.5420177021480149 0.09031229667455265 0.258673591075554
0.4017309883850149 3.065130490819191 0.7811099519955794
-0.5264045627408082 2.907859317902407 1.340500217440128
-0.7827702692173441 -0.7248943228484639 1.173974240841921
0.7783461144766886 -0.6481163041043168 0.0517203994599857
0.8546478211113113 2.98747877531312 0.8769029137547363
-0.1442268295319336 0.9491047576210057 0.2338446386949643
0.9276147017261356 -0.9156323488538218 1.039225231459098
-0.157655326734906 3.035383214705805 1.178174307282767
-0.378302819097562 -1.107878401306072 1.146511983470537
0.5490262358577511 1.044041478285328 1.803462925404627
-0.4035683090135108 2.114683254205611 0.2307803418931677
0.8598940416875585 2.457235433371033 0.1550607962550599
0.9304594735399082 -0.9220010579901241 0.9259920672164564
0.8960075055998878 2.75196923908697 0.5076711632564417
0.3048193719839466 3.073671701442177 0.9576088291896489
0.06918378882980733 0.3099139819596622 0.2294705281486014
-0.6769791485881721 0.4109189314568928 1.753974571472819
-0.6018711894270085 2.018711401396461 1.879895532148742
-0.2713066511134105 3.079780906602469 0.4144630808291879
-0.9140027925899774 -0.6921778442286888 1.027090103697711
0.9244339664687373 -0.8055228462159203 0.5021848309016447
-0.6213380831253886 -0.5569951700711543 0.1369233198123734
0.9540190631651535 1.836130839950491 0.512621193765993
-0.9220846784648811 -0.52049241610635 0.8220235812232599
-0.6574442271840948 -0.7190234419344724 0.03679133892641879
0.8418388202719831 2.883274212012687 1.142276021278311
0.934218830160423 -0.6345696501708055 0.5059708984521346
-0.8679807703969276 -1.131962533317884 1.102752706655972
-0.5437506931902786 -1.641204184823154 0.911883196821381
0.9329869682048508 -1.233151824509689 1.040893493770405
0.07555834546997875 1.671050724689994 0.230091133787026
-0.241240126311106 -0.4189780577990974 1.275858874519315
0.6743155279282022 1.421484619936933 1.851455759250489
0.724858730473376 0.4998885503366868 1.731898211728227
-0.5406470363082147 -0.4660434147436218 0.2311494419529689
-0.6344330754917442 2.932346776119433 0.2868528129973075
0.311163191987973 2.146956644931431 1.827052776969678
-0.9036800620287852 1.394836107597979 0.6442111302217978
-0.4572934140152361 2.971130589192891 0.2737144781481195
-0.271176736959289 -1.693750610393347 0.8480987531051298
0.5928471606390158 -1.0089802047278 1.154006125423015
-0.2387791139117753 -0.3543150825367145 1.325936636927267
-0.8887349121033088 2.583965648129194 0.6504276913698264
0.06930354544825955 0.8141489326343301 0.2290943642492822
-0.9264468240664998 2.053319495176925 0.7498147606250276
0.3541589140803294 1.235197150342881 0.2449586124993183
0.9257395415129455 -1.05890056726799 0.8650997843235213
-0.7729599829646262 1.94048739154551 0.1502337521716643
-0.5669783785682385 -0.806831492630496 1.177379473847973
0.3541145622114441 0.6785275685009836 0.2449805929384583
0.6700399526257139 -0.4689274898066859 0.1687394102792157
-0.3179030324694799 0.6478803429892754 1.805479528498955
-0.8736369855438119 2.325402313570571 0.2195390005745192
-0.232391308052325 0.6463464052891415 1.81460763086527
0.8022198954702227 0.8136616358779962 1.539229153162959
0.9327767308749074 0.1067360284048282 0.4970026280651437
-0.9100443667375645 -0.52049241610635 0.5096416015978806
-0.8952147533763584 0.325508057908722 1.117368969626635
-0.7392870329434257 -1.655703581640971 0.4037271152348088
-0.2810881547917856 2.926174304854845 0.2558092342982377
0.8571326270335034 -0.8095042613349213 0.1054967104496391
0.3874107408591289 -0.4357622586055084 0.2416012484209498
-0.2232936014486838 0.4145907339551147 1.767569198255064
0.9119474869944607 2.664733032359437 0.6489895409314764
0.8102153716170564 -0.7822464250878922 1.167453125721042
-0.9025805839821012 1.843196310044731 0.3669509943044325
-0.9088800868203181 0.937388681639022 0.9396676480596327
-0.5478557724819129 -1.683609727699692 0.7659110596858216
0.6147955015281331 -1.07481800805631 0.2246171089327038
-0.5598634806619897 -0.3252678762666807 0.2570737074096086
0.9556516596957836 -0.4071259357415049 0.7269367541784747
-0.3632871523611853 -1.757215099532705 0.598052009604673
0.7661246082988105 1.072499911068551 0.2810758132261682
-0.58543155786072 0.913079908278599 1.821440583417992
-0.04220038293060445 -0.04463124824564413 0.2308283723529347
-0.2708838539631982 3.032013145497642 0.2866410777377654
-0.626698771208222 -0.4433231389560444 1.239639279228857
0.4426472147431085 -0.08585480721558911 1.529899824702069
-0.9199741507608984 -0.5767295442389013 1.019157241782904
-0.5471948266715204 2.952202594340348 0.2802444450338143
0.8950255377814473 -0.6257017052475272 1.1566410047272
-0.9106523862293654 2.194045498278826 1.120654704649511
0.1923479203970765 2.79964362592476 1.58647400429283
-0.0736110174087144 2.261868363386165 0.2179550891775554
-0.5174335442022654 -1.03956716258151 0.2381368597292679
-0.8391791628905981 -1.586804982908213 0.409551310360021
-0.4670260202970338 -0.4342936238724161 0.2453270202751924
-0.9154626111121781 2.194009767771218 0.6503190397787729
0.6406374996553581 -0.9068718016558075 0.1163075566160306
0.9088067375978095 1.731248272115888 1.311133839837881
-0.1436764055783268 0.6461341155105929 1.819195963825768
-0.144236133204371 1.235984592318438 0.2338347397031091
-0.04547124969568076 2.097050300135925 1.845141004526036
0.7745019662720742 2.342482642681998 0.05441239852757317
-0.7137917698040985 3.031377327067845 0.4357128529768926
0.4886800982311172 3.070122380248654 0.5209856428370664
-0.0349856020978066 0.9119475077458752 2.149164331194319
-0.9079784594354039 -1.354472462385169 0.7208654619377103
-0.2390489751192831 -0.2434059665362459 1.416469722128943
0.9519132086729389 -0.469059209454936 1.071234257644622
0.4336310588170155 2.11468325420561 0.2307803418931677
0.3111509045952901 2.926174304854845 0.2558092342982376
-0.9278222131145636 -0.01387916095550358 0.8310805311840774
0.6339638293073118 1.976554519896623 0.2090273542874171
-0.4047038439493151 1.577745036015139 1.886569137635328
-0.4617081050128207 2.351035084934285 1.822755373391447
0.7560415160669195 -0.2338402555361428 1.366521142951144
-0.6149076197219014 2.606090803184698 0.2050769878910484
-0.8286919492111911 -0.7529148992652708 0.09416312581597722
0.1036737672123557 2.261868363386165 0.2179550891775554
-0.899820301753774 -1.130794952218475 0.6421887764879735
0.5413148604163125 2.696944725468506 0.2551911302154755
0.785361927365273 -1.610364405057914 0.8593703973201349
0.7646657910781773 0.3218953776909646 0.2814823227797345
0.735532178031945 1.686434669328625 1.771709307462046
0.3871322207522443 2.870364886956452 1.454370820832391
0.9266231034583814 -1.478016723454613 0.7008496313575223
0.4482171712304329 0.6503424641453461 1.790395798649304
-0.2840937420531202 -1.250439748650079 1.128623424192233
-0.8945823123401167 -0.4007595671441405 1.16067984053902
-0.6435405789128126 3.038688202365 0.7887623271344434
-0.6573899637376649 2.486196325588262 0.1113203219480703
-0.9020878577256684 -0.468502836442149 0.3717048266418647
-0.6064847232800931 2.209313986339192 1.883631307609526
-0.4564968756076976 -1.689229151197179 0.801859218523876
-0.895501350881589 0.937388681639022 0.49620254811903
0.9627339282452536 1.628451587403281 0.8450500148961155
-0.8472851479748942 0.8081852538888191 1.304677306652855
0.6735740614544992 3.043367786564946 0.8609187867744637
0.5308120494630017 2.832811941359544 0.2654806675102427
-0.3714245936856276 2.495106079606072 1.816702779276046
0.2739657974389328 2.465794740531188 0.235878510179625
0.6274235778450541 2.940896121882012 1.252526085951534
0.2510822524764771 2.760050100587776 0.2470288867631313
-0.9119756930140831 2.325402313570571 0.845178756938301
0.5018742161119396 -1.098821674507299 1.146595284615231
0.9372267555137791 -0.8055228462159205 0.8603160061109904
0.2995563132929677 -1.659294376229918 0.2768073402305832
0.8796599386783743 1.396773251702292 0.3510181702205493
-0.9074473864115782 -0.8055228462159205 1.039794296482458
-0.8812976358744086 -1.47147622029006 0.4202161589039872
0.9257395415129455 -1.05890056726799 0.8650997843235213
0.9093359148242773 2.664504829350572 1.063128737407802
-0.452777871154185 1.53335199817026 1.812383042836234
0.07841478158838253 2.147169893670187 1.837645648244009
-0.3682416170701778 1.026389087950287 1.976279904275125
0.9355526571810146 -0.8055228462159205 0.7572477637072017
0.8961684689564813 2.828902411778716 1.039722496029713
-0.6213380831253886 -0.5569951700711543 0.1369233198123734
-0.2806431934442442 2.288372428110375 1.831263366962842
-0.9179015922709759 -0.5767295442389013 0.7281918902071694
0.1983191299154099 -1.552772053653251 0.2574730397518362
-0.2385527550164355 1.23593949617811 0.239589518547239
-0.5361878608989384 -1.688440811630995 0.3281330851825105
-0.9225566587764429 1.913743318831528 0.5188482959523343
0.7663145046669907 3.023883322649811 0.9662751371307474
-0.9084815868907136 0.5537660513304086 1.024437624823448
0.922986339032449 -0.4117127815343907 0.3668938904757255
-0.7573645026773215 -0.5345171436120493 0.1058110145768117
-0.7173271455821638 2.042113853807039 1.776903040033371
-0.9085879984819477 0.5537660513304086 0.9382727171870304
-0.5400092172822968 -1.533963964425047 1.047905302955273
-0.7054694282284557 1.686434669328625 1.771709307462046
-0.1529115486482941 -0.04458355081195493 0.2355683612774472
0.7829380645178415 2.686132281294382 0.2916572503222949
0.4219900330249758 2.699622928353246 0.2511478002745987
-0.4607850917883754 2.55213467634153 1.795163844212788
-0.9328944200685856 1.62785496191908 1.024591099383294
0.9333060459210386 2.389331303569441 0.6508105042309706
-0.8719408020868846 2.830230480729705 0.8453429230632447
-0.420907556261754 -1.278238283195035 0.2592438521742448
0.3145591401280723 -0.1921911047096282 0.2422041780085603
0.6674945918917181 -1.620966374275006 0.9123156875389049
-0.1438754114141077 0.3099381688512931 0.2342185713234249
0.1947579711050408 -1.719535822852747 0.7563273912001216
0.9420384428175723 2.325402313570571 0.8451787569383011
0.8807708052269834 1.329784147106739 1.307388021938045
0.677215796202101 -1.501303627506766 0.2826829025677141
-0.07314339242359985 -0.9893255921947207 0.2270491457440918
-0.4711932766525602 -1.328831638857618 1.112013489632452
-0.850708055423494 1.329784147106738 1.307388021938046
-0.1636313834683409 -1.760631385595867 0.5918360264961459
0.9531474340894186 -0.01402606608594791 0.6405179847329848
0.197093198158227 2.106986506445747 1.830065500546147
0.9303321450886846 -0.9220010579901241 0.8748196271474765
0.9380181067141629 -0.3008836741979631 1.12489957459513
-0.886882749571693 -0.520534487244847 0.237804808584793
-0.8736396934407718 2.053349396470446 1.311000575038138
0.5979010511299847 -1.311026943182169 1.11244252704306
0.6733979203814954 -1.637521529954414 0.8554482569606146
0.2680411672013374 0.3099674699965435 0.2399705755430535
-0.8813245246171295 2.58361698295589 0.5212148902517274
-0.8742493230376929 -0.6921778442286888 0.2108343622881631
-0.3781151880361859 2.212102127162052 1.824476291078091
-0.4122060748322142 0.534566251728542 1.775518137091239
-0.3655398297851192 -1.716177186675535 0.7602883391947404
0.1877180765384713 3.035383214705805 1.178174307282767
-0.230527087029456 -0.4969977413354317 0.2318678646862281
0.189579701886474 2.942701206977841 1.347126192470932
-0.6471530463986117 -1.501303627506766 0.2826829025677142
0.401098319964033 3.063184790580492 0.6954795714668647
0.2824284143278851 -0.04452576788333696 0.2413106081970535
-0.2674177605067003 -1.74592503303361 0.4515432577115219
-0.1445477920580943 -0.2434797285079847 1.419284266729363
0.9375546030843625 2.325402313570571 0.6506395377904718
-0.4584764150860531 2.089006857080282 1.815426893025382
-0.9180133914888974 -0.4071259357415049 1.089160853697076
0.9388458010550624 1.33214366452672 1.023833000707496
-0.3652157843759577 3.029508292636202 0.2917030392663937
-0.6865231469511629 0.05868964274555526 1.578277748711805
0.07495843022968354 3.065853827848933 1.037865000959721
-0.7281238876408378 1.415706416851567 1.709869537634048
-0.1643771574696697 3.066414423026396 0.3306651181776651
0.290103776624494 3.05536797376816 1.101062374806553
0.4109701672254414 -0.6502354165469652 1.19480965403796
-0.8809194700527917 -1.057594422465324 0.4725654133230763
0.9388482563486759 1.068319631375096 1.02399766546747
-0.864962787977958 -0.6257017052475272 1.1566410047272
0.2960166451252963 -1.741815806915341 0.382988216309085
0.4219900330249758 2.699622928353246 0.2511478002745987
-0.9197008791749863 -0.5767295442389013 1.052627652900969
0.6874527135411541 2.486196325588262 0.1113203219480702
0.9327767308749074 0.1067360284048282 0.4970026280651437
0.9466065282099909 -1.264944199814092 0.8968185406891721
0.9420115004927397 1.914473991409992 0.3736062016857416
-0.9143995038194925 1.467177930448254 0.8450364768546463
0.7764903953736968 1.757808233376238 1.714330595342774
-0.7944897451212059 1.540081975532177 1.549726890036323
0.918797661906798 2.583965648129194 0.6504276913698264
0.6123583964343142 -0.8615155899032887 0.1740959656205472
0.8887717121702354 2.829794649263075 0.5048542227359687
-0.5180470435533801 2.585480058723141 0.2398675173135468
0.06514959144784514 1.048644410516683 2.148758100734824
-0.8625732967801725 2.584720750917766 0.3785317421133111
0.8885219140659484 1.46378712306389 1.307757302501418
0.9445978010877199 -0.0146136866077252 0.4973360722676666
-0.1606950532815847 2.873449405634168 1.460057405988889
-0.78863204241008 1.467868131829855 1.548628453747992
-0.7301707966832952 0.1390004807920426 1.575275884113249
-0.5538563283390025 3.050281357612161 0.7019827424516523
0.4314461752263801 -0.5756646345998181 0.2348591185543287
-0.8626370948811264 -1.054986859688806 0.3559152668815318
-0.7261426477310194 -0.4392568565859669 0.2072430662518754
-0.9244846529291229 -0.469059209454936 1.024243308739715
0.6159011907613843 2.622604945448355 0.2304908646704723
-0.8133935913453656 -1.508738808465965 1.001218938310249
0.9036997353473011 2.325402313570571 0.2195390005745192
-0.6491269814930545 0.3316106572954171 1.779659362593198
-0.9079784594354039 -1.354472462385169 0.7208654619377103
0.5503567049405675 1.17918523001835 1.808726532922628
-0.9081928026366648 0.2172438334506567 1.015531959719742
-0.8535141089678936 -1.60063775782498 0.6893932178795901
0.4422214981087915 -0.3477330665961926 1.323141656657703
-0.6565205151072193 -1.406555796410757 1.087885046130285
-0.6313286302018473 2.022772562140977 0.1380776295036389
-0.431724187112615 -0.4653472310154379 1.242262397423924
-0.2497629991109079 2.043320417259364 0.2281046324764633
-0.3778033660719537 -1.339062969777076 1.111703719259625
-0.7410239100549395 2.775405711754636 0.2954739701162996
-0.6769791485881721 0.4109189314568928 1.753974571472819
0.7315972544083647 1.523171450171687 1.769021550065845
-0.8961407250676375 0.5537660513304086 1.123917410141345
0.8865697210639504 -0.7962385569177922 1.140141963817698
-0.3782004415719531 -0.590146406599806 1.203210132651063
-0.3237883910417218 0.1975163395701855 0.2456409507261387
0.5620834058251252 1.941293245165461 0.2394853564773622
-0.07339346308673166 -0.7532247056358281 0.2197083658355832
-0.7325823914185523 -1.060162992349239 0.2189631783248629
0.1014401061168382 -1.157382489846971 0.240439581154636
0.9582888290429137 -0.01387916095550357 0.9235452309173876
-0.07203207552949584 -0.5300244687108803 0.2264330290104673
-0.2444548172224896 -1.086222362227954 0.2387829528577935
0.7082807619591387 2.010574261436541 0.1042147947926025
-0.07409508312165859 -0.5758480153050684 0.2242911302980046
0.7464565535448335 0.705754218790359 1.692399561643303
-0.2430749230247116 1.913536399196276 0.2352390204645731
0.07724150325512026 3.074655897182391 0.9135843052515363
0.9389413642474893 0.8081852538888191 0.9397811796278062
-0.03508684164435579 1.048644410516683 2.148758100734824
-0.6073119725790432 2.14179140614318 1.895097783585461
0.924977699670552 0.2172438334506567 0.4967987425665701
0.5817024474869516 3.053824883771115 0.6187235041948578
0.7038135758219202 1.546795999550427 1.806157328879943
-0.5320314388012302 -0.4286592511712207 0.2447415806842993
-0.8965905696061625 0.2172438334506567 1.111548963808283
0.0772444738229917 3.074202499127406 0.8933801899702117
0.6698182243180146 -1.702457925222462 0.6096982378814403
0.8763088386573661 -1.534433774494601 0.9423105399621354
-0.826352064011002 -0.8665555200796462 0.124794136989413
-0.6621411689743436 -1.391612675291885 0.2808323947323155
0.7838992925734709 2.991203684992589 1.067185077323297
0.9499795645469711 -0.5767295442389013 0.9145799537503898
0.3003303219700997 -1.760118984917076 0.6684325026340809
0.9374976555962179 1.212021641613022 0.7495060360028611
0.6165267998555352 -1.108591315623453 0.2412904807536321
-0.8827353112897105 -1.027072062322946 1.068871250843762
0.9614486304953869 1.981655609961887 0.8450999446156681
-0.6233092733789648 1.917753975015093 1.888938777669406
0.6674945918917181 -1.620966374275006 0.9123156875389049
-0.5020093600627053 -0.2293751959159262 1.410670258162174
0.9539193436467337 1.538535961930915 0.8450418979946018
-0.04699278403182031 3.074028259853685 0.9566475417946638
-0.7054694282284557 1.686434669328625 1.771709307462046
-0.4117312435182824 0.6785079117538061 0.2509294298340049
-0.3425668311151048 1.036359040567679 2.060696868814559
0.5202296306026008 -0.4953541122360897 0.2367261725686057
-0.3272086505155741 0.08224252888024104 0.24606496044348
0.6791897312965436 0.3316106572954171 1.779659362593198
-0.5528105108923034 3.059447777781983 0.9611981812238806
-0.8449796381496553 -1.590540304470337 0.4873391716497874
0.452920263749099 1.422079188280702 0.2509643377769369
0.4170241213050696 1.318463575673061 1.891349663937993
0.6285117230346272 2.884479058445139 1.337410854984581
0.9579648815687927 1.628840450918387 0.6448942936544423
0.9452117635166635 -1.264944199814092 0.7426337816151079
0.9181889573994871 -1.058639338307457 0.5802422194615701
-0.9072867709827258 2.260780915423244 1.111380473118148
0.7626451412220417 -1.060162992349239 0.218963178324863
-0.6471530463986117 -1.501303627506766 0.2826829025677142
-0.630399286474838 2.98620544565618 0.310477942563779
-0.740355785848992 3.021371237525674 0.8637007915181482
0.9409540536224994 -0.7490852907475882 0.9962462723369278
-0.9266126401094954 -0.01387916095550358 0.7396173590256365
-0.1314517684945732 0.9116256075631826 2.146037400494306
0.1628547550196108 0.7888819943142769 2.117087947530468
0.8865697210639504 -0.7962385569177922 1.140141963817698
0.1033058189165999 2.399129278966867 0.2281637422353957
-0.682839256655071 1.95347926770134 0.1449894835828907
0.5207980000391856 1.769644702334458 0.2517723365671966
-0.07339346308673166 -0.7532247056358281 0.2197083658355832
-0.598448973231138 2.884479058445139 1.337410854984581
-0.1440415499910243 1.849598777644195 2.045910618086031
0.8425122761633836 2.331055541284539 1.543360525359028
0.06930354544825956 0.9491229578445617 0.2290943642492822
-0.6108892090048966 0.2082598943404405 0.2649758812517817
-0.6105747498518689 -0.9068718016558075 0.1163075566160306
-0.6430188856464008 0.08474997454515305 1.61083746493764
-0.8960507669343709 2.389331303569441 0.5247385457676614
0.0692279274688104 -0.09150290315613474 1.541796120245659
0.6076328840996158 -1.145396567601106 0.2558816993421403
