-1.500825176253763 -1.471888700439477 0.0380763273827792
-1.154548207900344 0.9488662282658356 -0.4278186083537989
-1.492160124501448 1.558959142901012 0.1883418488371711
-1.537971048336729 1.028779639698719 0.02648177574017735
0.4758441818547659 0.8450940209436361 -0.3724128969978582
-0.877806526708488 -2.207616059777195 -0.3868547830177691
0.2394463217410726 1.096588118324094 -0.4746641932955034
-0.39037397436397 2.166748771038812 0.1280230894234522
-0.6493372584515693 0.710963448908968 -0.4280631835902626
-1.39027038769132 -1.236803224643834 0.2700306284218583
-1.035915578006031 0.1961022596312806 -0.4285596315539565
-1.351966452203031 -1.428658533860172 -0.5894884886621447
-0.2312915848687756 -2.249226144714768 -0.3463974602612262
-1.465774360613325 0.1921503801557703 -0.2698861258151756
-0.7348890389281712 -2.257162403792145 -0.186561905143379
-1.036209202954745 1.643814660453413 -0.4409416471006855
-0.9087377442893359 -1.41672923572625 0.2525751892001523
-0.9093356681475153 -2.028887826549015 0.04765335790199393
-0.9473476178018443 2.19213620169443 -0.1676780534395741
-0.6410711579844602 -0.3504199654972589 0.59448248543877
0.4785926931843135 1.731254523253774 -0.08247929893669366
-1.478015052986181 -0.5789282749833851 -0.1630224457079565
0.4612307317791077 -0.3764655119890881 -0.2695833822412184
0.4887013617079986 -1.209066526527077 -0.469820156690415
-1.495540243259642 -0.8207624886782255 0.101427024786151
-1.266805370939085 0.09722116393207703 0.2948014309594816
-1.476999335022796 -1.29236050053846 0.2503452567060673
-1.037143499531516 1.584493251400902 -0.4448266196636883
-1.211843751885178 -1.594394669708555 -0.5039093990113542
0.0283090412466189 0.07357097681903831 -0.4285909695585853
0.04824806062194746 1.196538950984553 -0.4406840430027582
-0.003340125850158193 -0.9733126643777711 -0.42701166209921
-1.415337702350355 -1.780054460079985 -0.07344749709513516
0.4467614397783192 1.807015965496834 -0.1563096558069911
-1.505927375669182 -0.9550211688811068 0.09409707073158108
-1.363418328310506 1.972943496613349 0.1520935697970383
-0.09793628836659155 0.8938161512324934 0.2956161080700119
-1.377290708373358 -0.2629161049650871 0.2496034767188794
0.5050082592333398 -1.367642567904473 0.1261517217212068
-1.495761144025289 -0.8207624886782257 0.04458289079558635
0.3722341435207891 0.7812630353943754 -0.4208508252298586
-1.154661626135666 -1.710566267010655 0.1791145596003407
-0.8675594381442666 -2.220849660922105 -0.2397245958296394
-1.212130337277306 -1.66415964953127 -0.4555946399921249
0.5001070279364746 0.7260748282788159 0.1065863693016128
0.4055745429780243 -1.779761918836654 -0.2300794479566525
0.169411071818236 1.841749489951248 -0.4242160782620359
-0.170659648963525 -1.93137830932841 0.09994449524963518
-0.8516716338910461 2.043420418460472 0.2080501114087168
0.1875561437617772 -1.192872386685854 0.277798294742407
-0.8547862168407276 0.2322231225429566 0.6258247233792011
0.07121205491451137 2.138202449280875 0.1269036917361643
-1.25768247937285 -1.657415511698265 -0.4643512123351592
0.1139619894111575 0.6055554037783925 0.4254194362193789
-0.6365755599158041 -0.01428956266318292 0.6384359395394411
-0.2707876189124004 -2.257163933369006 -0.1707777038003948
0.2157016391908317 1.386962297954353 -0.5658278916676692
-1.070038983093943 0.6611876480916983 -0.4281291089903141
-0.9053961021410396 2.222791597536082 0.06826672055676815
0.4886814125005196 -1.110143530496257 -0.4494841468171642
-0.778352684587599 -2.249169542888293 -0.2099284022332624
-0.06189904587109843 2.200340307456332 0.01666709432395682
-1.217365899043326 1.632021301133689 -0.520279402848292
0.3584096123761782 0.6973540611097597 -0.4211722999087637
-0.7408315901729596 2.238708615757757 0.06823696266549756
0.2991878671374965 -1.924807806910523 -0.3191868520928567
-0.8888100426959256 -0.1681571687535113 -0.4285518810357346
-1.272850916978442 -0.1397446328892906 0.2911577696338425
0.342008452858092 -1.48132690267005 -0.5720261463964561
0.4813815824015287 -0.6903359106277571 -0.09022116888074959
-1.432742961502908 -0.4775107378890163 -0.3743318314713945
0.2687437722071437 -1.40119425644775 0.2525751892001523
0.5074472317855895 -1.313791099466328 0.181778318336995
-1.287158661325718 -1.242073948072562 0.2719677136601798
-1.38673435389743 1.342352590757417 0.2276691880731967
-0.2705022389495437 2.214094835262304 -0.05015933113864782
0.3068502420701818 -1.924994012100676 -0.1534036648002108
-1.495284365327251 -1.09945968507474 0.2335232489193604
0.2157271751314645 2.066859343288132 0.1585631950396788
0.07531036557768608 0.7914421124171618 -0.4277663029857406
-0.3644205577093065 0.07410054337776525 -0.4285909695585853
-0.3552774083762761 0.7109638082555552 -0.4280631835902626
0.3093941100178715 -1.923479469811587 0.01276151345712927
-1.483652744669781 1.731254523253774 0.0785092924739153
-0.01634379615843899 -0.3483161724575244 0.5558648282536038
-1.072431383666811 -1.037918197185639 0.2966486943396221
0.180088025024592 0.7885849394635736 -0.4277663029857406
-1.505089036055065 -1.419555817239762 -0.0001962157968886475
-0.1016300275908117 2.196881177661105 -0.2388885231239749
0.2451725124500753 -0.6983496710562621 -0.427590552432249
0.02300589239854211 0.7720393760364765 0.3016622934637679
-1.06147576816551 2.181354974379399 0.09382883404334705
-1.472777286813193 1.741761256422334 0.1769925509625819
-1.536585339899522 1.101872076365282 0.02648823343566606
0.3281425454552743 -1.696169687036669 0.1771732009998069
-1.471253299152179 -0.3764655119890881 -0.1629730344787278
-1.289678685296389 -1.902257743258418 0.08381848922060201
-0.5819486376010554 -2.18692501088518 -0.4112369965337902
-1.513265710496489 -1.052925729702432 0.03938866652052188
0.3812259954509276 0.9709540223692696 0.2489351166703718
-0.3625219884691188 -0.4532675968016587 0.5532612496918532
-1.011350580112494 2.184338662058848 0.008746464482045318
-0.1774614951023129 -2.224367342783847 -0.3869357150087245
-1.232516577924917 2.087330576114415 0.04534514478425229
0.0689422014119017 -0.01424830876480728 0.4912336931644343
-1.506718969238111 1.488457245142332 -0.1548129454654855
-1.474561250331456 0.6451357341092187 0.2157275117170367
-1.515466452551278 -1.1099664182433 0.1532215504700406
-1.456690476807214 -1.160039565286328 -0.5255201893281942
-0.1373523945940279 -2.210850983806715 -0.1059336209362725
-1.471385218313339 0.07195417021309372 -0.1608321725998144
0.4667317165871954 1.392709717441674 0.2133937166785678
-0.7114229798653968 -1.062148846872223 -0.4263700261198393
-1.515274597748455 0.7745879353673677 0.1044785527142421
-0.6776429403044532 -2.222830054551585 -0.07532305959597861
-0.3653412551753497 -1.790210287190939 0.1583039032894122
-1.313619459303442 -1.924995710982338 -0.04561163576694959
0.00499067311699925 2.180603006927035 -0.01100091379683481
-1.068138179194749 1.735682031977966 0.2492182606023223
0.4839497239818586 1.669317541693833 0.1432548168712325
-0.7129070409988558 -1.294555489375873 -0.4321291249979692
0.08243996722717867 1.993620802018176 -0.4206700791189453
-1.512028959144077 1.233351225767594 -0.3615995399400427
-1.402584416749106 1.888926718959217 -0.2625356682104381
0.342008452858092 -1.48132690267005 -0.5720261463964561
0.08111379421679701 1.08382410129194 0.2701520080796094
0.4893455675977069 0.68958650613386 0.1541967076293025
-1.505695766153347 1.548448957786705 0.02362130167614825
-1.516564301025556 -1.262289833038584 0.1497153332941983
0.4757254792555583 0.4467379693598974 0.1717402455921444
-0.877177229166189 0.07387734069083259 -0.4285909695585854
0.2555578074926253 0.7011132989861264 -0.4280631835902626
0.2292302572023779 -1.70387715498346 0.1791145596003407
-0.7985632495946092 -2.207110751015453 -0.07528737937710746
-1.309773650287229 -1.924995710982338 -0.2005204257480496
-1.272415999646849 -1.277054883260366 -0.5872942826249001
-0.09257474374683988 1.297523841941962 0.2577497822855265
-0.9455624510600523 2.188534279187597 -0.1041038147648012
-0.1035968620307982 0.709076033328924 -0.4280631835902626
0.4894894929647726 0.569195081227544 -0.08283007827349954
-1.276703935050702 -1.172553162783997 -0.5481537350543394
0.4662981710729247 0.4462097129300522 0.2063092331161716
-1.216012199367873 1.72799319647093 -0.4730173378395825
-1.16588099698551 -0.1320317009912048 0.3852381924446041
-1.451283199068037 1.807015680411595 -0.1563110211692559
-1.232261447904627 2.087330576114415 0.0568043779983
0.4700260033142267 -0.3764655119890881 -0.01890394361409552
-1.462161740413123 1.516128499130732 0.2163148680101879
-0.9459108713522482 2.20034314901314 0.02378207809209999
-1.459662251602481 0.1921503801557703 0.2059688443372753
0.4839143081783388 -1.419555817239762 -0.370503946683988
-1.526107575297258 0.8408674581754775 0.1045168422713859
0.2052094519628525 -0.9664509448175456 -0.4296865610486574
-1.369277927456584 1.5921067808143 0.2305017495421205
-0.7150670014856625 -1.096192616889903 -0.4267065779091422
-0.4426058311904665 -2.271183414970715 -0.3080524470863988
-1.510066444049904 -1.304785060026563 0.2194915428572048
-0.6530338185308093 -1.31345986709949 0.2653767011539487
0.5333379955457327 1.028797906153213 -0.02357600263885844
-0.3521335695333062 -1.044327536157764 0.2977558348940671
-1.435262055635293 0.3151465364236559 0.2334074031462471
-1.01132764364087 2.184960097339469 0.01794268101476194
0.3709720038037815 -1.842093806207307 -0.136390715066928
-1.502461260144799 1.489975956304662 0.1523569458877319
-1.354691793660064 -1.37640973485555 -0.5996283355093868
0.4423864772185825 1.805366977611729 -0.258121516581549
-0.1127842618888287 2.210266389182611 0.0334257808643403
-1.503767167120409 -1.419555817239762 -0.07698687110987135
-1.392271094201431 1.207427740079671 0.2373435767592588
0.4611240307890749 -0.9626469683223682 -0.3696505455944663
0.4693771668685594 -1.652588201163753 -0.1470057428645916
-1.002053692325658 -0.9733118371835197 -0.4270117760876606
-0.09998873730579781 -1.526335544028364 0.2329338846539108
-1.284887713315757 -1.295701456527345 0.2653767011539487
-0.8638613251748397 -2.220989046804676 -0.3472918076813973
-0.897823160994947 0.8251526228937266 0.3068510156221392
-1.370843383061586 -0.1541065856054059 0.2497935600487012
0.3658646423093231 1.962436763444788 -0.0234255939577468
0.1581395818624384 -2.014384612315255 0.02580025778765946
-1.50194362239902 -1.157205950160337 -0.3638546903768536
0.4831326875969967 1.618815855305949 0.1855396783646548
-0.8169653094058467 -2.137309729043581 -0.01808518485541372
-0.561759385845295 -2.271182290542677 -0.3462678417328985
-1.086754173062323 1.292812463980402 0.2565218375337841
-0.5623399255526813 -2.271182290542678 -0.2099284022332624
0.4924169241670552 -1.315291793195124 -0.3714145473382167
-0.5622255431094844 -2.271182290542677 -0.2424883850540429
-0.009395341008061532 -2.124262429028303 -0.03860332363501146
-0.9459108713522481 2.20034314901314 0.01666709432395682
-1.027633552047014 0.2304833998795529 0.5518850874262058
0.467352183703218 -0.2734228381336473 -0.08707630019560739
-0.9843205618575357 -0.2432713914071918 0.5817105480945185
0.1675253948942893 1.669019067953773 0.2449068034402778
0.4699511377563197 0.3140729997267042 -0.08283115685873257
-1.347640755330026 -1.533384410057426 -0.549395647847071
-0.3562179925420722 0.5841662348284714 -0.4282219404072091
0.5161777778562315 1.10331612426024 -0.3597511480113008
-0.2952633643763469 -1.562170289293146 -0.4298463897252324
0.4079843114236854 -1.780054460079985 -0.1752225395521647
0.5281651604111086 1.166229194600966 0.02643771493658031
-1.453190240351052 1.636164751416257 0.2126866479080037
-1.47970240107199 0.9580055028959 0.2481277062094205
-1.370227760747482 0.2026571133243306 0.253863148408376
0.5129195428001917 -1.262289833038584 0.04790571886912243
-0.7344367521092423 2.224409157748844 0.007637983061884265
0.478764980836075 1.055254832685108 0.2363924475081373
-1.502188447628013 -1.409049084071202 0.2072159387898843
0.5306605505284172 0.9328865525702702 0.02642330207775187
0.4696865047836196 0.07195417021309371 0.1228991542654656
-0.841899495668536 2.230611087938626 0.06823696266549756
0.4978152843735589 -1.209066526527077 -0.3659025564099019
-1.079731389422916 0.2295320944151357 0.4870331947860236
0.2338520011341424 0.6799206459199232 0.3172630462359473
0.5120314754517827 -1.1099664182433 0.08771517244317603
0.4734429765632355 -0.6910178293185781 -0.2691441448828325
-1.340138916280081 -0.1656045119242814 -0.4216425191035977
0.4863121644733344 -1.262289833038584 -0.4768894895336348
-1.509529942585618 -1.367642567904473 0.1261517217212068
0.4909723297974571 -1.526685089903046 0.1073950123632964
-1.50628530186721 1.427807703446801 -0.2493834235932717
-1.18715370327653 -1.459846906276985 0.2442568797046466
0.3087610941399406 -1.924994012100676 -0.07228239489597488
0.5148334746591688 1.365218853600324 0.02594469729750692
0.466892642690539 -0.1646133187739662 -0.08474783383051099
-1.216012199367873 1.72799319647093 -0.4730173378395825
-1.507546471898665 -1.1099664182433 -0.2603962060569618
-0.5877281945576206 2.23092047643496 0.02378207809209999
0.3450841092547965 -1.820050610037374 0.119499323718031
-0.1921023002411801 -2.240360278761982 -0.1707777038003948
-0.8673604289058458 0.490818057860373 0.6016815707805022
0.4959033866805482 0.6928045338570354 -0.08292092876893834
-1.017409226497498 0.7356142859717323 0.3359571850499392
-1.498024544192247 -1.461381967270917 0.1981363507892259
0.4518310162603859 -0.5774275812545897 0.2258439384502075
-1.498684577524459 0.6483724432094842 -0.08287849831068075
-0.1218961939249877 -2.182442670153832 -0.07112839565000453
0.3449979629427036 -1.096690689843464 -0.5004872555165638
-1.032079369892403 -1.676114910590115 -0.4269109408296423
-1.466046523495129 0.8653568625023815 0.2563317103381828
-1.367996944660815 -0.03827967064652123 0.2509988218551146
0.3406252535573243 -1.674286233963954 -0.4368423603378964
-0.1736437949158463 2.225235850467413 0.04758815100484813
-0.7093892680525784 -1.562169517636318 -0.4298463897252324
-1.460708416209992 0.7292165466755125 -0.374491651583695
-1.502775546216546 1.365214240426876 -0.3632471863797907
-1.51015218697834 1.488463755530308 0.06016889290101558
-1.535881126828887 1.101872891152959 0.06895584043305145
-0.01283910410673681 -2.157838738831796 -0.2210142088413757
-0.8327815640026934 2.217010595764516 0.01666709432395682
-1.04571061331539 -1.144270156968565 -0.4398032729422227
0.5007238334817883 -1.367642567904473 -0.167648500922272
-1.079731389422916 0.2295320944151357 0.4870331947860236
-0.9744745282412605 2.056801148394196 -0.4161412053323302
0.5002453028836215 -1.419555817239762 0.1414216134286559
-1.517458999883182 -1.262289833038584 0.09267165149472965
-1.483114376536592 1.731254523253774 -0.08247929893669367
-1.259398041923679 -1.636978758662625 0.1996853704459048
0.06283713671600615 1.675021272494296 0.2535548575048855
0.3205344699109577 -1.727175924015 -0.418217992890782
-0.8910985261971862 -0.3849052176045313 -0.4283492163255261
-1.480195691891475 1.548448632267306 -0.4667367416199208
-1.518359911594929 -1.209066526527077 -0.02657289013719505
-1.199844580094848 1.154581365218383 0.2629573268754972
0.4437374384955055 -1.718708397751376 -0.1088970341212856
-1.508127617893527 -1.367642567904473 -0.07658357566097149
0.4667317165871954 1.392709717441674 0.2133937166785678
0.4924530929333654 -0.9584307623352122 -0.2674283014843343
-0.6403083394471967 0.1973967363348005 -0.4285596315539565
0.220722005141019 -1.741477868670674 -0.4235624950291831
-1.500910144643184 0.691753783027761 0.07631695868645479
-1.515753431819866 -1.262289833038584 -0.09257783637123333
-0.02330664701424002 -2.022022958575265 0.04748928985066864
-0.8997666135909994 -1.820930784631052 -0.4208764430574927
-1.178287843149261 1.690850279340844 -0.4651309176833371
0.1464447560186988 -0.1670361913366419 -0.4285518810357345
-1.498684577524459 0.6483724432094842 -0.08287849831068075
0.3303940894273407 -1.844906275886949 -0.3835485103581682
-1.159461102613404 -0.01545612006530864 0.3890810437358795
0.469108154954101 -0.3764655119890881 -0.08876255549592529
-1.415337702350355 -1.780054460079985 -0.07344749709513516
-1.514236945756937 -1.198559793358516 0.2300893132727677
0.5119829978751551 0.7761440578434614 -0.08291952768450846
-0.7792627073614914 -2.239502154771504 -0.111651473362013
0.2880286142827515 0.7608516689069013 0.269657816475883
-1.184245287056922 -1.51550905920256 0.2329338846539108
-1.449418456326735 -1.708201664582815 0.1309475190255955
-1.526611795225002 1.103375728459866 0.1692441723349245
0.5012427260239808 0.8494954443955505 0.2279735651514346
-1.496938382623861 -1.315291793195124 -0.3714165288165701
0.06815515446668595 1.552858598681125 0.2572370559938789
0.4719270554509384 -1.652588201163754 -0.0381758002430261
-1.062197073082899 1.800352152614402 0.244339197008404
0.1704361877775283 1.73404382138137 -0.4511908409087164
-1.369890417457217 1.919319076030163 0.1927154002675455
-1.367892058753857 1.308728030654846 -0.594233014702229
-1.520466700485571 1.234885355597564 0.1599103322585048
0.4382300221752209 -1.369925216876573 -0.5653196801323538
0.4322174798934673 0.7981288530265451 0.2612067283661811
-0.7772310709785004 -2.249169542888292 -0.2761101865911858
-1.178287843149261 1.690850279340844 -0.4651309176833371
0.04358995167096704 -1.953035494086895 -0.4194904809549242
0.203655728717418 -1.765947165971229 0.1583039032894121
-1.449884970405527 -1.717207435870153 0.08663461269375669
-0.9117268685052316 0.7943408952480127 -0.4277663029857406
0.4813815824015287 -0.6903359106277571 -0.09022116888074959
-0.09239150896924257 -1.25582994078027 0.2719677136601797
0.5220901713905306 1.103375460307438 0.1692438919528903
-1.089150098954016 0.7329562394770985 0.3083578450587177
0.5281651604111086 1.166229194600966 0.02643771493658031
-1.218707797286101 1.573091549111356 -0.5398729730494614
-1.070038983093943 0.6611876480916983 -0.4281291089903141
-1.077370044273324 0.1079172853421096 0.4910402453531966
-0.734159535725994 -2.257162403792146 -0.242488385054043
0.505865832905537 1.488458872739326 0.02430001139425747
0.3626533455207177 1.962354314050533 -0.157494048800004
0.1680758125041132 0.7039286698113325 -0.4280631835902626
-1.483261403155609 1.678323581133598 0.1815209787591248
-0.8327815640026934 2.217010595764516 0.01666709432395682
-1.336774294147613 0.8103204693748909 0.2711740744489127
-0.3390915129182945 -2.265276396145244 -0.1707777038003948
0.249042693025896 -1.541164035713424 -0.5474043052626071
-1.311369033216775 -1.924995710982338 -0.153404270510499
-0.3574689766077686 0.7769289624045506 0.3186086864595598
-1.088257651236405 1.224364709130402 0.2632887264566997
-1.363418328310506 1.972943496613349 0.1520935697970383
0.4423617961509133 0.447085167315635 0.2345087452859563
0.4567611299187396 1.516124726651336 0.2163111633021184
-0.9909763132126299 -2.157856656501953 -0.2578909768308995
0.4080608169331949 0.5746194959033696 0.2569452800515161
-0.01141766650795945 -2.157838738831797 -0.1593739852144037
0.4768219541768054 -0.5789282749833851 -0.02141530349810743
-0.8149958902864334 -2.238995402178607 -0.1368269585753113
-0.2289699137478652 -2.249169829217686 -0.242488385054043
-0.6308896628438319 2.048805814907529 0.2029538655213516
-1.515753431819866 -1.262289833038584 -0.09257783637123333
-1.479906308797097 1.668798776140506 -0.3546052832835679
-1.197119296742359 -1.246936451327164 0.2719677136601798
-1.377370318815221 -1.842093806207307 -0.04959994830082059
-1.522582568042549 1.300250837802538 -0.08271934085798782
-1.523372734871048 1.3002682120262 0.06786984230087442
0.3174773113364122 2.02086217403962 -0.1584872207639441
-0.8751191123308139 -0.5566749836115132 0.4981607000179028
0.4891930426527378 -1.157345372690466 -0.4606025550646302
0.4649687719007585 -0.2734228381336474 -0.1624133388196225
-0.4427999132005751 -2.271183414970714 -0.3462678417328985
-0.8692536910534907 -2.219422684902192 -0.1322983429943712
0.07893229889125787 1.292813352127 0.255087577220953
-0.6454831299416106 -0.6723855131942568 0.4520635595474594
-1.041800100617854 -1.291200735712733 -0.4490915050537219
-1.490604684350601 0.6450208294204121 0.1742721867564284
0.1473143785847268 -0.9698501366455755 -0.4282672159184938
0.004433009963339117 2.173534358092834 -0.1034899825965324
0.3580432142569488 -1.216806434785713 -0.5727574245146347
-0.1949008193289165 -2.240416594259064 -0.3081820656147266
0.4512660231024915 -1.115816631068409 -0.5041371844556315
-1.513286077775972 -1.052925729702432 0.08932916480176845
0.4916639034445161 0.6483724432094842 -0.1599877831522685
0.3673998774830662 1.086431747039801 -0.4874694461152292
0.4712949243875604 1.730842276282498 -0.2520205594716266
-1.152617731589399 2.127538368705461 0.1241776612022834
-1.460708416209992 0.7292165466755125 -0.374491651583695
-0.1130781143098258 2.217380318007701 0.04763216833042687
-1.296716265677375 0.9417415948102654 -0.4287295765928623
-0.9934357361484976 -2.157856656501953 -0.15938128178465
-1.268602357551304 -1.330682391715149 -0.596894370977006
0.4782943173054366 0.4477215995081955 -0.08281987871344843
-1.054873590622712 1.927945718785963 -0.4212718990389237
0.4909206541174505 -0.8207624886782255 -0.02386964060725922
0.3730676677561254 -1.395084054162656 0.2506422033871647
-1.495421497468839 1.667816847965038 -0.02348413907831906
-0.8621837594967369 2.18650685955243 -0.3095029989673119
-0.1127352864853292 2.209080734378429 0.01666709432395682
-1.47970240107199 0.9580055028959 0.2481277062094205
-1.045129687751632 -1.185577390932297 -0.4434480059039339
0.01057728524753996 -0.6682845552180103 0.4312943666709416
-1.272615954886049 -1.509589693358709 0.2329338846539108
-1.440082231738821 -1.717031191690284 -0.2973292627298566
-0.3388797841005485 -2.26388341855519 -0.1368741872607184
-0.272729486561763 -2.257163933369006 -0.3080524470863988
-0.1923303059948065 -2.240360278761982 -0.186561905143379
-1.515867107502474 1.36525887017332 0.127284480851219
-1.516994890621041 -1.262289833038584 -0.01767080560426923
-1.070575282166182 1.675020124043762 0.253553880373147
0.2196315889246447 -1.177177923198744 -0.5250662762650019
0.2780856596924287 1.183120099956322 -0.5455486229208739
0.4667484668850888 -1.652347893242467 -0.2085687523333391
-1.489701315740507 0.7253511110951927 0.1953199912628829
-1.400833108291277 1.901496112410353 0.1671351848440927
-1.219314873330984 -1.902002666248922 0.09761623239476586
-1.264370309885035 0.656157720030208 -0.4281291089903141
-0.1947992589456994 2.114605875056395 -0.399508174672336
0.02475349197155434 -2.05187508008342 -0.4184097130360458
-1.266694865362954 -1.087952757258687 0.2832326046063065
-1.516673588417646 1.166516463038929 -0.3601263003977488
0.1727153068270458 -2.040320983793521 -0.04193181970327366
-0.9117268685052316 0.7943408952480127 -0.4277663029857406
0.2700541838790158 1.416494297014973 0.2376113103658086
0.3153158089177751 0.5898803336797669 0.291841805810924
0.5134337698449966 -1.157309950239875 0.1202671168039076
-0.897823160994947 0.8251526228937266 0.3068510156221392
-1.515867107502474 1.36525887017332 0.127284480851219
-0.09806183994615435 1.496480212962179 0.2577940042712934
-1.460708416209992 0.7292165466755125 -0.374491651583695
-1.094976487014707 -0.2415359873387321 0.4733329263757962
0.5014047401919133 0.7279718965580899 -0.08293087552172361
-1.239198478001614 -1.703879329718149 0.1791145596003407
0.505865832905537 1.488458872739326 0.02430001139425747
-1.104969497256633 -0.8364891322119287 -0.4271034478324245
0.4787337798539887 0.4472279380352466 0.122362025112637
-1.500855051236364 -1.471888700439477 0.07499804369986987
-1.513641272030779 1.106004299618531 -0.4466613271991302
0.3731450337771585 -1.842093806207307 -0.01996702931725223
-1.522322849024078 0.8402715082396624 0.1402870901930058
0.08397967500045292 2.028739939328377 0.2010124033751076
-0.648396079260995 0.5841659385703262 -0.4282219404072091
0.4567127124587216 0.3137706224110756 0.2059332965507553
-0.3800019364291963 -1.936410291727408 0.09994449524963518
-1.510066444049904 -1.304785060026563 0.2194915428572048
0.385888449354502 1.142639665336181 0.2385154981284668
-1.492679387073616 -1.367642567904473 -0.3719771496107859
-1.512028959144077 1.233351225767594 -0.3615995399400427
0.3756227714076006 0.7131068944638244 0.2761846873753977
-1.051283198070943 -1.716635462035015 0.1791145596003406
-1.502188447628013 -1.409049084071202 0.2072159387898843
-0.9124459588178813 0.9884457733947278 0.2908123325547033
0.3693169095857585 -1.842093806207307 -0.1860875315478718
0.4899147233147658 -0.8207624886782257 -0.09290705179261001
-0.9996948577078586 2.036025721894914 0.2069572687664552
0.2110097844594614 2.031040986686076 -0.4093213536629392
-0.1019442105083423 -1.588223999689697 0.2180563172400051
0.5078817662520589 -1.1099664182433 -0.1717131911999834
-1.509146212988819 -1.157309950239874 -0.2602635690142012
-1.513620271213084 -1.315291793195123 -0.004630081793452074
-1.33324412075601 -1.6472577383074 -0.4682251126469357
0.1582229318940073 -0.1320324176871322 0.385201306104994
-0.1227806319362489 0.7383126150420207 0.3557325849402207
-0.6471443038078353 0.7769285702368398 0.318611387272901
-1.446627238905041 -1.718708397751376 -0.1627165100132912
-0.8937886394488785 -0.5920468486540608 -0.4279272491741728
-1.135521217344153 2.041516385453396 -0.4160534000890673
-1.158858218498053 -0.2775648424675636 -0.428474207088406
-0.2941152273454164 1.701476486699842 -0.4267089693488938
0.5262244942006472 1.166237960199033 0.103471420579978
-0.8686934171965224 -2.220849660922106 -0.1830627404075824
0.1919989023126419 1.031942398945899 -0.4314299333545427
0.2593165135367146 1.444790286240888 -0.5968121156147388
-0.2956609541332123 -1.649779668377379 -0.4245538162542014
0.5049428141869047 -1.367642567904473 0.003048936533546879
0.5202008400845763 1.233351225767594 -0.1551378205256461
-1.295855802129985 0.7608540719468702 0.2738096880404584
-1.517955453197275 -1.157309950239875 0.1202671168039076
-1.51904785403055 0.843808998577408 -0.2672232179285879
-0.06189904587109843 2.200340307456333 0.02378207809209999
-1.367020698830797 -1.841801059756918 -0.3122812738489982
-0.01387547429776227 -2.157838738831797 -0.257886085929683
-1.490832798055767 -1.262289833038584 -0.4768988273786985
0.267975458702491 0.78543631782707 -0.4277663029857405
-0.416848514836842 2.232103745156671 0.03341949267497191
-0.1024579426163219 2.222791840856252 0.06826671599427303
-1.489891730342141 -1.587175571190842 0.08688328793579134
0.1050456893288031 2.150737548365672 0.04638139270861977
-1.152617731589399 2.127538368705461 0.1241776612022834
-0.4421012749620777 -2.271183414970714 -0.1707777038003948
-0.04621126936701796 -2.149024094075565 -0.4087170601390694
-1.502009193636053 1.548448632267306 -0.1547277693872701
-0.2930482410570637 1.527137902837588 -0.4304646587991408
0.4667317165871954 1.392709717441674 0.2133937166785678
-1.482816000657715 0.4477215995081955 -0.08281987871344843
0.4845336624717422 -1.587175571190842 -0.06766299383235962
-1.168936868821436 -1.0342644696308 0.2941300379513951
0.08199722886913555 2.128549359111913 -0.3604895989608554
-1.157939239260797 -1.70337199110853 -0.4280257338557608
0.1823836514602777 -1.353953893719856 0.259034580427711
-0.1056273441506325 1.741993411748617 0.2508050147152071
-0.06188034587170957 2.199697648699703 0.007637983061884263
0.4787400846201121 1.678321704066605 0.1815190594089586
-1.535182233880696 0.9328865525702699 0.02642330207775184
-0.9767583899155079 -0.1323479581105638 0.595843096384359
-0.6434454109906643 -0.5581045214746104 0.5050603773440464
0.5018867588325822 0.7270198014376685 0.06960768101043521
-1.336774294147613 0.8103204693748909 0.2711740744489127
-0.9972985797210874 -0.4505253181505005 0.5194635974282389
-1.474472821108598 0.3140729997267041 -0.08283115685873259
0.4814544498317475 -1.526511200342618 -0.273747627895006
0.2776362612461947 0.8520462951730152 -0.4275023363119933
-1.53251756953797 1.028574134845182 0.1370339548615674
-1.361158597184927 -0.8263981270016191 -0.4199696853313363
-1.507017524126748 0.7277338727779845 0.02724803145360111
-0.6490824478528445 0.6653853935628497 -0.4281291089903141
-1.474642567377607 0.1921503801557703 -0.01165148151480065
0.1604885439241305 2.020709426940754 0.1954257994139962
-0.2895892204744708 -1.096193156698671 -0.4267065779091422
-1.036209202954745 1.643814660453413 -0.4409416471006855
-1.471253299152179 -0.3764655119890881 -0.1629730344787278
0.227959500105563 2.083170753067642 -0.03377356624885057
0.4599259705491091 -0.04878640381508145 -0.2698759571589221
-1.527859252755304 1.102642192344871 -0.2527769123904788
0.5134142220439522 -1.209066526527077 0.1495612004665077
0.483382752400906 1.427807703446802 -0.4793543005607681
0.05210187495125494 1.143089586920325 -0.4369863711690399
-1.189978711488455 -0.8335522647976201 -0.4271034478324245
0.3244933714219243 1.965379750432351 -0.3677974488527618
0.4518310162603859 -0.5774275812545897 0.2258439384502075
-1.031771492911217 -1.645495481456922 -0.4322759282834829
0.4518310162603859 -0.5774275812545897 0.2258439384502075
0.4831326875969967 1.618815855305949 0.1855396783646548
-0.9111075608300346 -1.099985296666319 0.2863105317427722
0.389340273415759 -0.466222184616941 0.2509475295313605
-1.361545661925478 -0.9314832898640356 0.2543475783759609
-1.110425384738197 2.145894895320039 -0.004734519159255066
-0.1130781143098258 2.217380318007701 0.04763216833042687
-0.09793628836659155 0.8938161512324934 0.2956161080700119
-0.8295462530808571 -2.224370361098863 -0.3869358128456851
-0.6471443038078353 0.7769285702368398 0.318611387272901
-1.500621987150915 -1.262289833038584 -0.3686665652523601
-0.9459108713522482 2.20034314901314 0.02378207809209999
0.1849055187319865 -1.14029806817691 0.2823698817768342
-1.474755561883973 0.1921503801557703 0.05916010492499563
-1.251994775772338 1.975145337464818 -0.4138653856190024
-1.449418456326735 -1.708201664582815 0.1309475190255955
0.4792923479138169 0.5662936231159107 0.1974574966264094
0.03175568448404703 1.584494623477063 -0.4448225431017455
0.5027347591596652 1.429346857547063 0.1555243177709803
-0.8329148057145154 2.20608398451994 -0.05015933113864782
-1.307507439492642 -0.5547571697072523 0.2789947571826733
-0.8706644012144781 -0.4521119022438154 0.5448109283429545
-0.6859401083484118 1.859975170978231 -0.4220017340655418
-0.6776429403044532 -2.222830054551585 -0.07532305959597861
0.4734429765632355 -0.6910178293185781 -0.2691441448828325
0.4484277001945822 0.6494825470357051 -0.3746183194726285
-0.5877535916686882 2.226359662218402 -0.01192769222833153
-0.7093892680525784 -1.562169517636318 -0.4298463897252324
0.4116872501395177 -1.778553766351189 0.06668517981061704
-1.27590134916341 -1.454146577093385 0.2442568797046466
-1.384451107097803 1.122710688968383 -0.5164546564749238
0.5280245832346373 1.166227836621506 -0.02356029059232035
0.4912103795361235 -1.526685089903046 0.01059782048872487
0.1701463459157232 -2.041918617444373 -0.1845277465815667
-1.48136199839518 0.6897566550249881 0.2026422677651963
0.4114253784356587 -1.769549603978417 0.1102799344855351
0.3509265501587908 -1.629622237566931 0.1977491577509364
-1.038405575077213 1.523115477067451 -0.4473983375215193
-1.449884970405527 -1.717207435870153 0.08663461269375669
-0.640322429537894 0.07410050090404881 -0.4285909695585853
-0.4421454844861109 -2.271183414970715 -0.186561905143379
-1.381014154634112 -1.395085722927096 0.2506436911733663
0.01411849759803481 2.099599250126002 -0.3994203827459004
0.2789314288342438 1.903037495903525 -0.4141379378931059
-1.247483810574964 -0.4822205948211399 -0.4281695051952131
-0.969683530908621 -2.114561986912163 -0.02044178776254307
-1.432742961502908 -0.4775107378890163 -0.3743318314713945
0.4217617524847284 0.1924927076149759 -0.3749770293563223
0.4708753889187495 0.3140729997267041 -0.01164942307088218
-1.483749650966089 0.4477215995081955 -0.01164575502006223
-0.8327815640026934 2.217010595764516 0.01666709432395682
0.1885095067718887 1.913437997514142 -0.4212718990389237
0.4702111688176361 0.07195417021309368 -0.01165238890790074
-1.534374009145078 1.029046389753133 -0.1567486219832084
-1.187026971686257 -1.055629460362064 -0.4347417647508168
-1.499765497922021 0.648098850850832 0.04182347069319594
-1.491526089694982 0.569195081227544 -0.1605373984346535
-1.456679603844342 -1.115816412624968 -0.5041423421387289
-0.1775565056355671 -1.966964119192829 -0.4194908910633306
-1.495796126509019 -1.526685089903045 0.07862396112590436
-1.48154125680207 -0.5789282749833851 0.04872430629164595
0.4848865709919379 1.548448632267306 -0.3598314804440068
-1.475816612697706 1.730841991197259 -0.2520229752640647
-1.523799757026271 1.300255181358453 0.02622087503202884
-1.186082040439701 -1.092206380760781 0.285694946315479
-0.6156915369993404 2.120176018221319 -0.399508174672336
-0.8946842375102169 2.217380063595386 0.04763217505328572
-1.475491295096952 -1.652588201163753 -0.09040607343595911
-1.275682802754585 -1.131519556735535 -0.5239739883616018
-0.1016300275908117 2.196881177661105 -0.2388885231239749
-1.474150095232504 -0.4767270407185084 -0.1630781510830824
-0.2955408215247688 -1.680479367301324 -0.4224193496491747
0.3532980850497088 -0.8263965416448929 -0.4199643182530645
-1.493920343756021 1.488457245142332 -0.3616094078695983
-0.8682483197941049 -2.220849660922105 -0.2067711545160027
-1.411388784214072 1.835617217619129 0.1993670129665033
-0.8638613251748397 -2.220989046804676 -0.3472918076813973
-1.380282636852894 1.176567539417101 -0.5476803018657173
-1.204991324508305 0.8554580534767573 -0.4275023363119934
0.4974875102837742 1.548448632267306 -0.15472776938727
-1.537971048336729 1.028779639698719 0.02648177574017735
-0.9087377442893359 -1.41672923572625 0.2525751892001523
-1.448881140460467 -0.9445144357125463 0.2317956964786054
0.4959033866805482 0.6928045338570354 -0.08292092876893834
-1.292011869458474 1.129992449397421 -0.5154586803544934
0.4382300221752209 -1.369925216876573 -0.5653196801323538
-1.484435656999812 1.731254523253774 0.0229575121741254
-0.1366532491327467 -2.219412570940393 -0.1322950023343456
0.5285077436317217 1.102025928437413 -0.1557986227795478
-1.527002245879706 1.029982556206095 0.1742669175245401
0.5157233424005099 1.300292859157539 0.128993765866879
-0.8169653094058467 -2.137309729043581 -0.01808518485541372
-1.182836646746652 -1.340625982053894 -0.5046832147955902
0.4912744431567405 -1.526685089903046 0.07862396112590438
-0.6534521424766209 -1.151403455236886 0.2824930535814152
0.3626533455207177 1.962354314050533 -0.157494048800004
-0.9460426605030288 2.195844531936743 -0.01192769222833155
-1.476651337812558 1.327637413622353 0.2125931543922041
0.4217633918451403 -1.086648840426274 -0.4843855105398283
0.1938147669912126 -0.9311776060982926 0.3057457859197204
0.4667484668850888 -1.652347893242467 -0.2085687523333391
-1.435010286392277 -1.527021918020132 -0.5244488992772021
0.0792250402904095 2.092027646585003 -0.3990692150401577
0.344125281130676 -1.428655856906846 -0.5894846258318887
-1.336774294147613 0.8103204693748909 0.2711740744489127
-0.8576919430252772 2.008048553417924 -0.4206700791189454
0.202081699461107 1.100596207725417 -0.4530231276982024
-0.2289699137478652 -2.249169829217686 -0.242488385054043
-0.5953309183051303 2.200226322405333 -0.3095029989673119
-0.04163105690041666 -1.959925318684781 -0.4194908910633307
-1.307507439492642 -0.5547571697072523 0.2789947571826733
-0.2137170802920512 -2.232608250999604 -0.3864197015458525
0.5190690158297009 1.300250837802538 -0.02354202814975887
-0.6524830861245416 -1.044327022154861 0.2977558348940671
0.07084813113625869 -1.465021626578116 0.2442568797046466
-1.11856002194337 1.956163450860408 0.2234295466607896
0.5103410414964498 -1.1099664182433 -0.100290753098779
-1.535182233880696 0.9328865525702699 0.02642330207775184
-0.416914623968893 2.218949448765016 -0.1041038147648011
-1.400833108291277 1.901496112410353 0.1671351848440927
-1.306759199860928 -1.757914506953795 0.1563586673454667
-0.8686934171965224 -2.220849660922106 -0.1830627404075824
-1.147913437507654 0.8191764147605404 0.2818372710572012
-1.494543360537465 -0.8207624886782257 0.1440269069595186
-1.495732062888402 -1.526685089903045 0.01059782048872486
-0.8329148057145154 2.20608398451994 -0.05015933113864782
-0.03343399064180259 -2.058637432957666 -0.418421196071427
-1.514664245322625 -1.209066526527077 -0.171459067901152
-1.046648652938908 1.035709690721516 -0.4280754167794556
-0.01062697690794732 -2.156257769019526 -0.1021107991528409
0.493818400228665 1.427807703446801 -0.3627990066007327
-0.3401451239657048 0.863983851976817 -0.4275023363119933
-1.534492169623325 0.9326673551163404 0.06870665774091884
-1.522366087302436 1.300283218502192 0.1015073417134436
-0.9945392287762216 -2.146787654533164 -0.0723402864182895
-1.449364248384705 0.5701723993894077 -0.3747120079204008
0.3174773113364122 2.02086217403962 -0.1584872207639441
0.06463487553529705 -1.037918896391741 0.2966488768192941
0.4606417336827868 0.8653536070732688 0.2524559467426442
-1.447709013053244 -1.317487378837356 -0.5656081220620599
0.2311674761292253 2.081532688130126 -0.2595097663258629
0.03699578048792299 1.39702556564142 -0.4483250108289735
0.4868856010271909 1.054587382499136 -0.4371147951335058
-1.505763577577505 0.8494973214625435 0.2279755368570006
-1.338278567279858 0.3161758728878561 -0.4215941060492794
0.2687437722071437 -1.40119425644775 0.2525751892001523
0.07114694480395623 1.491053654902347 0.2562082272901471
-1.478015052986181 -0.5789282749833851 -0.1630224457079565
-1.086754173062323 1.292812463980402 0.2565218375337841
-1.457477464181583 1.576205454248907 0.2155341122764706
-0.1235189403204352 -0.670657791148373 0.4468712613283299
0.4565392377165968 1.731308820302725 -0.3573789371396963
-1.044756154544266 -2.015373041774821 0.04683289235307193
-1.535182233880696 0.9328865525702699 0.02642330207775184
0.4953314050910623 1.608310999204382 0.08161603523057491
-1.501378967075641 0.6928045338570354 -0.02173684357693195
-1.228151171169638 -1.227991368321607 -0.5428616744427233
0.4217617524847284 0.1924927076149759 -0.3749770293563223
-0.3555320578806829 0.665385730231953 -0.428129108990314
-1.035970020575455 0.07357091904138452 -0.4285909695585854
0.4437374384955055 -1.718708397751376 -0.1088970341212856
0.4626152887233558 -1.582340176409029 -0.4495657507902369
-1.415337702350355 -1.780054460079985 -0.07344749709513516
0.5190690158297009 1.300250837802538 -0.02354202814975887
-1.513153579774591 -1.251783099870024 0.2250731782797958
-1.47204340936264 0.3140729997267041 -0.1608087236451951
-1.180611910288185 1.608214596144336 0.2477780195375889
0.4667317165871954 1.392709717441674 0.2133937166785678
-1.010913467698596 2.173541224058057 -0.1034904776977833
0.03140044050736535 -1.398989341340442 -0.4506954924730743
-1.041639982692944 -0.2424457096506908 0.536694745809541
-1.530746177552926 1.166237960199033 0.103471420579978
-0.6471443038078353 0.7769285702368398 0.318611387272901
0.3551273635454986 1.374108718238148 -0.6023361051501071
-0.2706491560148889 -2.257163933369006 -0.1560951616552804
-1.529140723798124 1.166258652124525 -0.1553196422610184
0.5014047401919133 0.7279718965580899 -0.08293087552172361
-1.430570666626787 -0.1631123568927433 0.2309279059103379
-0.3521385160285662 -1.367161514884907 0.259034580427711
-0.9909763132126299 -2.157856656501953 -0.2578909768308995
-1.278202524921397 0.7854373414598201 -0.4277663029857406
-1.260531388066945 1.751037770773431 -0.4578473791696285
-1.190217815315416 0.788584837126578 -0.4277663029857406
-0.4389097875583899 -2.254331950654728 -0.3862906981801345
0.4863121644733344 -1.262289833038584 -0.4768894895336348
-1.515160006827581 -1.155808988358652 0.1900786721900977
-0.351004898073272 -1.20449549847113 0.2777982947424069
-1.484757039550157 -1.587001733702314 -0.1968021590576292
0.02845049993686414 -0.8012451065436403 0.3788647255841835
-1.516494838085446 -1.157309950239875 -0.1002606826189843
-1.232604352662333 2.087084463674812 0.03221145052668883
-1.213436293804929 -1.765949420455899 0.1583039032894122
0.5097154924667778 -1.198561670425509 0.2300863382241959
-0.5819486376010554 -2.18692501088518 -0.4112369965337902
0.4935030408398884 -1.46138384433791 0.1981333892543182
-0.361832841917737 1.889800326190578 0.2343323237884615
-1.502631815371917 0.7742640426489444 0.1893976591692128
-0.1014069823127806 0.7450561366594838 -0.4279574935304546
-1.209899557155031 1.100595450488923 -0.4530273987289958
-1.173790274270595 0.5783661402935484 -0.4282219404072091
-0.01258966290232007 0.9523349952214937 -0.427339242849419
0.4666909590814733 -1.525718010946683 -0.4605091185678158
-1.476508277434349 1.608502469129021 -0.4563565509240405
-0.2638673054181628 2.212764401252787 -0.2386791946048665
0.4307387614240245 0.3151462682712284 0.2334073422550508
-1.276703935050702 -1.172553162783997 -0.5481537350543394
0.4979396315340193 1.489975688152234 0.1523566695716
0.4768219541768054 -0.5789282749833851 -0.02141530349810743
-1.036788251474194 -1.398988148138116 -0.4507003696718823
0.004433009963339117 2.173534358092834 -0.1034899825965324
-1.486727405962648 -0.690335910627757 0.1079464864077956
0.1974283775999762 -1.935770387464401 -0.4151260405201345
0.5129373165309044 -1.262289833038584 0.09267165149472965
-0.7408315901729596 2.238708615757757 0.06823696266549756
-1.060617711196656 1.104611426220281 -0.4335931985616286
-0.3515831853066743 -1.313460515010163 0.2653767011539487
-1.416178478257286 -1.780054460079985 -0.001886743142572954
0.4322174798934673 0.7981288530265451 0.2612067283661811
-1.415947012584074 -1.769547726911425 0.1102829187022393
-0.561759385845295 -2.271182290542677 -0.3462678417328985
-1.516553158804061 -1.1099664182433 0.08771517244317602
0.3509265501587908 -1.629622237566931 0.1977491577509364
-1.269887078082344 0.7366966349088443 -0.4279574935304546
-1.475816612697706 1.730841991197259 -0.2520229752640647
0.4894894929647726 0.569195081227544 -0.08283007827349954
0.4754104084960096 -1.18595800839143 0.2627305733038177
0.4890208060728509 -1.516180233801479 0.1857151346489331
-1.211259728786251 0.601078036306669 0.3565982887177597
0.06283713671600615 1.675021272494296 0.2535548575048855
-0.2900397471893796 -1.117456453389378 -0.4278373832119323
-0.8903972005953673 -0.2794812511701608 -0.428474207088406
0.469052716844992 -1.585511927346326 -0.3706112624249379
-1.46665921851676 -1.651386630950106 -0.288228582597553
-1.225975466479962 0.07293635015430504 -0.4285909695585853
-0.1227806319362489 0.7383126150420207 0.3557325849402207
0.4484277001945822 0.6494825470357051 -0.3746183194726285
0.05135321209617791 0.4566389474435421 -0.4283619731746096
0.5001070279364746 0.7260748282788159 0.1065863693016128
0.2271437283473364 2.083950489081364 -0.162272664279745
0.4715853320349684 -1.292362041620615 0.2503412215524628
0.4513067342547202 -1.564703372979542 0.2030479571208192
-1.011350580112494 2.184338662058848 0.008746464482045318
0.2374829269861891 -0.4822199897194207 -0.4281695051952131
-1.514236945756937 -1.198559793358516 0.2300893132727677
-0.01684271474908341 -2.149300437706787 -0.3890642732238317
-1.475491295096952 -1.652588201163753 -0.09040607343595911
-0.3682330033151432 1.975516692975223 0.2260752317659061
0.4960360648014789 -1.109447109902685 -0.361790568204456
-0.8933533359525698 0.4583286691638545 -0.4283619731746097
-1.473294223741045 -0.04878640381508147 -0.01206587378056127
-0.1126194937405732 2.204564344237234 -0.01192769222833154
0.3731450337771585 -1.842093806207307 -0.01996702931725223
-1.519127757544634 1.365214240426875 -0.02353290237946262
0.4001698971740508 0.7488974238620509 0.2695743736970092
-1.494543360537465 -0.8207624886782257 0.1440269069595186
0.02740859083191814 -1.55811650260831 -0.4427023584601739
-0.1302235514003239 -0.5566754525700612 0.4981625787172441
-1.086094088965198 -1.144330358475784 0.2824930535814152
-1.53506542425247 0.9329596183882465 -0.02358503662671187
-0.1366532491327467 -2.219412570940393 -0.1322950023343456
-1.036788251474194 -1.398988148138116 -0.4507003696718823
-1.156315651917887 -0.1670361714064226 -0.4285518810357346
-1.520466700485571 1.234885355597564 0.1599103322585048
0.202081699461107 1.100596207725417 -0.4530231276982024
-1.186803373525888 1.391956001318539 -0.5038503845157226
-1.511158122906771 0.7737522227329265 0.1420461927888247
-1.156315651917887 -0.1670361714064226 -0.4285518810357346
-1.490501352765117 0.6483724432094842 -0.2695156969296613
0.02456642895202993 -1.779174538614408 0.1583039032894122
-1.505245516834066 -1.367642567904473 -0.1676485009222721
-0.1021328402782786 1.619870461321164 0.258012757691828
-1.503767167120409 -1.419555817239762 -0.07698687110987135
-1.325002947949667 2.021193634030787 0.01898597122638072
0.4323948756741644 1.667552218587479 -0.4954402481495367
0.1615101310922264 -0.7010650814644358 -0.4275905524322491
0.2292302572023779 -1.70387715498346 0.1791145596003407
-1.013566444136332 2.2013453117738 0.06987781724109725
-0.7137304334477884 -1.239959480623388 -0.4312375339459397
-1.469566870426399 -1.396800073547122 0.2375718028642279
0.04824806062194746 1.196538950984553 -0.4406840430027582
0.2152948918605877 -1.282055746735747 -0.556768671311549
0.004578545695721994 2.186251941708178 0.03515665193567926
-0.1506545044203799 0.232223331900466 0.6258273880804594
-0.2900397471893796 -1.117456453389378 -0.4278373832119323
-1.498339858735764 1.427807703446801 -0.3628009877083854
-0.2927906027436953 -1.348925108502778 -0.4330432662415402
0.2417122886446592 -1.690296324236882 -0.4369290681197294
-1.471641131817447 0.3138762736970445 0.171731569595513
0.1954888076726903 -0.5490245779624774 0.3396180964486821
-1.035100991734859 -1.452101100768796 -0.4484416773521313
0.2157271751314645 2.066859343288132 0.1585631950396788
0.5106384394878585 -1.155809256511079 0.1900782690032143
0.501174082801068 1.548448957786704 0.02362130167614827
0.1954888076726903 -0.5490245779624774 0.3396180964486821
0.4702599827393665 0.4477215995081955 -0.2697701534855621
0.5305437409001909 0.9329596183882466 -0.02358503662671185
0.02300589239854211 0.7720393760364765 0.3016622934637679
0.1992773143740831 1.786717629736285 -0.4338643401210811
0.4725592510892952 -0.4767270407185084 0.1160478816212902
-1.029552842574218 2.13754100086395 -0.3648205718396845
-1.501510298303509 0.6925418461497168 0.03133505625283035
0.4096418337536824 -1.780054460079985 -0.123601024384171
-1.085323365042351 -1.305381418366949 0.2653767011539487
0.07114694480395623 1.491053654902347 0.2562082272901471
-1.328079418720197 -1.727179106202598 -0.4182202258124739
-0.9885100924380248 -2.149313280024965 -0.3890700831030656
-1.20170993655353 -1.800930355643704 -0.4208764430574927
0.5309406657948124 1.10187180476939 -0.08281007269855269
-0.4426058311904665 -2.271183414970715 -0.3080524470863988
-1.502631815371917 0.7742640426489444 0.1893976591692128
0.3616233229093969 -1.563786926837986 0.2161232095594316
0.1604885439241305 2.020709426940754 0.1954257994139962
-0.1280335353245245 2.207476527604689 0.09545503313048404
-0.01729815780156367 0.4890114307023153 0.5710406848073266
0.2248845224992542 1.834458719509322 -0.4248062172127696
0.357563240398854 1.962024516473512 -0.2648417920369312
0.4958156653156136 -1.471888700439477 0.1271304516935761
0.2849395119113336 -0.351955809136866 0.28766458068386
-0.39037397436397 2.166748771038812 0.1280230894234522
0.2816622044428916 1.12999100123706 -0.5154578075713678
-1.259106146490483 -1.541166032779278 -0.5474055379168362
-1.368738476984251 1.892298247087418 -0.3658985829692919
0.505865832905537 1.488458872739326 0.02430001139425747
0.466892642690539 -0.1646133187739662 -0.08474783383051099
0.2564024690872623 -1.087951373889563 0.2832312366282466
-0.9074562015259234 0.8938153730199653 0.2991019847390425
0.1605990159749566 -0.7953345309428392 0.3384411964834492
0.2353464773910269 1.134773235520147 -0.498370399443697
-1.158858218498053 -0.2775648424675636 -0.428474207088406
